# .PCD v.5 - Point Cloud Data file format
FIELDS x y z 
SIZE 4 4 4
TYPE F F F
COUNT 1 1 1
WIDTH 1620
HEIGHT 1
POINTS 1620
DATA ascii
0.326880  0.321120  0.756000
0.329189  0.321970  0.758000
0.329760  0.321120  0.756000
0.331200  0.321120  0.756000
0.332640  0.321120  0.756000
0.334964  0.321970  0.758000
0.337295  0.322819  0.760000
0.338743  0.322819  0.760000
0.340638  0.323244  0.761000
0.342088  0.323244  0.761000
0.343537  0.323244  0.761000
0.340000  0.318571  0.750000
0.341429  0.318571  0.750000
0.341943  0.317722  0.748000
0.342909  0.317297  0.747000
0.344331  0.317297  0.747000
0.345754  0.317297  0.747000
0.347177  0.317297  0.747000
0.349067  0.317722  0.748000
0.351429  0.318571  0.750000
0.353798  0.319421  0.752000
0.355230  0.319421  0.752000
0.357137  0.319846  0.753000
0.358571  0.319846  0.753000
0.361440  0.321120  0.756000
0.363840  0.321970  0.758000
0.365284  0.321970  0.758000
0.366728  0.321970  0.758000
0.368171  0.321970  0.758000
0.369615  0.321970  0.758000
0.372038  0.322819  0.760000
0.375943  0.324943  0.765000
0.378880  0.326217  0.768000
0.380343  0.326217  0.768000
0.382800  0.327067  0.770000
0.384267  0.327067  0.770000
0.384731  0.326217  0.768000
0.381166  0.321970  0.758000
0.382610  0.321970  0.758000
0.384053  0.321970  0.758000
0.386514  0.322819  0.760000
0.387962  0.322819  0.760000
0.390947  0.324093  0.763000
0.393429  0.324943  0.765000
0.395918  0.325792  0.767000
0.397379  0.325792  0.767000
0.399360  0.326217  0.768000
0.400823  0.326217  0.768000
0.402286  0.326217  0.768000
0.403749  0.326217  0.768000
0.404684  0.325792  0.767000
0.394495  0.316448  0.745000
0.395914  0.316448  0.745000
0.401067  0.319421  0.752000
0.402499  0.319421  0.752000
0.403931  0.319421  0.752000
0.405364  0.319421  0.752000
0.406796  0.319421  0.752000
0.408229  0.319421  0.752000
0.409661  0.319421  0.752000
-0.434623  0.311040  0.729000
-0.433234  0.311040  0.729000
-0.431846  0.311040  0.729000
-0.428095  0.309333  0.725000
-0.426714  0.309333  0.725000
-0.413474  0.309760  0.726000
-0.412091  0.309760  0.726000
-0.410709  0.309760  0.726000
-0.410453  0.310613  0.728000
-0.409629  0.311040  0.729000
-0.408240  0.311040  0.729000
-0.407968  0.311893  0.731000
-0.407131  0.312320  0.732000
-0.406846  0.313173  0.734000
-0.407105  0.314453  0.737000
-0.406802  0.315307  0.739000
-0.405943  0.315733  0.740000
-0.404533  0.315733  0.740000
-0.403124  0.315733  0.740000
-0.402800  0.316587  0.742000
-0.401387  0.316587  0.742000
-0.398895  0.315733  0.740000
-0.393189  0.312320  0.732000
-0.391794  0.312320  0.732000
-0.391467  0.313173  0.734000
-0.393257  0.315733  0.740000
-0.386023  0.311040  0.729000
-0.384634  0.311040  0.729000
-0.384297  0.311893  0.731000
-0.382905  0.311893  0.731000
-0.381512  0.311893  0.731000
-0.380120  0.311893  0.731000
-0.381836  0.314453  0.737000
-0.380432  0.314453  0.737000
-0.379029  0.314453  0.737000
-0.371989  0.309760  0.726000
-0.370606  0.309760  0.726000
-0.373291  0.313173  0.734000
-0.371893  0.313173  0.734000
-0.368981  0.311893  0.731000
-0.367589  0.311893  0.731000
-0.366196  0.311893  0.731000
-0.364804  0.311893  0.731000
-0.362417  0.311040  0.729000
-0.360533  0.310613  0.728000
-0.357667  0.309333  0.725000
-0.356286  0.309333  0.725000
-0.354905  0.309333  0.725000
-0.353524  0.309333  0.725000
-0.351171  0.308480  0.723000
-0.349794  0.308480  0.723000
-0.346490  0.306773  0.719000
-0.345120  0.306773  0.719000
-0.352356  0.314453  0.737000
-0.350952  0.314453  0.737000
-0.349549  0.314453  0.737000
-0.348145  0.314453  0.737000
-0.346741  0.314453  0.737000
-0.345337  0.314453  0.737000
-0.344867  0.315307  0.739000
-0.344853  0.316587  0.742000
-0.342514  0.315733  0.740000
-0.341105  0.315733  0.740000
-0.339695  0.315733  0.740000
-0.339200  0.316587  0.742000
-0.338242  0.317013  0.743000
-0.336373  0.316587  0.742000
-0.334960  0.316587  0.742000
-0.333547  0.316587  0.742000
-0.332133  0.316587  0.742000
-0.329383  0.315307  0.739000
-0.327975  0.315307  0.739000
-0.325242  0.314027  0.736000
-0.323840  0.314027  0.736000
-0.322438  0.314027  0.736000
-0.320164  0.313173  0.734000
-0.318766  0.313173  0.734000
-0.318665  0.314453  0.737000
-0.318122  0.315307  0.739000
-0.318000  0.316587  0.742000
-0.316587  0.316587  0.742000
-0.315598  0.317013  0.743000
-0.314183  0.317013  0.743000
-0.312768  0.317013  0.743000
-0.310933  0.316587  0.742000
-0.309520  0.316587  0.742000
-0.308107  0.316587  0.742000
-0.305867  0.315733  0.740000
-0.300754  0.311893  0.731000
-0.299362  0.311893  0.731000
-0.297970  0.311893  0.731000
-0.296577  0.311893  0.731000
-0.295589  0.312320  0.732000
-0.294194  0.312320  0.732000
-0.294400  0.314027  0.736000
-0.292998  0.314027  0.736000
-0.291992  0.314453  0.737000
-0.290589  0.314453  0.737000
-0.291539  0.317013  0.743000
-0.290124  0.317013  0.743000
-0.288320  0.316587  0.742000
-0.286907  0.316587  0.742000
-0.285878  0.317013  0.743000
-0.284463  0.317013  0.743000
-0.284571  0.318720  0.747000
-0.277084  0.311893  0.731000
-0.275691  0.311893  0.731000
-0.274299  0.311893  0.731000
-0.272160  0.311040  0.729000
-0.270771  0.311040  0.729000
-0.270122  0.311893  0.731000
-0.268730  0.311893  0.731000
-0.266240  0.310613  0.728000
-0.264853  0.310613  0.728000
-0.262743  0.309760  0.726000
-0.261360  0.309760  0.726000
-0.259977  0.309760  0.726000
-0.258594  0.309760  0.726000
-0.257211  0.309760  0.726000
-0.256533  0.310613  0.728000
-0.255147  0.310613  0.728000
-0.254806  0.311893  0.731000
-0.253413  0.311893  0.731000
-0.253055  0.313173  0.734000
-0.256114  0.318720  0.747000
-0.255032  0.319147  0.748000
-0.253269  0.318720  0.747000
-0.251846  0.318720  0.747000
-0.250423  0.318720  0.747000
-0.250000  0.320000  0.750000
-0.248571  0.320000  0.750000
-0.241870  0.313173  0.734000
-0.240472  0.313173  0.734000
-0.239074  0.313173  0.734000
-0.238324  0.314027  0.736000
-0.236922  0.314027  0.736000
-0.235520  0.314027  0.736000
-0.234118  0.314027  0.736000
-0.232716  0.314027  0.736000
-0.231314  0.314027  0.736000
-0.230225  0.314453  0.737000
-0.229752  0.315733  0.740000
-0.231429  0.320000  0.750000
-0.224173  0.311893  0.731000
-0.222781  0.311893  0.731000
-0.222297  0.313173  0.734000
-0.227219  0.322133  0.755000
-0.218604  0.311893  0.731000
-0.217211  0.311893  0.731000
-0.215819  0.311893  0.731000
-0.216187  0.314453  0.737000
-0.216240  0.316587  0.742000
-0.214827  0.316587  0.742000
-0.213413  0.316587  0.742000
-0.212000  0.316587  0.742000
-0.210587  0.316587  0.742000
-0.209173  0.316587  0.742000
-0.211400  0.322133  0.755000
-0.210796  0.323413  0.758000
-0.208800  0.322560  0.756000
-0.207360  0.322560  0.756000
-0.205920  0.322560  0.756000
-0.204210  0.322133  0.755000
-0.202771  0.322133  0.755000
-0.200800  0.321280  0.753000
-0.198571  0.320000  0.750000
-0.197143  0.320000  0.750000
-0.196497  0.321280  0.753000
-0.195581  0.322133  0.755000
-0.194143  0.322133  0.755000
-0.186834  0.312320  0.732000
-0.185440  0.312320  0.732000
-0.184046  0.312320  0.732000
-0.182651  0.312320  0.732000
-0.181257  0.312320  0.732000
-0.181829  0.315733  0.740000
-0.180419  0.315733  0.740000
-0.179010  0.315733  0.740000
-0.177600  0.315733  0.740000
-0.176190  0.315733  0.740000
-0.177851  0.321280  0.753000
-0.176417  0.321280  0.753000
-0.174983  0.321280  0.753000
-0.174010  0.322133  0.755000
-0.171429  0.320000  0.750000
-0.168867  0.317867  0.745000
-0.166773  0.316587  0.742000
-0.165360  0.316587  0.742000
-0.163947  0.316587  0.742000
-0.162752  0.317013  0.743000
-0.161120  0.316587  0.742000
-0.157554  0.312320  0.732000
-0.156160  0.312320  0.732000
-0.155189  0.313173  0.734000
-0.153790  0.313173  0.734000
-0.152808  0.314027  0.736000
-0.151406  0.314027  0.736000
-0.150004  0.314027  0.736000
-0.148602  0.314027  0.736000
-0.147800  0.315307  0.739000
-0.146392  0.315307  0.739000
-0.144985  0.315307  0.739000
-0.143577  0.315307  0.739000
-0.144670  0.320853  0.752000
-0.143238  0.320853  0.752000
-0.141429  0.320000  0.750000
-0.137013  0.313173  0.734000
-0.135246  0.312320  0.732000
-0.133851  0.312320  0.732000
-0.132457  0.312320  0.732000
-0.131063  0.312320  0.732000
-0.129669  0.312320  0.732000
-0.128975  0.314027  0.736000
-0.128267  0.315733  0.740000
-0.126857  0.315733  0.740000
-0.127651  0.321280  0.753000
-0.126217  0.321280  0.753000
-0.124783  0.321280  0.753000
-0.123349  0.321280  0.753000
-0.122238  0.322133  0.755000
-0.120800  0.322133  0.755000
-0.119520  0.322560  0.756000
-0.118080  0.322560  0.756000
-0.113709  0.314453  0.737000
-0.112305  0.314453  0.737000
-0.110750  0.314027  0.736000
-0.109349  0.314027  0.736000
-0.108093  0.314453  0.737000
-0.106690  0.314453  0.737000
-0.105571  0.315307  0.739000
-0.104164  0.315307  0.739000
-0.102895  0.315733  0.740000
-0.102446  0.318720  0.747000
-0.101023  0.318720  0.747000
-0.099600  0.318720  0.747000
-0.098309  0.319147  0.748000
-0.096884  0.319147  0.748000
-0.095714  0.320000  0.750000
-0.094286  0.320000  0.750000
-0.093229  0.321280  0.753000
-0.091794  0.321280  0.753000
-0.090360  0.321280  0.753000
-0.088926  0.321280  0.753000
-0.087724  0.322133  0.755000
-0.086286  0.322133  0.755000
-0.084286  0.320000  0.750000
-0.082857  0.320000  0.750000
-0.081429  0.320000  0.750000
-0.080000  0.320000  0.750000
-0.078362  0.319147  0.748000
-0.076937  0.319147  0.748000
-0.075512  0.319147  0.748000
-0.073196  0.315307  0.739000
-0.071789  0.315307  0.739000
-0.070762  0.317013  0.743000
-0.069347  0.317013  0.743000
-0.068114  0.317867  0.745000
-0.066874  0.318720  0.747000
-0.065451  0.318720  0.747000
-0.064029  0.318720  0.747000
-0.062690  0.319147  0.748000
-0.061429  0.320000  0.750000
-0.060160  0.320853  0.752000
-0.058728  0.320853  0.752000
-0.046324  0.324267  0.760000
-0.044876  0.324267  0.760000
-0.043429  0.324267  0.760000
-0.041760  0.322560  0.756000
-0.040320  0.322560  0.756000
-0.038469  0.319147  0.748000
-0.037044  0.319147  0.748000
-0.035714  0.320000  0.750000
-0.034286  0.320000  0.750000
-0.032857  0.320000  0.750000
-0.031554  0.321280  0.753000
-0.030120  0.321280  0.753000
-0.028686  0.321280  0.753000
-0.027251  0.321280  0.753000
-0.025783  0.320853  0.752000
-0.024350  0.320853  0.752000
-0.022613  0.316587  0.742000
-0.021143  0.315733  0.740000
-0.019733  0.315733  0.740000
-0.018324  0.315733  0.740000
-0.016891  0.315307  0.739000
-0.015484  0.315307  0.739000
-0.014076  0.315307  0.739000
-0.012549  0.312320  0.732000
0.079410  0.323413  0.758000
0.080853  0.323413  0.758000
0.082297  0.323413  0.758000
0.083741  0.323413  0.758000
0.085185  0.323413  0.758000
0.085371  0.318720  0.747000
0.086794  0.318720  0.747000
0.087981  0.317867  0.745000
0.089160  0.317013  0.743000
0.090453  0.316587  0.742000
0.091619  0.315733  0.740000
0.093029  0.315733  0.740000
0.094310  0.315307  0.739000
0.095330  0.314027  0.736000
0.096206  0.312320  0.732000
0.097467  0.311893  0.731000
0.098589  0.311040  0.729000
0.099840  0.310613  0.728000
0.100949  0.309760  0.726000
0.102190  0.309333  0.725000
0.103286  0.308480  0.723000
0.104229  0.307200  0.720000
0.105453  0.306773  0.719000
0.106823  0.306773  0.719000
0.107440  0.304640  0.714000
0.108800  0.304640  0.714000
0.110006  0.304213  0.713000
0.111364  0.304213  0.713000
0.112406  0.303360  0.711000
0.113600  0.302933  0.710000
0.114629  0.302080  0.708000
0.115486  0.300800  0.705000
0.116497  0.299947  0.703000
0.117333  0.298667  0.700000
0.118328  0.297813  0.698000
0.119486  0.297387  0.697000
0.120467  0.296533  0.695000
0.121790  0.296533  0.695000
0.122760  0.295680  0.693000
0.124080  0.295680  0.693000
0.125038  0.294827  0.691000
0.126354  0.294827  0.691000
0.127486  0.294400  0.690000
0.128800  0.294400  0.690000
0.130114  0.294400  0.690000
0.131429  0.294400  0.690000
0.132743  0.294400  0.690000
0.134251  0.294827  0.691000
0.135568  0.294827  0.691000
0.137280  0.295680  0.693000
0.138600  0.295680  0.693000
0.140122  0.296107  0.694000
0.141648  0.296533  0.695000
0.142971  0.296533  0.695000
0.144295  0.296533  0.695000
0.146038  0.297387  0.697000
0.147366  0.297387  0.697000
0.148693  0.297387  0.697000
0.150236  0.297813  0.698000
0.152000  0.298667  0.700000
0.153552  0.299093  0.701000
0.155330  0.299947  0.703000
0.156891  0.300373  0.704000
0.158232  0.300373  0.704000
0.159800  0.300800  0.705000
0.161600  0.301653  0.707000
0.162947  0.301653  0.707000
0.164526  0.302080  0.708000
0.165874  0.302080  0.708000
0.167223  0.302080  0.708000
0.168571  0.302080  0.708000
0.170400  0.302933  0.710000
0.171994  0.303360  0.711000
0.173349  0.303360  0.711000
0.175194  0.304213  0.713000
0.176552  0.304213  0.713000
0.178160  0.304640  0.714000
0.179520  0.304640  0.714000
0.181387  0.305493  0.716000
0.182750  0.305493  0.716000
0.184371  0.305920  0.717000
0.186255  0.306773  0.719000
0.187625  0.306773  0.719000
0.189257  0.307200  0.720000
0.190629  0.307200  0.720000
0.192000  0.307200  0.720000
0.193371  0.307200  0.720000
0.212274  0.321280  0.753000
0.213425  0.320853  0.752000
0.214857  0.320853  0.752000
0.216290  0.320853  0.752000
0.218011  0.321280  0.753000
0.220029  0.322133  0.755000
0.221760  0.322560  0.756000
0.223790  0.323413  0.758000
0.228724  0.324267  0.760000
0.230171  0.324267  0.760000
0.231619  0.324267  0.760000
0.230000  0.320000  0.750000
0.231429  0.320000  0.750000
0.232857  0.320000  0.750000
0.234910  0.320853  0.752000
0.236343  0.320853  0.752000
0.237775  0.320853  0.752000
0.239208  0.320853  0.752000
0.240640  0.320853  0.752000
0.242072  0.320853  0.752000
0.244800  0.322560  0.756000
0.246240  0.322560  0.756000
0.247352  0.322133  0.755000
0.248790  0.322133  0.755000
0.250560  0.322560  0.756000
0.251000  0.321280  0.753000
0.252434  0.321280  0.753000
0.253531  0.320853  0.752000
0.254964  0.320853  0.752000
0.256396  0.320853  0.752000
0.257829  0.320853  0.752000
0.257537  0.318720  0.747000
0.258267  0.317867  0.745000
0.259686  0.317867  0.745000
0.261105  0.317867  0.745000
0.262524  0.317867  0.745000
0.262880  0.316587  0.742000
0.264293  0.316587  0.742000
0.265707  0.316587  0.742000
0.267120  0.316587  0.742000
0.268895  0.317013  0.743000
0.271766  0.318720  0.747000
0.273189  0.318720  0.747000
0.274611  0.318720  0.747000
0.278990  0.322133  0.755000
0.280429  0.322133  0.755000
0.281867  0.322133  0.755000
0.283305  0.322133  0.755000
0.284743  0.322133  0.755000
0.286181  0.322133  0.755000
0.283810  0.317867  0.745000
0.285229  0.317867  0.745000
0.284339  0.315307  0.739000
0.284973  0.314453  0.737000
0.286377  0.314453  0.737000
0.287781  0.314453  0.737000
0.291147  0.316587  0.742000
0.292560  0.316587  0.742000
0.293973  0.316587  0.742000
0.295785  0.317013  0.743000
0.298000  0.317867  0.745000
0.300625  0.319147  0.748000
0.301646  0.318720  0.747000
0.303069  0.318720  0.747000
0.304899  0.319147  0.748000
0.307962  0.320853  0.752000
0.309806  0.321280  0.753000
0.312067  0.322133  0.755000
0.313505  0.322133  0.755000
0.314943  0.322133  0.755000
0.316381  0.322133  0.755000
0.318240  0.322560  0.756000
0.319680  0.322560  0.756000
0.321120  0.322560  0.756000
0.317867  0.317867  0.745000
0.319286  0.317867  0.745000
0.325010  0.322133  0.755000
0.326448  0.322133  0.755000
0.327886  0.322133  0.755000
0.328451  0.321280  0.753000
0.329886  0.321280  0.753000
0.332200  0.322133  0.755000
0.333638  0.322133  0.755000
0.335076  0.322133  0.755000
0.336514  0.322133  0.755000
0.340638  0.324693  0.761000
0.334895  0.317867  0.745000
0.335411  0.317013  0.743000
0.336827  0.317013  0.743000
0.340063  0.318720  0.747000
0.341486  0.318720  0.747000
0.341990  0.317867  0.745000
0.343410  0.317867  0.745000
0.345754  0.318720  0.747000
0.347177  0.318720  0.747000
0.349067  0.319147  0.748000
0.351429  0.320000  0.750000
0.353798  0.320853  0.752000
0.355230  0.320853  0.752000
0.357137  0.321280  0.753000
0.358571  0.321280  0.753000
0.360962  0.322133  0.755000
0.362880  0.322560  0.756000
0.364320  0.322560  0.756000
0.365276  0.322133  0.755000
0.366714  0.322133  0.755000
0.368152  0.322133  0.755000
0.370080  0.322560  0.756000
0.373486  0.324267  0.760000
0.376413  0.325547  0.763000
0.377867  0.325547  0.763000
0.380314  0.326400  0.765000
0.381771  0.326400  0.765000
0.383229  0.326400  0.765000
0.380160  0.322560  0.756000
0.381600  0.322560  0.756000
0.383040  0.322560  0.756000
0.384480  0.322560  0.756000
0.385920  0.322560  0.756000
0.387360  0.322560  0.756000
0.388800  0.322560  0.756000
0.392305  0.324267  0.760000
0.393752  0.324267  0.760000
0.397800  0.326400  0.765000
0.398213  0.325547  0.763000
0.399667  0.325547  0.763000
0.399543  0.324267  0.760000
0.400990  0.324267  0.760000
0.394495  0.317867  0.745000
0.395914  0.317867  0.745000
0.400000  0.320000  0.750000
0.401429  0.320000  0.750000
0.402857  0.320000  0.750000
0.404286  0.320000  0.750000
0.405714  0.320000  0.750000
0.407143  0.320000  0.750000
0.408571  0.320000  0.750000
0.408907  0.319147  0.748000
0.410331  0.319147  0.748000
0.411756  0.319147  0.748000
0.413181  0.319147  0.748000
-0.434623  0.312429  0.729000
-0.433234  0.312429  0.729000
-0.430069  0.311143  0.726000
-0.428095  0.310714  0.725000
-0.426714  0.310714  0.725000
-0.425333  0.310714  0.725000
-0.412905  0.310714  0.725000
-0.411524  0.310714  0.725000
-0.410709  0.311143  0.726000
-0.410453  0.312000  0.728000
-0.409067  0.312000  0.728000
-0.408240  0.312429  0.729000
-0.406851  0.312429  0.729000
-0.407131  0.313714  0.732000
-0.406846  0.314571  0.734000
-0.408210  0.316714  0.739000
-0.406802  0.316714  0.739000
-0.405943  0.317143  0.740000
-0.404533  0.317143  0.740000
-0.403124  0.317143  0.740000
-0.402800  0.318000  0.742000
-0.392731  0.311143  0.726000
-0.391349  0.311143  0.726000
-0.389966  0.311143  0.726000
-0.389653  0.312000  0.728000
-0.387200  0.311143  0.726000
-0.385817  0.311143  0.726000
-0.384434  0.311143  0.726000
-0.383051  0.311143  0.726000
-0.383246  0.312429  0.729000
-0.381857  0.312429  0.729000
-0.380469  0.312429  0.729000
-0.378560  0.312000  0.728000
-0.377173  0.312000  0.728000
-0.375787  0.312000  0.728000
-0.373371  0.311143  0.726000
-0.371476  0.310714  0.725000
-0.370095  0.310714  0.725000
-0.373291  0.314571  0.734000
-0.371893  0.314571  0.734000
-0.368981  0.313286  0.731000
-0.367589  0.313286  0.731000
-0.366196  0.313286  0.731000
-0.363806  0.312429  0.729000
-0.360926  0.311143  0.726000
-0.359048  0.310714  0.725000
-0.357667  0.310714  0.725000
-0.355303  0.309857  0.723000
-0.353926  0.309857  0.723000
-0.352549  0.309857  0.723000
-0.351171  0.309857  0.723000
-0.349794  0.309857  0.723000
-0.346490  0.308143  0.719000
-0.345120  0.308143  0.719000
-0.344229  0.308571  0.720000
-0.350476  0.315429  0.736000
-0.349074  0.315429  0.736000
-0.347672  0.315429  0.736000
-0.346270  0.315429  0.736000
-0.344869  0.315429  0.736000
-0.344867  0.316714  0.739000
-0.344853  0.318000  0.742000
-0.340663  0.315429  0.736000
-0.339261  0.315429  0.736000
-0.337859  0.315429  0.736000
-0.339200  0.318000  0.742000
-0.338242  0.318429  0.743000
-0.336373  0.318000  0.742000
-0.334057  0.317143  0.740000
-0.332648  0.317143  0.740000
-0.330790  0.316714  0.739000
-0.328491  0.315857  0.737000
-0.326644  0.315429  0.736000
-0.324358  0.314571  0.734000
-0.322080  0.313714  0.732000
-0.320686  0.313714  0.732000
-0.320164  0.314571  0.734000
-0.318766  0.314571  0.734000
-0.318665  0.315857  0.737000
-0.318552  0.317143  0.740000
-0.318000  0.318000  0.742000
-0.316587  0.318000  0.742000
-0.315173  0.318000  0.742000
-0.313760  0.318000  0.742000
-0.303086  0.308571  0.720000
-0.301714  0.308571  0.720000
-0.304931  0.313286  0.731000
-0.305615  0.315429  0.736000
-0.303387  0.314571  0.734000
-0.300754  0.313286  0.731000
-0.299362  0.313286  0.731000
-0.297970  0.313286  0.731000
-0.296577  0.313286  0.731000
-0.295589  0.313714  0.732000
-0.294194  0.313714  0.732000
-0.294400  0.315429  0.736000
-0.293396  0.315857  0.737000
-0.291992  0.315857  0.737000
-0.290589  0.315857  0.737000
-0.291539  0.318429  0.743000
-0.290124  0.318429  0.743000
-0.288320  0.318000  0.742000
-0.286907  0.318000  0.742000
-0.285493  0.318000  0.742000
-0.277571  0.310714  0.725000
-0.277714  0.312429  0.729000
-0.276326  0.312429  0.729000
-0.274937  0.312429  0.729000
-0.273549  0.312429  0.729000
-0.271040  0.311143  0.726000
-0.269657  0.311143  0.726000
-0.269013  0.312000  0.728000
-0.267627  0.312000  0.728000
-0.265143  0.310714  0.725000
-0.263762  0.310714  0.725000
-0.262381  0.310714  0.725000
-0.261000  0.310714  0.725000
-0.259977  0.311143  0.726000
-0.258594  0.311143  0.726000
-0.257211  0.311143  0.726000
-0.255829  0.311143  0.726000
-0.254446  0.311143  0.726000
-0.254109  0.312429  0.729000
-0.252720  0.312429  0.729000
-0.252021  0.313286  0.731000
-0.256114  0.320143  0.747000
-0.252987  0.318000  0.742000
-0.251573  0.318000  0.742000
-0.251846  0.320143  0.747000
-0.250423  0.320143  0.747000
-0.250000  0.321429  0.750000
-0.248571  0.321429  0.750000
-0.240882  0.313286  0.731000
-0.239490  0.313286  0.731000
-0.238423  0.313714  0.732000
-0.237676  0.314571  0.734000
-0.236278  0.314571  0.734000
-0.234880  0.314571  0.734000
-0.233482  0.314571  0.734000
-0.232084  0.314571  0.734000
-0.230686  0.314571  0.734000
-0.230225  0.315857  0.737000
-0.228821  0.315857  0.737000
-0.231429  0.321429  0.750000
-0.224173  0.313286  0.731000
-0.222781  0.313286  0.731000
-0.222297  0.314571  0.734000
-0.227219  0.323571  0.755000
-0.218604  0.313286  0.731000
-0.217211  0.313286  0.731000
-0.215819  0.313286  0.731000
-0.215893  0.315429  0.736000
-0.215366  0.316714  0.739000
-0.214248  0.317143  0.740000
-0.212838  0.317143  0.740000
-0.212000  0.318000  0.742000
-0.210587  0.318000  0.742000
-0.209173  0.318000  0.742000
-0.211400  0.323571  0.755000
-0.210796  0.324857  0.758000
-0.208800  0.324000  0.756000
-0.207360  0.324000  0.756000
-0.205920  0.324000  0.756000
-0.204210  0.323571  0.755000
-0.202771  0.323571  0.755000
-0.200800  0.322714  0.753000
-0.198571  0.321429  0.750000
-0.197143  0.321429  0.750000
-0.196497  0.322714  0.753000
-0.195581  0.323571  0.755000
-0.187457  0.312429  0.729000
-0.186069  0.312429  0.729000
-0.185187  0.313286  0.731000
-0.183794  0.313286  0.731000
-0.182402  0.313286  0.731000
-0.181010  0.313286  0.731000
-0.181829  0.317143  0.740000
-0.180419  0.317143  0.740000
-0.179010  0.317143  0.740000
-0.177600  0.317143  0.740000
-0.176190  0.317143  0.740000
-0.172891  0.313714  0.732000
-0.170560  0.312000  0.728000
-0.169173  0.312000  0.728000
-0.167787  0.312000  0.728000
-0.167086  0.313286  0.731000
-0.165693  0.313286  0.731000
-0.164301  0.313286  0.731000
-0.164914  0.317143  0.740000
-0.162842  0.315857  0.737000
-0.161438  0.315857  0.737000
-0.159383  0.314571  0.734000
-0.157554  0.313714  0.732000
-0.156160  0.313714  0.732000
-0.155189  0.314571  0.734000
-0.153790  0.314571  0.734000
-0.152392  0.314571  0.734000
-0.151406  0.315429  0.736000
-0.149596  0.314571  0.734000
-0.148198  0.314571  0.734000
-0.147400  0.315857  0.737000
-0.145996  0.315857  0.737000
-0.144592  0.315857  0.737000
-0.143189  0.315857  0.737000
-0.141785  0.315857  0.737000
-0.138857  0.312429  0.729000
-0.137469  0.312429  0.729000
-0.136080  0.312429  0.729000
-0.135061  0.313286  0.731000
-0.133669  0.313286  0.731000
-0.132276  0.313286  0.731000
-0.130884  0.313286  0.731000
-0.129491  0.313286  0.731000
-0.128625  0.314571  0.734000
-0.128267  0.317143  0.740000
-0.127371  0.318429  0.743000
-0.125956  0.318429  0.743000
-0.126217  0.322714  0.753000
-0.124783  0.322714  0.753000
-0.123349  0.322714  0.753000
-0.122238  0.323571  0.755000
-0.120800  0.323571  0.755000
-0.119362  0.323571  0.755000
-0.115112  0.315857  0.737000
-0.113709  0.315857  0.737000
-0.112152  0.315429  0.736000
-0.110750  0.315429  0.736000
-0.109349  0.315429  0.736000
-0.108093  0.315857  0.737000
-0.106690  0.315857  0.737000
-0.105286  0.315857  0.737000
-0.103882  0.315857  0.737000
-0.102478  0.315857  0.737000
-0.101074  0.315857  0.737000
-0.100482  0.318429  0.743000
-0.099067  0.318429  0.743000
-0.098177  0.320143  0.747000
-0.096754  0.320143  0.747000
-0.095459  0.320571  0.748000
-0.094034  0.320571  0.748000
-0.092486  0.320143  0.747000
-0.090819  0.319286  0.745000
-0.089400  0.319286  0.745000
-0.088571  0.321429  0.750000
-0.087724  0.323571  0.755000
-0.085714  0.321429  0.750000
-0.084061  0.320571  0.748000
-0.082636  0.320571  0.748000
-0.081211  0.320571  0.748000
-0.079787  0.320571  0.748000
-0.078362  0.320571  0.748000
-0.076937  0.320571  0.748000
-0.075512  0.320571  0.748000
-0.073196  0.316714  0.739000
-0.071789  0.316714  0.739000
-0.070667  0.318000  0.742000
-0.069347  0.318429  0.743000
-0.068114  0.319286  0.745000
-0.066874  0.320143  0.747000
-0.065451  0.320143  0.747000
-0.064029  0.320143  0.747000
-0.062606  0.320143  0.747000
-0.043341  0.314571  0.734000
-0.041943  0.314571  0.734000
-0.040545  0.314571  0.734000
-0.039627  0.318429  0.743000
-0.038211  0.318429  0.743000
-0.036796  0.318429  0.743000
-0.035619  0.320571  0.748000
-0.034194  0.320571  0.748000
-0.032857  0.321429  0.750000
-0.031512  0.322286  0.752000
-0.030080  0.322286  0.752000
-0.028648  0.322286  0.752000
-0.027251  0.322714  0.753000
-0.025714  0.321429  0.750000
-0.023930  0.316714  0.739000
-0.022522  0.316714  0.739000
-0.021114  0.316714  0.739000
-0.019707  0.316714  0.739000
-0.018299  0.316714  0.739000
-0.016846  0.315857  0.737000
-0.015337  0.313714  0.732000
-0.013943  0.313714  0.732000
-0.012549  0.313714  0.732000
-0.011093  0.312000  0.728000
0.013695  0.308143  0.719000
0.015065  0.308143  0.719000
0.016457  0.308571  0.720000
0.080206  0.311143  0.726000
0.083499  0.318429  0.743000
0.084914  0.318429  0.743000
0.086330  0.318429  0.743000
0.087745  0.318429  0.743000
0.089160  0.318429  0.743000
0.090453  0.318000  0.742000
0.091495  0.316714  0.739000
0.092903  0.316714  0.739000
0.094055  0.315857  0.737000
0.094811  0.313714  0.732000
0.096074  0.313286  0.731000
0.097467  0.313286  0.731000
0.098589  0.312429  0.729000
0.099840  0.312000  0.728000
0.101227  0.312000  0.728000
0.102190  0.310714  0.725000
0.103143  0.309429  0.722000
0.104084  0.308143  0.719000
0.105160  0.307286  0.717000
0.106526  0.307286  0.717000
0.107440  0.306000  0.714000
0.108800  0.306000  0.714000
0.110006  0.305571  0.713000
0.111364  0.305571  0.713000
0.112722  0.305571  0.713000
0.113760  0.304714  0.711000
0.114629  0.303429  0.708000
0.115813  0.303000  0.707000
0.116497  0.301286  0.703000
0.117501  0.300429  0.701000
0.118328  0.299143  0.698000
0.119143  0.297857  0.695000
0.120293  0.297429  0.694000
0.121615  0.297429  0.694000
0.122760  0.297000  0.693000
0.123722  0.296143  0.691000
0.125038  0.296143  0.691000
0.126171  0.295714  0.690000
0.127486  0.295714  0.690000
0.128800  0.295714  0.690000
0.130114  0.295714  0.690000
0.131429  0.295714  0.690000
0.132743  0.295714  0.690000
0.134251  0.296143  0.691000
0.135568  0.296143  0.691000
0.137280  0.297000  0.693000
0.138600  0.297000  0.693000
0.140122  0.297429  0.694000
0.141648  0.297857  0.695000
0.142971  0.297857  0.695000
0.144295  0.297857  0.695000
0.146038  0.298714  0.697000
0.147366  0.298714  0.697000
0.148693  0.298714  0.697000
0.150021  0.298714  0.697000
0.151566  0.299143  0.698000
0.153552  0.300429  0.701000
0.154888  0.300429  0.701000
0.156669  0.301286  0.703000
0.158457  0.302143  0.705000
0.159800  0.302143  0.705000
0.161600  0.303000  0.707000
0.162947  0.303000  0.707000
0.164293  0.303000  0.707000
0.165874  0.303429  0.708000
0.167223  0.303429  0.708000
0.168571  0.303429  0.708000
0.170400  0.304286  0.710000
0.171994  0.304714  0.711000
0.173349  0.304714  0.711000
0.175194  0.305571  0.713000
0.176552  0.305571  0.713000
0.178160  0.306000  0.714000
0.179520  0.306000  0.714000
0.181387  0.306857  0.716000
0.182750  0.306857  0.716000
0.184371  0.307286  0.717000
0.186255  0.308143  0.719000
0.187886  0.308571  0.720000
0.189257  0.308571  0.720000
0.190629  0.308571  0.720000
0.192000  0.308571  0.720000
0.211429  0.321429  0.750000
0.212290  0.320571  0.748000
0.213714  0.320571  0.748000
0.215714  0.321429  0.750000
0.217722  0.322286  0.752000
0.219446  0.322714  0.753000
0.221760  0.324000  0.756000
0.223200  0.324000  0.756000
0.224640  0.324000  0.756000
0.226080  0.324000  0.756000
0.225714  0.321429  0.750000
0.227143  0.321429  0.750000
0.228571  0.321429  0.750000
0.230000  0.321429  0.750000
0.231429  0.321429  0.750000
0.232857  0.321429  0.750000
0.234286  0.321429  0.750000
0.235714  0.321429  0.750000
0.230187  0.312000  0.728000
0.231573  0.312000  0.728000
0.232960  0.312000  0.728000
0.234347  0.312000  0.728000
0.235733  0.312000  0.728000
0.240051  0.315857  0.737000
0.242438  0.317143  0.740000
0.243848  0.317143  0.740000
0.250229  0.323571  0.755000
0.250000  0.321429  0.750000
0.249752  0.319286  0.745000
0.251171  0.319286  0.745000
0.253269  0.320143  0.747000
0.254010  0.319286  0.745000
0.255429  0.319286  0.745000
0.254779  0.316714  0.739000
0.256187  0.316714  0.739000
0.257943  0.317143  0.740000
0.260404  0.318429  0.743000
0.261467  0.318000  0.742000
0.262880  0.318000  0.742000
0.264293  0.318000  0.742000
0.265707  0.318000  0.742000
0.267120  0.318000  0.742000
0.268895  0.318429  0.743000
0.270310  0.318429  0.743000
0.271726  0.318429  0.743000
0.273876  0.319286  0.745000
0.275295  0.319286  0.745000
0.276714  0.319286  0.745000
0.278133  0.319286  0.745000
0.279552  0.319286  0.745000
0.280971  0.319286  0.745000
0.282390  0.319286  0.745000
0.283048  0.318429  0.743000
0.284080  0.318000  0.742000
0.284339  0.316714  0.739000
0.284973  0.315857  0.737000
0.286377  0.315857  0.737000
0.288952  0.317143  0.740000
0.290362  0.317143  0.740000
0.292560  0.318000  0.742000
0.293973  0.318000  0.742000
0.295387  0.318000  0.742000
0.297200  0.318429  0.743000
0.299419  0.319286  0.745000
0.300838  0.319286  0.745000
0.302257  0.319286  0.745000
0.304491  0.320143  0.747000
0.307143  0.321429  0.750000
0.309806  0.322714  0.753000
0.312067  0.323571  0.755000
0.313505  0.323571  0.755000
0.314943  0.323571  0.755000
0.316381  0.323571  0.755000
0.317819  0.323571  0.755000
0.318411  0.322714  0.753000
0.319846  0.322714  0.753000
0.317867  0.319286  0.745000
0.319286  0.319286  0.745000
0.321566  0.320143  0.747000
0.322989  0.320143  0.747000
0.325714  0.321429  0.750000
0.327143  0.321429  0.750000
0.329448  0.322286  0.752000
0.329120  0.320571  0.748000
0.330545  0.320571  0.748000
0.333745  0.322286  0.752000
0.335177  0.322286  0.752000
0.332581  0.318429  0.743000
0.333996  0.318429  0.743000
0.335411  0.318429  0.743000
0.336827  0.318429  0.743000
0.339152  0.319286  0.745000
0.339657  0.318429  0.743000
0.341072  0.318429  0.743000
0.342488  0.318429  0.743000
0.344829  0.319286  0.745000
0.346248  0.319286  0.745000
0.348600  0.320143  0.747000
0.350491  0.320571  0.748000
0.351916  0.320571  0.748000
0.353341  0.320571  0.748000
0.355714  0.321429  0.750000
0.358095  0.322286  0.752000
0.360006  0.322714  0.753000
0.361440  0.322714  0.753000
0.362392  0.322286  0.752000
0.363825  0.322286  0.752000
0.365257  0.322286  0.752000
0.366690  0.322286  0.752000
0.363716  0.318429  0.743000
0.365131  0.318429  0.743000
0.366547  0.318429  0.743000
0.367962  0.318429  0.743000
0.370371  0.319286  0.745000
0.371790  0.319286  0.745000
0.373210  0.319286  0.745000
0.375634  0.320143  0.747000
0.379581  0.322286  0.752000
0.382533  0.323571  0.755000
0.382954  0.322714  0.753000
0.383878  0.322286  0.752000
0.384286  0.321429  0.750000
0.385714  0.321429  0.750000
0.387143  0.321429  0.750000
0.384945  0.318429  0.743000
0.386360  0.318429  0.743000
0.387775  0.318429  0.743000
0.390238  0.319286  0.745000
0.391657  0.319286  0.745000
0.394131  0.320143  0.747000
0.395554  0.320143  0.747000
0.396977  0.320143  0.747000
0.398400  0.320143  0.747000
0.401429  0.321429  0.750000
0.402857  0.321429  0.750000
0.404286  0.321429  0.750000
0.405714  0.321429  0.750000
0.407143  0.321429  0.750000
0.408571  0.321429  0.750000
0.408907  0.320571  0.748000
0.410331  0.320571  0.748000
0.411756  0.320571  0.748000
0.413181  0.320571  0.748000
-0.434027  0.313387  0.728000
-0.432640  0.313387  0.728000
-0.430069  0.312526  0.726000
-0.428095  0.312095  0.725000
-0.426714  0.312095  0.725000
-0.425333  0.312095  0.725000
-0.423952  0.312095  0.725000
-0.413143  0.311234  0.723000
-0.411766  0.311234  0.723000
-0.411524  0.312095  0.725000
-0.410143  0.312095  0.725000
-0.409326  0.312526  0.726000
-0.409067  0.313387  0.728000
-0.407680  0.313387  0.728000
-0.406851  0.313817  0.729000
-0.407131  0.315109  0.732000
-0.407954  0.316830  0.736000
-0.408762  0.318552  0.740000
-0.407352  0.318552  0.740000
-0.407040  0.319413  0.742000
-0.405627  0.319413  0.742000
-0.404213  0.319413  0.742000
-0.392486  0.311234  0.723000
-0.391109  0.311234  0.723000
-0.389731  0.311234  0.723000
-0.389429  0.312095  0.725000
-0.388048  0.312095  0.725000
-0.386667  0.312095  0.725000
-0.385286  0.312095  0.725000
-0.384434  0.312526  0.726000
-0.383051  0.312526  0.726000
-0.383246  0.313817  0.729000
-0.381857  0.313817  0.729000
-0.380469  0.313817  0.729000
-0.378560  0.313387  0.728000
-0.377173  0.313387  0.728000
-0.375787  0.313387  0.728000
-0.371829  0.311234  0.723000
-0.370451  0.311234  0.723000
-0.369074  0.311234  0.723000
-0.367697  0.311234  0.723000
-0.371893  0.315970  0.734000
-0.368981  0.314678  0.731000
-0.367589  0.314678  0.731000
-0.365194  0.313817  0.729000
-0.362309  0.312526  0.726000
-0.359434  0.311234  0.723000
-0.358057  0.311234  0.723000
-0.356680  0.311234  0.723000
-0.354811  0.310804  0.722000
-0.353436  0.310804  0.722000
-0.352549  0.311234  0.723000
-0.350686  0.310804  0.722000
-0.349310  0.310804  0.722000
-0.346490  0.309512  0.719000
-0.345120  0.309512  0.719000
-0.344229  0.309943  0.720000
-0.342857  0.309943  0.720000
-0.349074  0.316830  0.736000
-0.341531  0.311234  0.723000
-0.340154  0.311234  0.723000
-0.344869  0.316830  0.736000
-0.343467  0.316830  0.736000
-0.342065  0.316830  0.736000
-0.340663  0.316830  0.736000
-0.339261  0.316830  0.736000
-0.337859  0.316830  0.736000
-0.339200  0.319413  0.742000
-0.338242  0.319844  0.743000
-0.336827  0.319844  0.743000
-0.334057  0.318552  0.740000
-0.332648  0.318552  0.740000
-0.329448  0.316830  0.736000
-0.327154  0.315970  0.734000
-0.324869  0.315109  0.732000
-0.323032  0.314678  0.731000
-0.321640  0.314678  0.731000
-0.320248  0.314678  0.731000
-0.318855  0.314678  0.731000
-0.317463  0.314678  0.731000
-0.312179  0.310804  0.722000
-0.310804  0.310804  0.722000
-0.309857  0.311234  0.723000
-0.305493  0.308221  0.716000
-0.303280  0.307360  0.714000
-0.301920  0.307360  0.714000
-0.301823  0.308651  0.717000
-0.300457  0.308651  0.717000
-0.301594  0.311234  0.723000
-0.301048  0.312095  0.725000
-0.299667  0.312095  0.725000
-0.298286  0.312095  0.725000
-0.296905  0.312095  0.725000
-0.297154  0.313817  0.729000
-0.295766  0.313817  0.729000
-0.295185  0.314678  0.731000
-0.294998  0.315970  0.734000
-0.294400  0.316830  0.736000
-0.290211  0.313817  0.729000
-0.288823  0.313817  0.729000
-0.287434  0.313817  0.729000
-0.284476  0.312095  0.725000
-0.283095  0.312095  0.725000
-0.281714  0.312095  0.725000
-0.280333  0.312095  0.725000
-0.278952  0.312095  0.725000
-0.277571  0.312095  0.725000
-0.276190  0.312095  0.725000
-0.275189  0.312526  0.726000
-0.273806  0.312526  0.726000
-0.272048  0.312095  0.725000
-0.269920  0.311234  0.723000
-0.268543  0.311234  0.723000
-0.267905  0.312095  0.725000
-0.266524  0.312095  0.725000
-0.264411  0.311234  0.723000
-0.263034  0.311234  0.723000
-0.261657  0.311234  0.723000
-0.260280  0.311234  0.723000
-0.259619  0.312095  0.725000
-0.258238  0.312095  0.725000
-0.256857  0.312095  0.725000
-0.255476  0.312095  0.725000
-0.254095  0.312095  0.725000
-0.254109  0.313817  0.729000
-0.252720  0.313817  0.729000
-0.252021  0.314678  0.731000
-0.250629  0.314678  0.731000
-0.252987  0.319413  0.742000
-0.251573  0.319413  0.742000
-0.253869  0.324149  0.753000
-0.252434  0.324149  0.753000
-0.239667  0.309512  0.719000
-0.238297  0.309512  0.719000
-0.238905  0.312095  0.725000
-0.237524  0.312095  0.725000
-0.236469  0.312526  0.726000
-0.235733  0.313387  0.728000
-0.234347  0.313387  0.728000
-0.233920  0.314678  0.731000
-0.232528  0.314678  0.731000
-0.231135  0.314678  0.731000
-0.230057  0.315109  0.732000
-0.229288  0.315970  0.734000
-0.228821  0.317261  0.737000
-0.227417  0.317261  0.737000
-0.226013  0.317261  0.737000
-0.224610  0.317261  0.737000
-0.223206  0.317261  0.737000
-0.221802  0.317261  0.737000
-0.218604  0.314678  0.731000
-0.217211  0.314678  0.731000
-0.215819  0.314678  0.731000
-0.215307  0.315970  0.734000
-0.215366  0.318122  0.739000
-0.214248  0.318552  0.740000
-0.212838  0.318552  0.740000
-0.211429  0.318552  0.740000
-0.210019  0.318552  0.740000
-0.208610  0.318552  0.740000
-0.207200  0.318552  0.740000
-0.202731  0.313817  0.729000
-0.200514  0.312526  0.726000
-0.199131  0.312526  0.726000
-0.197749  0.312526  0.726000
-0.195284  0.310804  0.722000
-0.193909  0.310804  0.722000
-0.192800  0.311234  0.723000
-0.191423  0.311234  0.723000
-0.190046  0.311234  0.723000
-0.188669  0.311234  0.723000
-0.187291  0.311234  0.723000
-0.187457  0.313817  0.729000
-0.185813  0.313387  0.728000
-0.184427  0.313387  0.728000
-0.183291  0.313817  0.729000
-0.181903  0.313817  0.729000
-0.180514  0.313817  0.729000
-0.181583  0.318122  0.739000
-0.180419  0.318552  0.740000
-0.177074  0.315109  0.732000
-0.175680  0.315109  0.732000
-0.174286  0.315109  0.732000
-0.172891  0.315109  0.732000
-0.170560  0.313387  0.728000
-0.169173  0.313387  0.728000
-0.167787  0.313387  0.728000
-0.166629  0.313817  0.729000
-0.165240  0.313817  0.729000
-0.164301  0.314678  0.731000
-0.164914  0.318552  0.740000
-0.162179  0.315970  0.734000
-0.160124  0.314678  0.731000
-0.158731  0.314678  0.731000
-0.157554  0.315109  0.732000
-0.156160  0.315109  0.732000
-0.155189  0.315970  0.734000
-0.153790  0.315970  0.734000
-0.152392  0.315970  0.734000
-0.150994  0.315970  0.734000
-0.149596  0.315970  0.734000
-0.148198  0.315970  0.734000
-0.147200  0.316830  0.736000
-0.145798  0.316830  0.736000
-0.144396  0.316830  0.736000
-0.142994  0.316830  0.736000
-0.141592  0.316830  0.736000
-0.138857  0.313817  0.729000
-0.137469  0.313817  0.729000
-0.136080  0.313817  0.729000
-0.134691  0.313817  0.729000
-0.133303  0.313817  0.729000
-0.131914  0.313817  0.729000
-0.130526  0.313817  0.729000
-0.129491  0.314678  0.731000
-0.128274  0.315109  0.732000
-0.128267  0.318552  0.740000
-0.127371  0.319844  0.743000
-0.125956  0.319844  0.743000
-0.126217  0.324149  0.753000
-0.124783  0.324149  0.753000
-0.123349  0.324149  0.753000
-0.122238  0.325010  0.755000
-0.120800  0.325010  0.755000
-0.116516  0.317261  0.737000
-0.115112  0.317261  0.737000
-0.113709  0.317261  0.737000
-0.112152  0.316830  0.736000
-0.110750  0.316830  0.736000
-0.109349  0.316830  0.736000
-0.108093  0.317261  0.737000
-0.106690  0.317261  0.737000
-0.105286  0.317261  0.737000
-0.103882  0.317261  0.737000
-0.102478  0.317261  0.737000
-0.101074  0.317261  0.737000
-0.100482  0.319844  0.743000
-0.099067  0.319844  0.743000
-0.097914  0.320705  0.745000
-0.096495  0.320705  0.745000
-0.094821  0.319844  0.743000
-0.093406  0.319844  0.743000
-0.091867  0.319413  0.742000
-0.090453  0.319413  0.742000
-0.089160  0.319844  0.743000
-0.088571  0.322857  0.750000
-0.087724  0.325010  0.755000
-0.085714  0.322857  0.750000
-0.084061  0.321996  0.748000
-0.082636  0.321996  0.748000
-0.081211  0.321996  0.748000
-0.079787  0.321996  0.748000
-0.078362  0.321996  0.748000
-0.074571  0.312095  0.725000
-0.073897  0.315109  0.732000
-0.072503  0.315109  0.732000
-0.071109  0.315109  0.732000
-0.069714  0.315109  0.732000
-0.069253  0.319413  0.742000
-0.067840  0.319413  0.742000
-0.066874  0.321566  0.747000
-0.065451  0.321566  0.747000
-0.043341  0.315970  0.734000
-0.041943  0.315970  0.734000
-0.040545  0.315970  0.734000
-0.039147  0.315970  0.734000
-0.037749  0.315970  0.734000
-0.036796  0.319844  0.743000
-0.035619  0.321996  0.748000
-0.034194  0.321996  0.748000
-0.032857  0.322857  0.750000
-0.031512  0.323718  0.752000
-0.030080  0.323718  0.752000
-0.028648  0.323718  0.752000
-0.027251  0.324149  0.753000
-0.025714  0.322857  0.750000
-0.023832  0.316830  0.736000
-0.022430  0.316830  0.736000
-0.021029  0.316830  0.736000
-0.019627  0.316830  0.736000
-0.018250  0.317261  0.737000
-0.016777  0.315970  0.734000
-0.015316  0.314678  0.731000
-0.013867  0.313387  0.728000
-0.012480  0.313387  0.728000
-0.011093  0.313387  0.728000
0.013695  0.309512  0.719000
0.015065  0.309512  0.719000
0.016457  0.309943  0.720000
0.017878  0.310804  0.722000
0.086330  0.319844  0.743000
0.087745  0.319844  0.743000
0.089040  0.319413  0.742000
0.090453  0.319413  0.742000
0.091495  0.318122  0.739000
0.092526  0.316830  0.736000
0.093672  0.315970  0.734000
0.094682  0.314678  0.731000
0.096074  0.314678  0.731000
0.097200  0.313817  0.729000
0.098589  0.313817  0.729000
0.099840  0.313387  0.728000
0.100949  0.312526  0.726000
0.102190  0.312095  0.725000
0.103143  0.310804  0.722000
0.104084  0.309512  0.719000
0.105160  0.308651  0.717000
0.106526  0.308651  0.717000
0.107440  0.307360  0.714000
0.108800  0.307360  0.714000
0.110006  0.306930  0.713000
0.111364  0.306930  0.713000
0.112406  0.306069  0.711000
0.113760  0.306069  0.711000
0.114629  0.304777  0.708000
0.115813  0.304347  0.707000
0.116497  0.302625  0.703000
0.117501  0.301764  0.701000
0.118328  0.300472  0.698000
0.119143  0.299181  0.695000
0.120293  0.298750  0.694000
0.121615  0.298750  0.694000
0.122760  0.298320  0.693000
0.123722  0.297459  0.691000
0.125038  0.297459  0.691000
0.126171  0.297029  0.690000
0.127486  0.297029  0.690000
0.128800  0.297029  0.690000
0.130114  0.297029  0.690000
0.131429  0.297029  0.690000
0.132743  0.297029  0.690000
0.134251  0.297459  0.691000
0.135568  0.297459  0.691000
0.136884  0.297459  0.691000
0.138600  0.298320  0.693000
0.140122  0.298750  0.694000
0.141444  0.298750  0.694000
0.142971  0.299181  0.695000
0.144295  0.299181  0.695000
0.145619  0.299181  0.695000
0.147366  0.300042  0.697000
0.148693  0.300042  0.697000
0.150021  0.300042  0.697000
0.151566  0.300472  0.698000
0.153552  0.301764  0.701000
0.154888  0.301764  0.701000
0.156669  0.302625  0.703000
0.158457  0.303486  0.705000
0.159800  0.303486  0.705000
0.161600  0.304347  0.707000
0.162947  0.304347  0.707000
0.164293  0.304347  0.707000
0.165874  0.304777  0.708000
0.167223  0.304777  0.708000
0.168571  0.304777  0.708000
0.170400  0.305638  0.710000
0.171994  0.306069  0.711000
0.173349  0.306069  0.711000
0.175194  0.306930  0.713000
0.176552  0.306930  0.713000
0.177910  0.306930  0.713000
0.179520  0.307360  0.714000
0.180880  0.307360  0.714000
0.182750  0.308221  0.716000
0.184371  0.308651  0.717000
0.186255  0.309512  0.719000
0.187886  0.309943  0.720000
0.189257  0.309943  0.720000
0.190629  0.309943  0.720000
0.192533  0.310804  0.722000
0.193909  0.310804  0.722000
0.211429  0.322857  0.750000
0.212290  0.321996  0.748000
0.213714  0.321996  0.748000
0.215714  0.322857  0.750000
0.217722  0.323718  0.752000
0.219446  0.324149  0.753000
0.220880  0.324149  0.753000
0.222314  0.324149  0.753000
0.222171  0.313817  0.729000
0.230000  0.322857  0.750000
0.231429  0.322857  0.750000
0.225406  0.312526  0.726000
0.226789  0.312526  0.726000
0.228800  0.313387  0.728000
0.230187  0.313387  0.728000
0.231573  0.313387  0.728000
0.232960  0.313387  0.728000
0.234347  0.313387  0.728000
0.235733  0.313387  0.728000
0.240051  0.317261  0.737000
0.241455  0.317261  0.737000
0.242859  0.317261  0.737000
0.244263  0.317261  0.737000
0.246333  0.318122  0.739000
0.247070  0.317261  0.737000
0.248474  0.317261  0.737000
0.251912  0.319844  0.743000
0.254010  0.320705  0.745000
0.255429  0.320705  0.745000
0.254779  0.318122  0.739000
0.255147  0.316830  0.736000
0.256549  0.316830  0.736000
0.259352  0.318552  0.740000
0.259705  0.317261  0.737000
0.261109  0.317261  0.737000
0.263225  0.318122  0.739000
0.264990  0.318552  0.740000
0.266400  0.318552  0.740000
0.268533  0.319413  0.742000
0.270310  0.319844  0.743000
0.271726  0.319844  0.743000
0.273876  0.320705  0.745000
0.275295  0.320705  0.745000
0.276714  0.320705  0.745000
0.278133  0.320705  0.745000
0.278802  0.319844  0.743000
0.280217  0.319844  0.743000
0.281632  0.319844  0.743000
0.283048  0.319844  0.743000
0.284080  0.319413  0.742000
0.284724  0.318552  0.740000
0.285747  0.318122  0.739000
0.287154  0.318122  0.739000
0.288952  0.318552  0.740000
0.290362  0.318552  0.740000
0.291377  0.318122  0.739000
0.292785  0.318122  0.739000
0.294590  0.318552  0.740000
0.297200  0.319844  0.743000
0.299419  0.320705  0.745000
0.300838  0.320705  0.745000
0.302257  0.320705  0.745000
0.304491  0.321566  0.747000
0.306324  0.321996  0.748000
0.309394  0.323718  0.752000
0.311240  0.324149  0.753000
0.312259  0.323718  0.752000
0.313691  0.323718  0.752000
0.309676  0.318122  0.739000
0.311084  0.318122  0.739000
0.312491  0.318122  0.739000
0.313899  0.318122  0.739000
0.316587  0.319413  0.742000
0.318000  0.319413  0.742000
0.320705  0.320705  0.745000
0.322124  0.320705  0.745000
0.324411  0.321566  0.747000
0.325834  0.321566  0.747000
0.328571  0.322857  0.750000
0.328680  0.321566  0.747000
0.330103  0.321566  0.747000
0.331970  0.321996  0.748000
0.332057  0.320705  0.745000
0.332581  0.319844  0.743000
0.333996  0.319844  0.743000
0.334960  0.319413  0.742000
0.336373  0.319413  0.742000
0.338242  0.319844  0.743000
0.339200  0.319413  0.742000
0.340613  0.319413  0.742000
0.342027  0.319413  0.742000
0.343903  0.319844  0.743000
0.346248  0.320705  0.745000
0.347667  0.320705  0.745000
0.349086  0.320705  0.745000
0.350505  0.320705  0.745000
0.352869  0.321566  0.747000
0.354291  0.321566  0.747000
0.357143  0.322857  0.750000
0.359528  0.323718  0.752000
0.360960  0.323718  0.752000
0.356610  0.318552  0.740000
0.358019  0.318552  0.740000
0.361857  0.320705  0.745000
0.363276  0.320705  0.745000
0.363716  0.319844  0.743000
0.365131  0.319844  0.743000
0.366547  0.319844  0.743000
0.367962  0.319844  0.743000
0.369377  0.319844  0.743000
0.370792  0.319844  0.743000
0.372208  0.319844  0.743000
0.373623  0.319844  0.743000
0.376048  0.320705  0.745000
0.374427  0.318122  0.739000
0.375834  0.318122  0.739000
0.377752  0.318552  0.740000
0.381724  0.320705  0.745000
0.384171  0.321566  0.747000
0.384562  0.320705  0.745000
0.384427  0.319413  0.742000
0.385840  0.319413  0.742000
0.387775  0.319844  0.743000
0.388667  0.319413  0.742000
0.390080  0.319413  0.742000
0.390438  0.318552  0.740000
0.391848  0.318552  0.740000
0.394851  0.319844  0.743000
0.396267  0.319844  0.743000
0.399823  0.321566  0.747000
0.401783  0.321996  0.748000
0.403208  0.321996  0.748000
0.405714  0.322857  0.750000
0.407143  0.322857  0.750000
0.409661  0.323718  0.752000
0.411093  0.323718  0.752000
-0.434027  0.314773  0.728000
-0.431451  0.313909  0.726000
-0.429476  0.313476  0.725000
-0.428095  0.313476  0.725000
-0.426714  0.313476  0.725000
-0.424160  0.312611  0.723000
-0.422783  0.312611  0.723000
-0.412571  0.312179  0.722000
-0.411196  0.312179  0.722000
-0.410389  0.312611  0.723000
-0.410143  0.313476  0.725000
-0.408762  0.313476  0.725000
-0.407943  0.313909  0.726000
-0.406560  0.313909  0.726000
-0.398480  0.308720  0.714000
-0.397120  0.308720  0.714000
-0.395760  0.308720  0.714000
-0.394400  0.308720  0.714000
-0.392490  0.308288  0.713000
-0.391131  0.308288  0.713000
-0.391413  0.309585  0.716000
-0.391684  0.310882  0.719000
