# .PCD v.5 - Point Cloud Data file format
FIELDS x y z 
SIZE 4 4 4
TYPE F F F
COUNT 1 1 1
WIDTH 1607
HEIGHT 1
POINTS 1607
DATA ascii
-0.153994  0.043434  0.691000
-0.153120  0.043560  0.693000
-0.152019  0.043623  0.694000
-0.150697  0.043623  0.694000
-0.149590  0.043686  0.695000
-0.148267  0.043686  0.695000
-0.146943  0.043686  0.695000
-0.146248  0.043874  0.698000
-0.144918  0.043874  0.698000
-0.144000  0.044000  0.700000
-0.143278  0.044189  0.703000
-0.141939  0.044189  0.703000
-0.141000  0.044314  0.705000
-0.139657  0.044314  0.705000
-0.138707  0.044440  0.707000
-0.137554  0.044503  0.708000
-0.136783  0.044691  0.711000
-0.136571  0.045069  0.717000
-0.135206  0.045069  0.717000
-0.047017  0.045634  0.726000
-0.045634  0.045634  0.726000
-0.044190  0.045571  0.725000
-0.042810  0.045571  0.725000
-0.041314  0.045446  0.723000
-0.039937  0.045446  0.723000
-0.038507  0.045383  0.722000
-0.037029  0.045257  0.720000
-0.035608  0.045194  0.719000
-0.034143  0.045069  0.717000
-0.032731  0.045006  0.716000
-0.031236  0.044817  0.713000
-0.029794  0.044691  0.711000
-0.028400  0.044629  0.710000
-0.026971  0.044503  0.708000
-0.025587  0.044440  0.707000
-0.024171  0.044314  0.705000
-0.022796  0.044251  0.704000
-0.021425  0.044189  0.703000
-0.020029  0.044063  0.701000
-0.018693  0.044063  0.701000
-0.017358  0.044063  0.701000
-0.016000  0.044000  0.700000
-0.014667  0.044000  0.700000
-0.013333  0.044000  0.700000
-0.012000  0.044000  0.700000
-0.010682  0.044063  0.701000
-0.009347  0.044063  0.701000
-0.008011  0.044063  0.701000
-0.006676  0.044063  0.701000
-0.005341  0.044063  0.701000
-0.004006  0.044063  0.701000
-0.002670  0.044063  0.701000
-0.001335  0.044063  0.701000
0.000000  0.044000  0.700000
0.001333  0.044000  0.700000
0.002670  0.044063  0.701000
0.004006  0.044063  0.701000
0.005341  0.044063  0.701000
0.006695  0.044189  0.703000
0.008034  0.044189  0.703000
0.009373  0.044189  0.703000
0.010712  0.044189  0.703000
0.012051  0.044189  0.703000
0.013390  0.044189  0.703000
0.014730  0.044189  0.703000
0.016069  0.044189  0.703000
0.017408  0.044189  0.703000
0.018773  0.044251  0.704000
0.020114  0.044251  0.704000
0.021486  0.044314  0.705000
0.022829  0.044314  0.705000
0.024171  0.044314  0.705000
0.025514  0.044314  0.705000
0.026933  0.044440  0.707000
0.028280  0.044440  0.707000
0.029669  0.044503  0.708000
0.031280  0.044880  0.714000
0.032640  0.044880  0.714000
0.034143  0.045069  0.717000
0.035608  0.045194  0.719000
0.036977  0.045194  0.719000
-0.494941  0.064122  1.052000
-0.491063  0.063878  1.048000
-0.489067  0.063878  1.048000
-0.487070  0.063878  1.048000
-0.486926  0.064122  1.052000
-0.484922  0.064122  1.052000
-0.482918  0.064122  1.052000
-0.482286  0.064305  1.055000
-0.480276  0.064305  1.055000
-0.478267  0.064305  1.055000
-0.476257  0.064305  1.055000
-0.212914  0.042057  0.690000
-0.211600  0.042057  0.690000
-0.210286  0.042057  0.690000
-0.208971  0.042057  0.690000
-0.207356  0.041996  0.689000
-0.206044  0.041996  0.689000
-0.204731  0.041996  0.689000
-0.203419  0.041996  0.689000
-0.201227  0.041813  0.686000
-0.199337  0.041691  0.684000
-0.198034  0.041691  0.684000
-0.196731  0.041691  0.684000
-0.195429  0.041691  0.684000
-0.194126  0.041691  0.684000
-0.192541  0.041630  0.683000
-0.191240  0.041630  0.683000
-0.189939  0.041630  0.683000
-0.188638  0.041630  0.683000
-0.187337  0.041630  0.683000
-0.186036  0.041630  0.683000
-0.184735  0.041630  0.683000
-0.183434  0.041630  0.683000
-0.182133  0.041630  0.683000
-0.180832  0.041630  0.683000
-0.179531  0.041630  0.683000
-0.178230  0.041630  0.683000
-0.176930  0.041630  0.683000
-0.175629  0.041630  0.683000
-0.174328  0.041630  0.683000
-0.173027  0.041630  0.683000
-0.171726  0.041630  0.683000
-0.170674  0.041691  0.684000
-0.169371  0.041691  0.684000
-0.168069  0.041691  0.684000
-0.167253  0.041813  0.686000
-0.165947  0.041813  0.686000
-0.164880  0.041874  0.687000
-0.163571  0.041874  0.687000
-0.162735  0.041996  0.689000
-0.161423  0.041996  0.689000
-0.160343  0.042057  0.690000
-0.159029  0.042057  0.690000
-0.157714  0.042057  0.690000
-0.156627  0.042118  0.691000
-0.155310  0.042118  0.691000
-0.153994  0.042118  0.691000
-0.153120  0.042240  0.693000
-0.152019  0.042301  0.694000
-0.150697  0.042301  0.694000
-0.149590  0.042362  0.695000
-0.148267  0.042362  0.695000
-0.146943  0.042362  0.695000
-0.146248  0.042545  0.698000
-0.144918  0.042545  0.698000
-0.144206  0.042728  0.701000
-0.143278  0.042850  0.703000
-0.142141  0.042910  0.704000
-0.141000  0.042971  0.705000
-0.140053  0.043093  0.707000
-0.138903  0.043154  0.708000
-0.137943  0.043276  0.710000
-0.137168  0.043459  0.713000
-0.136381  0.043642  0.716000
-0.135206  0.043703  0.717000
-0.134213  0.043825  0.719000
-0.045571  0.044190  0.725000
-0.044190  0.044190  0.725000
-0.042810  0.044190  0.725000
-0.041429  0.044190  0.725000
-0.039937  0.044069  0.723000
-0.038507  0.044008  0.722000
-0.037029  0.043886  0.720000
-0.035608  0.043825  0.719000
-0.034143  0.043703  0.717000
-0.032640  0.043520  0.714000
-0.031236  0.043459  0.713000
-0.029794  0.043337  0.711000
-0.028400  0.043276  0.710000
-0.026971  0.043154  0.708000
-0.025587  0.043093  0.707000
-0.024240  0.043093  0.707000
-0.022829  0.042971  0.705000
-0.021455  0.042910  0.704000
-0.020029  0.042728  0.701000
-0.018693  0.042728  0.701000
-0.017358  0.042728  0.701000
-0.016023  0.042728  0.701000
-0.014688  0.042728  0.701000
-0.013352  0.042728  0.701000
-0.012017  0.042728  0.701000
-0.010682  0.042728  0.701000
-0.009347  0.042728  0.701000
-0.008011  0.042728  0.701000
-0.006676  0.042728  0.701000
-0.005341  0.042728  0.701000
-0.004006  0.042728  0.701000
-0.002670  0.042728  0.701000
-0.001335  0.042728  0.701000
0.000000  0.042728  0.701000
0.001335  0.042728  0.701000
0.002670  0.042728  0.701000
0.004017  0.042850  0.703000
0.005356  0.042850  0.703000
0.006695  0.042850  0.703000
0.008034  0.042850  0.703000
0.009373  0.042850  0.703000
0.010712  0.042850  0.703000
0.012051  0.042850  0.703000
0.013390  0.042850  0.703000
0.014730  0.042850  0.703000
0.016069  0.042850  0.703000
0.017432  0.042910  0.704000
0.018773  0.042910  0.704000
0.020143  0.042971  0.705000
0.021486  0.042971  0.705000
0.022829  0.042971  0.705000
0.024171  0.042971  0.705000
0.025514  0.042971  0.705000
0.026933  0.043093  0.707000
0.028320  0.043154  0.708000
0.029669  0.043154  0.708000
0.031280  0.043520  0.714000
0.032640  0.043520  0.714000
0.034143  0.043703  0.717000
0.035608  0.043825  0.719000
-0.493059  0.061882  1.048000
-0.491063  0.061882  1.048000
-0.489067  0.061882  1.048000
-0.487070  0.061882  1.048000
-0.485074  0.061882  1.048000
-0.484922  0.062118  1.052000
-0.482918  0.062118  1.052000
-0.480914  0.062118  1.052000
-0.478910  0.062118  1.052000
-0.476907  0.062118  1.052000
-0.474903  0.062118  1.052000
-0.212914  0.040743  0.690000
-0.211293  0.040684  0.689000
-0.209981  0.040684  0.689000
-0.208063  0.040566  0.687000
-0.206754  0.040566  0.687000
-0.206044  0.040684  0.689000
-0.204731  0.040684  0.689000
-0.203419  0.040684  0.689000
-0.201227  0.040507  0.686000
-0.199920  0.040507  0.686000
-0.198613  0.040507  0.686000
-0.197307  0.040507  0.686000
-0.195429  0.040389  0.684000
-0.194126  0.040389  0.684000
-0.192541  0.040330  0.683000
-0.191240  0.040330  0.683000
-0.189939  0.040330  0.683000
-0.188638  0.040330  0.683000
-0.187337  0.040330  0.683000
-0.186036  0.040330  0.683000
-0.184735  0.040330  0.683000
-0.183434  0.040330  0.683000
-0.182133  0.040330  0.683000
-0.180832  0.040330  0.683000
-0.179531  0.040330  0.683000
-0.178230  0.040330  0.683000
-0.176930  0.040330  0.683000
-0.175629  0.040330  0.683000
-0.174328  0.040330  0.683000
-0.173027  0.040330  0.683000
-0.171726  0.040330  0.683000
-0.170674  0.040389  0.684000
-0.169371  0.040389  0.684000
-0.168069  0.040389  0.684000
-0.167253  0.040507  0.686000
-0.166189  0.040566  0.687000
-0.164880  0.040566  0.687000
-0.164048  0.040684  0.689000
-0.162735  0.040684  0.689000
-0.161657  0.040743  0.690000
-0.160343  0.040743  0.690000
-0.159029  0.040743  0.690000
-0.157714  0.040743  0.690000
-0.156627  0.040802  0.691000
-0.155310  0.040802  0.691000
-0.154440  0.040920  0.693000
-0.153120  0.040920  0.693000
-0.151800  0.040920  0.693000
-0.150697  0.040979  0.694000
-0.149590  0.041038  0.695000
-0.148267  0.041038  0.695000
-0.147366  0.041156  0.697000
-0.146248  0.041215  0.698000
-0.145333  0.041333  0.700000
-0.144206  0.041392  0.701000
-0.143278  0.041510  0.703000
-0.142141  0.041570  0.704000
-0.141000  0.041629  0.705000
-0.140053  0.041747  0.707000
-0.138903  0.041806  0.708000
-0.138137  0.041983  0.711000
-0.137360  0.042160  0.714000
-0.136381  0.042278  0.716000
-0.135206  0.042337  0.717000
-0.134213  0.042455  0.719000
-0.045571  0.042810  0.725000
-0.044190  0.042810  0.725000
-0.042869  0.042869  0.726000
-0.041429  0.042810  0.725000
-0.040048  0.042810  0.725000
-0.038507  0.042632  0.722000
-0.037029  0.042514  0.720000
-0.035608  0.042455  0.719000
-0.034143  0.042337  0.717000
-0.032640  0.042160  0.714000
-0.031280  0.042160  0.714000
-0.029878  0.042101  0.713000
-0.028440  0.041983  0.711000
-0.027048  0.041924  0.710000
-0.025587  0.041747  0.707000
-0.024240  0.041747  0.707000
-0.022829  0.041629  0.705000
-0.021455  0.041570  0.704000
-0.020086  0.041510  0.703000
-0.018693  0.041392  0.701000
-0.017358  0.041392  0.701000
-0.016023  0.041392  0.701000
-0.014688  0.041392  0.701000
-0.013352  0.041392  0.701000
-0.012017  0.041392  0.701000
-0.010682  0.041392  0.701000
-0.009347  0.041392  0.701000
-0.008011  0.041392  0.701000
-0.006676  0.041392  0.701000
-0.005341  0.041392  0.701000
-0.004006  0.041392  0.701000
-0.002670  0.041392  0.701000
-0.001335  0.041392  0.701000
0.000000  0.041392  0.701000
0.001335  0.041392  0.701000
0.002678  0.041510  0.703000
0.004017  0.041510  0.703000
0.005356  0.041510  0.703000
0.006695  0.041510  0.703000
0.008034  0.041510  0.703000
0.009373  0.041510  0.703000
0.010712  0.041510  0.703000
0.012051  0.041510  0.703000
0.013390  0.041510  0.703000
0.014730  0.041510  0.703000
0.016069  0.041510  0.703000
0.017432  0.041570  0.704000
0.018773  0.041570  0.704000
0.020143  0.041629  0.705000
0.021486  0.041629  0.705000
0.022829  0.041629  0.705000
0.024240  0.041747  0.707000
0.025587  0.041747  0.707000
0.026933  0.041747  0.707000
0.028320  0.041806  0.708000
0.029752  0.041924  0.710000
0.031280  0.042160  0.714000
0.032640  0.042160  0.714000
0.034143  0.042337  0.717000
0.035608  0.042455  0.719000
0.037183  0.042691  0.723000
-0.609903  0.058457  1.023000
-0.607954  0.058457  1.023000
-0.491648  0.059714  1.045000
-0.489657  0.059714  1.045000
-0.487667  0.059714  1.045000
-0.485676  0.059714  1.045000
-0.485074  0.059886  1.048000
-0.484922  0.060114  1.052000
-0.482918  0.060114  1.052000
-0.480914  0.060114  1.052000
-0.478910  0.060114  1.052000
-0.476907  0.060114  1.052000
-0.474903  0.060114  1.052000
-0.370229  0.059714  1.045000
-0.368238  0.059714  1.045000
-0.367299  0.059886  1.048000
-0.363211  0.059543  1.042000
-0.361227  0.059543  1.042000
-0.211293  0.039371  0.689000
-0.209981  0.039371  0.689000
-0.208063  0.039257  0.687000
-0.206754  0.039257  0.687000
-0.206044  0.039371  0.689000
-0.204731  0.039371  0.689000
-0.203419  0.039371  0.689000
-0.202107  0.039371  0.689000
-0.200211  0.039257  0.687000
-0.198903  0.039257  0.687000
-0.197307  0.039200  0.686000
-0.196000  0.039200  0.686000
-0.194126  0.039086  0.684000
-0.192541  0.039029  0.683000
-0.191240  0.039029  0.683000
-0.189939  0.039029  0.683000
-0.188638  0.039029  0.683000
-0.187337  0.039029  0.683000
-0.186036  0.039029  0.683000
-0.184735  0.039029  0.683000
-0.183434  0.039029  0.683000
-0.182133  0.039029  0.683000
-0.180832  0.039029  0.683000
-0.179531  0.039029  0.683000
-0.178230  0.039029  0.683000
-0.176930  0.039029  0.683000
-0.175629  0.039029  0.683000
-0.174328  0.039029  0.683000
-0.173027  0.039029  0.683000
-0.171977  0.039086  0.684000
-0.170674  0.039086  0.684000
-0.169371  0.039086  0.684000
-0.168560  0.039200  0.686000
-0.167253  0.039200  0.686000
-0.166189  0.039257  0.687000
-0.164880  0.039257  0.687000
-0.164048  0.039371  0.689000
-0.162735  0.039371  0.689000
-0.161657  0.039429  0.690000
-0.160343  0.039429  0.690000
-0.159029  0.039429  0.690000
-0.157714  0.039429  0.690000
-0.156627  0.039486  0.691000
-0.155310  0.039486  0.691000
-0.154440  0.039600  0.693000
-0.153120  0.039600  0.693000
-0.151800  0.039600  0.693000
-0.150697  0.039657  0.694000
-0.149590  0.039714  0.695000
-0.148267  0.039714  0.695000
-0.147366  0.039829  0.697000
-0.146248  0.039886  0.698000
-0.145333  0.040000  0.700000
-0.144206  0.040057  0.701000
-0.143278  0.040171  0.703000
-0.142141  0.040229  0.704000
-0.141000  0.040286  0.705000
-0.140053  0.040400  0.707000
-0.139295  0.040571  0.710000
-0.138137  0.040629  0.711000
-0.137360  0.040800  0.714000
-0.136381  0.040914  0.716000
-0.135583  0.041086  0.719000
-0.134213  0.041086  0.719000
-0.047211  0.041657  0.729000
-0.045760  0.041600  0.728000
-0.044251  0.041486  0.726000
-0.042869  0.041486  0.726000
-0.041429  0.041429  0.725000
-0.040048  0.041429  0.725000
-0.038507  0.041257  0.722000
-0.037029  0.041143  0.720000
-0.035608  0.041086  0.719000
-0.034238  0.041086  0.719000
-0.032731  0.040914  0.716000
-0.031280  0.040800  0.714000
-0.029878  0.040743  0.713000
-0.028440  0.040629  0.711000
-0.027048  0.040571  0.710000
-0.025623  0.040457  0.708000
-0.024240  0.040400  0.707000
-0.022893  0.040400  0.707000
-0.021486  0.040286  0.705000
-0.020114  0.040229  0.704000
-0.018747  0.040171  0.703000
-0.017408  0.040171  0.703000
-0.016023  0.040057  0.701000
-0.014688  0.040057  0.701000
-0.013352  0.040057  0.701000
-0.012017  0.040057  0.701000
-0.010682  0.040057  0.701000
-0.009347  0.040057  0.701000
-0.008011  0.040057  0.701000
-0.006676  0.040057  0.701000
-0.005341  0.040057  0.701000
-0.004006  0.040057  0.701000
-0.002670  0.040057  0.701000
-0.001335  0.040057  0.701000
0.000000  0.040057  0.701000
0.001335  0.040057  0.701000
0.002678  0.040171  0.703000
0.004017  0.040171  0.703000
0.005356  0.040171  0.703000
0.006705  0.040229  0.704000
0.008034  0.040171  0.703000
0.009373  0.040171  0.703000
0.010712  0.040171  0.703000
0.012051  0.040171  0.703000
0.013390  0.040171  0.703000
0.014730  0.040171  0.703000
0.016091  0.040229  0.704000
0.017432  0.040229  0.704000
0.018800  0.040286  0.705000
0.020143  0.040286  0.705000
0.021547  0.040400  0.707000
0.022893  0.040400  0.707000
0.024240  0.040400  0.707000
0.025587  0.040400  0.707000
0.026933  0.040400  0.707000
0.028320  0.040457  0.708000
0.029752  0.040571  0.710000
0.031280  0.040800  0.714000
0.032731  0.040914  0.716000
0.034143  0.040971  0.717000
0.035657  0.041143  0.720000
0.037183  0.041314  0.723000
-0.608114  0.056343  1.020000
-0.604389  0.056177  1.017000
-0.602451  0.056177  1.017000
-0.605829  0.056674  1.026000
-0.492983  0.055846  1.011000
-0.491057  0.055846  1.011000
-0.493872  0.057061  1.033000
-0.491905  0.057061  1.033000
-0.491360  0.057227  1.036000
-0.492221  0.057558  1.042000
-0.490236  0.057558  1.042000
-0.488251  0.057558  1.042000
-0.487667  0.057724  1.045000
-0.485676  0.057724  1.045000
-0.485074  0.057890  1.048000
-0.484922  0.058110  1.052000
-0.482918  0.058110  1.052000
-0.480914  0.058110  1.052000
-0.478910  0.058110  1.052000
-0.476907  0.058110  1.052000
-0.474903  0.058110  1.052000
-0.374933  0.057227  1.036000
-0.372960  0.057227  1.036000
-0.372061  0.057392  1.039000
-0.370082  0.057392  1.039000
-0.369166  0.057558  1.042000
-0.367181  0.057558  1.042000
-0.366248  0.057724  1.045000
-0.363211  0.057558  1.042000
-0.361227  0.057558  1.042000
-0.211293  0.038059  0.689000
-0.209981  0.038059  0.689000
-0.208669  0.038059  0.689000
-0.207356  0.038059  0.689000
-0.206044  0.038059  0.689000
-0.204731  0.038059  0.689000
-0.203419  0.038059  0.689000
-0.202107  0.038059  0.689000
-0.200211  0.037949  0.687000
-0.198903  0.037949  0.687000
-0.197594  0.037949  0.687000
-0.196286  0.037949  0.687000
-0.194693  0.037893  0.686000
-0.192823  0.037783  0.684000
-0.191240  0.037728  0.683000
-0.189939  0.037728  0.683000
-0.188914  0.037783  0.684000
-0.187611  0.037783  0.684000
-0.186309  0.037783  0.684000
-0.185006  0.037783  0.684000
-0.183703  0.037783  0.684000
-0.182400  0.037783  0.684000
-0.181097  0.037783  0.684000
-0.179794  0.037783  0.684000
-0.178491  0.037783  0.684000
-0.177189  0.037783  0.684000
-0.175629  0.037728  0.683000
-0.174328  0.037728  0.683000
-0.173280  0.037783  0.684000
-0.171977  0.037783  0.684000
-0.170674  0.037783  0.684000
-0.169371  0.037783  0.684000
-0.168560  0.037893  0.686000
-0.167497  0.037949  0.687000
-0.166189  0.037949  0.687000
-0.165360  0.038059  0.689000
-0.164048  0.038059  0.689000
-0.162971  0.038114  0.690000
-0.161657  0.038114  0.690000
-0.160343  0.038114  0.690000
-0.159029  0.038114  0.690000
-0.157943  0.038170  0.691000
-0.156627  0.038170  0.691000
-0.155310  0.038170  0.691000
-0.154440  0.038280  0.693000
-0.153120  0.038280  0.693000
-0.152019  0.038335  0.694000
-0.150697  0.038335  0.694000
-0.149590  0.038390  0.695000
-0.148267  0.038390  0.695000
-0.147366  0.038501  0.697000
-0.146248  0.038556  0.698000
-0.145333  0.038667  0.700000
-0.144206  0.038722  0.701000
-0.143278  0.038832  0.703000
-0.142141  0.038888  0.704000
-0.141000  0.038943  0.705000
-0.140053  0.039053  0.707000
-0.139295  0.039219  0.710000
-0.138526  0.039385  0.713000
-0.137360  0.039440  0.714000
-0.136381  0.039550  0.716000
-0.135583  0.039716  0.719000
-0.134400  0.039771  0.720000
-0.133398  0.039882  0.722000
-0.047211  0.040269  0.729000
-0.045760  0.040213  0.728000
-0.044251  0.040103  0.726000
-0.042869  0.040103  0.726000
-0.041429  0.040048  0.725000
-0.040048  0.040048  0.725000
-0.038560  0.039937  0.723000
-0.037131  0.039882  0.722000
-0.035657  0.039771  0.720000
-0.034238  0.039716  0.719000
-0.032777  0.039606  0.717000
-0.031280  0.039440  0.714000
-0.029878  0.039385  0.713000
-0.028520  0.039385  0.713000
-0.027048  0.039219  0.710000
-0.025623  0.039109  0.708000
-0.024274  0.039109  0.708000
-0.022893  0.039053  0.707000
-0.021486  0.038943  0.705000
-0.020143  0.038943  0.705000
-0.018773  0.038888  0.704000
-0.017408  0.038832  0.703000
-0.016069  0.038832  0.703000
-0.014688  0.038722  0.701000
-0.013352  0.038722  0.701000
-0.012017  0.038722  0.701000
-0.010682  0.038722  0.701000
-0.009347  0.038722  0.701000
-0.008011  0.038722  0.701000
-0.006676  0.038722  0.701000
-0.005341  0.038722  0.701000
-0.004006  0.038722  0.701000
-0.002670  0.038722  0.701000
-0.001335  0.038722  0.701000
0.000000  0.038722  0.701000
0.001335  0.038722  0.701000
0.002678  0.038832  0.703000
0.004023  0.038888  0.704000
0.005364  0.038888  0.704000
0.006705  0.038888  0.704000
0.008046  0.038888  0.704000
0.009387  0.038888  0.704000
0.010728  0.038888  0.704000
0.012051  0.038832  0.703000
0.013390  0.038832  0.703000
0.014750  0.038888  0.704000
0.016091  0.038888  0.704000
0.017432  0.038888  0.704000
0.018800  0.038943  0.705000
0.020143  0.038943  0.705000
0.021547  0.039053  0.707000
0.022893  0.039053  0.707000
0.024240  0.039053  0.707000
0.025587  0.039053  0.707000
0.026971  0.039109  0.708000
0.028400  0.039219  0.710000
0.029752  0.039219  0.710000
0.031280  0.039440  0.714000
0.032731  0.039550  0.716000
0.034143  0.039606  0.717000
0.035657  0.039771  0.720000
0.037183  0.039937  0.723000
-0.604537  0.054080  1.014000
-0.602606  0.054080  1.014000
-0.600674  0.054080  1.014000
-0.605829  0.054720  1.026000
-0.494377  0.053653  1.006000
-0.492461  0.053653  1.006000
-0.490545  0.053653  1.006000
-0.489600  0.053760  1.008000
-0.493872  0.055093  1.033000
-0.491905  0.055093  1.033000
-0.489937  0.055093  1.033000
-0.492221  0.055573  1.042000
-0.490236  0.055573  1.042000
-0.488251  0.055573  1.042000
-0.487667  0.055733  1.045000
-0.487070  0.055893  1.048000
-0.485074  0.055893  1.048000
-0.484922  0.056107  1.052000
-0.482918  0.056107  1.052000
-0.477714  0.055733  1.045000
-0.475724  0.055733  1.045000
-0.476907  0.056107  1.052000
-0.474903  0.056107  1.052000
-0.376686  0.054933  1.030000
-0.374724  0.054933  1.030000
-0.372762  0.054933  1.030000
-0.371880  0.055093  1.033000
-0.370987  0.055253  1.036000
-0.369013  0.055253  1.036000
-0.368103  0.055413  1.039000
-0.366124  0.055413  1.039000
-0.365196  0.055573  1.042000
-0.363211  0.055573  1.042000
-0.362267  0.055733  1.045000
-0.210286  0.036800  0.690000
-0.208669  0.036747  0.689000
-0.207356  0.036747  0.689000
-0.206044  0.036747  0.689000
-0.204731  0.036747  0.689000
-0.203419  0.036747  0.689000
-0.202107  0.036747  0.689000
-0.200794  0.036747  0.689000
-0.199482  0.036747  0.689000
-0.197594  0.036640  0.687000
-0.196286  0.036640  0.687000
-0.194693  0.036587  0.686000
-0.192823  0.036480  0.684000
-0.191520  0.036480  0.684000
-0.190217  0.036480  0.684000
-0.188914  0.036480  0.684000
-0.187611  0.036480  0.684000
-0.186309  0.036480  0.684000
-0.185006  0.036480  0.684000
-0.183703  0.036480  0.684000
-0.182400  0.036480  0.684000
-0.181097  0.036480  0.684000
-0.179794  0.036480  0.684000
-0.178491  0.036480  0.684000
-0.177189  0.036480  0.684000
-0.175886  0.036480  0.684000
-0.174583  0.036480  0.684000
-0.173280  0.036480  0.684000
-0.171977  0.036480  0.684000
-0.171173  0.036587  0.686000
-0.169867  0.036587  0.686000
-0.168560  0.036587  0.686000
-0.167497  0.036640  0.687000
-0.166189  0.036640  0.687000
-0.165360  0.036747  0.689000
-0.164048  0.036747  0.689000
-0.162971  0.036800  0.690000
-0.161657  0.036800  0.690000
-0.160343  0.036800  0.690000
-0.159259  0.036853  0.691000
-0.157943  0.036853  0.691000
-0.156627  0.036853  0.691000
-0.155760  0.036960  0.693000
-0.154440  0.036960  0.693000
-0.153341  0.037013  0.694000
-0.152019  0.037013  0.694000
-0.150914  0.037067  0.695000
-0.149590  0.037067  0.695000
-0.148693  0.037173  0.697000
-0.147366  0.037173  0.697000
-0.146667  0.037333  0.700000
-0.145333  0.037333  0.700000
-0.144206  0.037387  0.701000
-0.143482  0.037547  0.704000
-0.142141  0.037547  0.704000
-0.141000  0.037600  0.705000
-0.140053  0.037707  0.707000
-0.139295  0.037867  0.710000
-0.138526  0.038027  0.713000
-0.137745  0.038187  0.716000
-0.136571  0.038240  0.717000
-0.135583  0.038347  0.719000
-0.134400  0.038400  0.720000
-0.133398  0.038507  0.722000
-0.047341  0.038987  0.731000
-0.045760  0.038827  0.728000
-0.044251  0.038720  0.726000
-0.042869  0.038720  0.726000
-0.041429  0.038667  0.725000
-0.040048  0.038667  0.725000
-0.038560  0.038560  0.723000
-0.037131  0.038507  0.722000
-0.035657  0.038400  0.720000
-0.034238  0.038347  0.719000
-0.032777  0.038240  0.717000
-0.031368  0.038187  0.716000
-0.029920  0.038080  0.714000
-0.028520  0.038027  0.713000
-0.027086  0.037920  0.711000
-0.025695  0.037867  0.710000
-0.024343  0.037867  0.710000
-0.022926  0.037760  0.708000
-0.021547  0.037707  0.707000
-0.020143  0.037600  0.705000
-0.018773  0.037547  0.704000
-0.017432  0.037547  0.704000
-0.016069  0.037493  0.703000
-0.014730  0.037493  0.703000
-0.013390  0.037493  0.703000
-0.012051  0.037493  0.703000
-0.010712  0.037493  0.703000
-0.009373  0.037493  0.703000
-0.008034  0.037493  0.703000
-0.006695  0.037493  0.703000
-0.005341  0.037387  0.701000
-0.004006  0.037387  0.701000
-0.002678  0.037493  0.703000
-0.001339  0.037493  0.703000
0.000000  0.037493  0.703000
0.001339  0.037493  0.703000
0.002682  0.037547  0.704000
0.004023  0.037547  0.704000
0.005364  0.037547  0.704000
0.006705  0.037547  0.704000
0.008034  0.037493  0.703000
0.009373  0.037493  0.703000
0.010712  0.037493  0.703000
0.012069  0.037547  0.704000
0.013410  0.037547  0.704000
0.014750  0.037547  0.704000
0.016091  0.037547  0.704000
0.017432  0.037547  0.704000
0.018800  0.037600  0.705000
0.020200  0.037707  0.707000
0.021547  0.037707  0.707000
0.022893  0.037707  0.707000
0.024240  0.037707  0.707000
0.025587  0.037707  0.707000
0.026971  0.037760  0.708000
0.028400  0.037867  0.710000
0.029794  0.037920  0.711000
0.031280  0.038080  0.714000
0.032731  0.038187  0.716000
0.034143  0.038240  0.717000
0.035657  0.038400  0.720000
0.037183  0.038560  0.723000
-0.600960  0.051840  1.008000
-0.599040  0.051840  1.008000
-0.598897  0.051994  1.011000
-0.494377  0.051737  1.006000
-0.492461  0.051737  1.006000
-0.490545  0.051737  1.006000
-0.488629  0.051737  1.006000
-0.486712  0.051737  1.006000
-0.490097  0.052303  1.017000
-0.491040  0.052611  1.023000
-0.489091  0.052611  1.023000
-0.488571  0.052766  1.026000
-0.486617  0.052766  1.026000
-0.484663  0.052766  1.026000
-0.490236  0.053589  1.042000
-0.488251  0.053589  1.042000
-0.487667  0.053743  1.045000
-0.487070  0.053897  1.048000
-0.484922  0.054103  1.052000
-0.482918  0.054103  1.052000
-0.477714  0.053743  1.045000
-0.475724  0.053743  1.045000
-0.387621  0.053126  1.033000
-0.385653  0.053126  1.033000
-0.381086  0.052766  1.026000
-0.379131  0.052766  1.026000
-0.376074  0.052611  1.023000
-0.374126  0.052611  1.023000
-0.373269  0.052766  1.026000
-0.371314  0.052766  1.026000
-0.369360  0.052766  1.026000
-0.366331  0.052611  1.023000
-0.364383  0.052611  1.023000
-0.368103  0.053434  1.039000
-0.366124  0.053434  1.039000
-0.365196  0.053589  1.042000
-0.363211  0.053589  1.042000
-0.208971  0.035486  0.690000
-0.207657  0.035486  0.690000
-0.206343  0.035486  0.690000
-0.205029  0.035486  0.690000
-0.203714  0.035486  0.690000
-0.202400  0.035486  0.690000
-0.200794  0.035434  0.689000
-0.199482  0.035434  0.689000
-0.198170  0.035434  0.689000
-0.196286  0.035331  0.687000
-0.194977  0.035331  0.687000
-0.193387  0.035280  0.686000
-0.191520  0.035177  0.684000
-0.190217  0.035177  0.684000
-0.188914  0.035177  0.684000
-0.187611  0.035177  0.684000
-0.186309  0.035177  0.684000
-0.185006  0.035177  0.684000
-0.183703  0.035177  0.684000
-0.182400  0.035177  0.684000
-0.181097  0.035177  0.684000
-0.179794  0.035177  0.684000
-0.178491  0.035177  0.684000
-0.177189  0.035177  0.684000
-0.175886  0.035177  0.684000
-0.174583  0.035177  0.684000
-0.173280  0.035177  0.684000
-0.171977  0.035177  0.684000
-0.171173  0.035280  0.686000
-0.169867  0.035280  0.686000
-0.168806  0.035331  0.687000
-0.167497  0.035331  0.687000
-0.166189  0.035331  0.687000
-0.165360  0.035434  0.689000
-0.164048  0.035434  0.689000
-0.162971  0.035486  0.690000
-0.161657  0.035486  0.690000
-0.160343  0.035486  0.690000
-0.159259  0.035537  0.691000
-0.157943  0.035537  0.691000
-0.157080  0.035640  0.693000
-0.155760  0.035640  0.693000
-0.154440  0.035640  0.693000
-0.153341  0.035691  0.694000
-0.152019  0.035691  0.694000
-0.150914  0.035743  0.695000
-0.149590  0.035743  0.695000
-0.148693  0.035846  0.697000
-0.147577  0.035897  0.698000
-0.146667  0.036000  0.700000
-0.145541  0.036051  0.701000
-0.144617  0.036154  0.703000
-0.143482  0.036206  0.704000
-0.142141  0.036206  0.704000
-0.141000  0.036257  0.705000
-0.140053  0.036360  0.707000
-0.139295  0.036514  0.710000
-0.138526  0.036669  0.713000
-0.137745  0.036823  0.716000
-0.136571  0.036874  0.717000
-0.135583  0.036977  0.719000
-0.134400  0.037029  0.720000
-0.133398  0.037131  0.722000
-0.047341  0.037594  0.731000
-0.045823  0.037491  0.729000
-0.044373  0.037440  0.728000
-0.042987  0.037440  0.728000
-0.041429  0.037286  0.725000
-0.040048  0.037286  0.725000
-0.038560  0.037183  0.723000
-0.037131  0.037131  0.722000
-0.035657  0.037029  0.720000
-0.034286  0.037029  0.720000
-0.032777  0.036874  0.717000
-0.031368  0.036823  0.716000
-0.029920  0.036720  0.714000
-0.028560  0.036720  0.714000
-0.027086  0.036566  0.711000
-0.025695  0.036514  0.710000
-0.024343  0.036514  0.710000
-0.022926  0.036411  0.708000
-0.021547  0.036360  0.707000
-0.020143  0.036257  0.705000
-0.018773  0.036206  0.704000
-0.017432  0.036206  0.704000
-0.016069  0.036154  0.703000
-0.014730  0.036154  0.703000
-0.013390  0.036154  0.703000
-0.012051  0.036154  0.703000
-0.010712  0.036154  0.703000
-0.009373  0.036154  0.703000
-0.008034  0.036154  0.703000
-0.006695  0.036154  0.703000
-0.005356  0.036154  0.703000
-0.004017  0.036154  0.703000
-0.002678  0.036154  0.703000
-0.001339  0.036154  0.703000
0.000000  0.036154  0.703000
0.001339  0.036154  0.703000
0.002682  0.036206  0.704000
0.004023  0.036206  0.704000
0.005364  0.036206  0.704000
0.006705  0.036206  0.704000
0.008034  0.036154  0.703000
0.009373  0.036154  0.703000
0.010712  0.036154  0.703000
0.012069  0.036206  0.704000
0.013410  0.036206  0.704000
0.014750  0.036206  0.704000
0.016091  0.036206  0.704000
0.017432  0.036206  0.704000
0.018800  0.036257  0.705000
0.020200  0.036360  0.707000
0.021547  0.036360  0.707000
0.022893  0.036360  0.707000
0.024274  0.036411  0.708000
0.025623  0.036411  0.708000
0.026971  0.036411  0.708000
0.028400  0.036514  0.710000
0.029794  0.036566  0.711000
0.031280  0.036720  0.714000
0.032731  0.036823  0.716000
0.034143  0.036874  0.717000
0.035657  0.037029  0.720000
-0.599768  0.049821  1.006000
-0.597851  0.049821  1.006000
-0.597120  0.049920  1.008000
-0.592248  0.049672  1.003000
-0.590337  0.049672  1.003000
-0.541747  0.049078  0.991000
-0.539859  0.049078  0.991000
-0.542857  0.049524  1.000000
-0.494377  0.049821  1.006000
-0.492461  0.049821  1.006000
-0.490545  0.049821  1.006000
-0.488629  0.049821  1.006000
-0.486712  0.049821  1.006000
-0.488651  0.050217  1.014000
-0.489600  0.050514  1.020000
-0.487657  0.050514  1.020000
-0.487143  0.050663  1.023000
-0.486617  0.050811  1.026000
-0.385817  0.050663  1.023000
-0.383869  0.050663  1.023000
-0.383040  0.050811  1.026000
-0.379971  0.050663  1.023000
-0.378023  0.050663  1.023000
-0.374971  0.050514  1.020000
-0.373029  0.050514  1.020000
-0.373269  0.050811  1.026000
-0.370229  0.050663  1.023000
-0.366120  0.050366  1.017000
-0.364183  0.050366  1.017000
-0.363314  0.050514  1.020000
-0.361371  0.050514  1.020000
-0.361543  0.050811  1.026000
-0.359589  0.050811  1.026000
-0.364257  0.051752  1.045000
-0.208971  0.034171  0.690000
-0.207657  0.034171  0.690000
-0.206343  0.034171  0.690000
-0.205029  0.034171  0.690000
-0.203714  0.034171  0.690000
-0.202400  0.034171  0.690000
-0.200794  0.034122  0.689000
-0.199482  0.034122  0.689000
-0.198170  0.034122  0.689000
-0.196857  0.034122  0.689000
-0.194977  0.034023  0.687000
-0.193669  0.034023  0.687000
-0.192080  0.033973  0.686000
-0.190773  0.033973  0.686000
-0.189467  0.033973  0.686000
-0.187611  0.033874  0.684000
-0.186309  0.033874  0.684000
-0.185006  0.033874  0.684000
-0.183703  0.033874  0.684000
-0.182400  0.033874  0.684000
-0.181097  0.033874  0.684000
-0.179794  0.033874  0.684000
-0.178491  0.033874  0.684000
-0.177189  0.033874  0.684000
-0.175886  0.033874  0.684000
-0.174583  0.033874  0.684000
-0.173280  0.033874  0.684000
-0.172480  0.033973  0.686000
-0.171173  0.033973  0.686000
-0.169867  0.033973  0.686000
-0.168806  0.034023  0.687000
-0.167497  0.034023  0.687000
-0.166189  0.034023  0.687000
-0.165360  0.034122  0.689000
-0.164286  0.034171  0.690000
-0.162971  0.034171  0.690000
-0.161657  0.034171  0.690000
-0.160575  0.034221  0.691000
-0.159259  0.034221  0.691000
-0.158400  0.034320  0.693000
-0.157080  0.034320  0.693000
-0.155760  0.034320  0.693000
-0.154440  0.034320  0.693000
-0.153341  0.034370  0.694000
-0.152019  0.034370  0.694000
-0.150914  0.034419  0.695000
-0.150021  0.034518  0.697000
-0.148693  0.034518  0.697000
-0.147577  0.034568  0.698000
-0.146667  0.034667  0.700000
-0.145541  0.034716  0.701000
-0.144617  0.034815  0.703000
-0.143482  0.034865  0.704000
-0.142343  0.034914  0.705000
-0.141400  0.035013  0.707000
-0.140053  0.035013  0.707000
-0.139491  0.035211  0.711000
-0.138720  0.035360  0.714000
-0.137745  0.035459  0.716000
-0.136571  0.035509  0.717000
-0.135583  0.035608  0.719000
-0.134400  0.035657  0.720000
-0.133398  0.035756  0.722000
-0.047341  0.036202  0.731000
-0.045823  0.036103  0.729000
-0.044434  0.036103  0.729000
-0.042987  0.036053  0.728000
-0.041486  0.035954  0.726000
-0.040103  0.035954  0.726000
-0.038560  0.035806  0.723000
-0.037131  0.035756  0.722000
-0.035657  0.035657  0.720000
-0.034286  0.035657  0.720000
-0.032777  0.035509  0.717000
-0.031411  0.035509  0.717000
-0.030004  0.035459  0.716000
-0.028560  0.035360  0.714000
-0.027086  0.035211  0.711000
-0.025695  0.035162  0.710000
-0.024343  0.035162  0.710000
-0.022926  0.035063  0.708000
-0.021547  0.035013  0.707000
-0.020143  0.034914  0.705000
-0.018773  0.034865  0.704000
-0.017432  0.034865  0.704000
-0.016091  0.034865  0.704000
-0.014750  0.034865  0.704000
-0.013410  0.034865  0.704000
-0.012069  0.034865  0.704000
-0.010712  0.034815  0.703000
-0.009373  0.034815  0.703000
-0.008034  0.034815  0.703000
-0.006695  0.034815  0.703000
-0.005356  0.034815  0.703000
-0.004017  0.034815  0.703000
-0.002678  0.034815  0.703000
-0.001339  0.034815  0.703000
0.000000  0.034815  0.703000
0.001341  0.034865  0.704000
0.002682  0.034865  0.704000
0.004023  0.034865  0.704000
0.005364  0.034865  0.704000
0.006705  0.034865  0.704000
0.008034  0.034815  0.703000
0.009373  0.034815  0.703000
0.010728  0.034865  0.704000
0.012069  0.034865  0.704000
0.013410  0.034865  0.704000
0.014750  0.034865  0.704000
0.016114  0.034914  0.705000
0.017457  0.034914  0.705000
0.018800  0.034914  0.705000
0.020200  0.035013  0.707000
0.021547  0.035013  0.707000
0.022893  0.035013  0.707000
0.024274  0.035063  0.708000
0.025623  0.035063  0.708000
0.026971  0.035063  0.708000
0.028400  0.035162  0.710000
0.029794  0.035211  0.711000
0.031280  0.035360  0.714000
0.032731  0.035459  0.716000
0.034238  0.035608  0.719000
0.035756  0.035756  0.722000
0.123764  0.051901  1.048000
0.125760  0.051901  1.048000
0.127390  0.051752  1.045000
0.129381  0.051752  1.045000
0.131749  0.051901  1.048000
0.134255  0.052099  1.052000
0.136648  0.052248  1.055000
0.138657  0.052248  1.055000
0.140667  0.052248  1.055000
0.142676  0.052248  1.055000
0.144686  0.052248  1.055000
0.146695  0.052248  1.055000
0.149128  0.052396  1.058000
0.173171  0.051752  1.045000
0.175162  0.051752  1.045000
-0.597979  0.047762  1.003000
-0.596069  0.047762  1.003000
-0.594158  0.047762  1.003000
-0.590476  0.047619  1.000000
-0.588571  0.047619  1.000000
-0.586667  0.047619  1.000000
-0.540107  0.047048  0.988000
-0.538225  0.047048  0.988000
-0.542857  0.047619  1.000000
-0.496293  0.047905  1.006000
-0.494377  0.047905  1.006000
-0.492461  0.047905  1.006000
-0.490545  0.047905  1.006000
-0.489600  0.048000  1.008000
-0.487680  0.048000  1.008000
-0.488651  0.048286  1.014000
-0.489600  0.048571  1.020000
-0.487657  0.048571  1.020000
-0.487143  0.048714  1.023000
-0.485194  0.048714  1.023000
-0.385817  0.048714  1.023000
-0.383869  0.048714  1.023000
-0.381920  0.048714  1.023000
-0.379971  0.048714  1.023000
-0.378023  0.048714  1.023000
-0.374971  0.048571  1.020000
-0.373029  0.048571  1.020000
-0.373269  0.048857  1.026000
-0.370229  0.048714  1.023000
-0.366120  0.048429  1.017000
-0.364183  0.048429  1.017000
-0.362246  0.048429  1.017000
-0.360309  0.048429  1.017000
-0.359429  0.048571  1.020000
-0.357486  0.048571  1.020000
-0.355543  0.048571  1.020000
-0.349440  0.048000  1.008000
-0.347520  0.048000  1.008000
-0.346629  0.048143  1.011000
-0.344703  0.048143  1.011000
-0.209274  0.032905  0.691000
-0.207657  0.032857  0.690000
-0.206343  0.032857  0.690000
-0.205029  0.032857  0.690000
-0.203714  0.032857  0.690000
-0.202400  0.032857  0.690000
-0.201086  0.032857  0.690000
-0.199482  0.032810  0.689000
-0.198170  0.032810  0.689000
-0.196857  0.032810  0.689000
-0.194977  0.032714  0.687000
-0.193669  0.032714  0.687000
-0.192080  0.032667  0.686000
-0.190773  0.032667  0.686000
-0.189467  0.032667  0.686000
-0.188160  0.032667  0.686000
-0.186853  0.032667  0.686000
-0.185547  0.032667  0.686000
-0.183703  0.032571  0.684000
-0.182400  0.032571  0.684000
-0.181097  0.032571  0.684000
-0.179794  0.032571  0.684000
-0.178491  0.032571  0.684000
-0.177189  0.032571  0.684000
-0.175886  0.032571  0.684000
-0.174583  0.032571  0.684000
-0.173787  0.032667  0.686000
-0.172480  0.032667  0.686000
-0.171423  0.032714  0.687000
-0.170114  0.032714  0.687000
-0.168806  0.032714  0.687000
-0.167497  0.032714  0.687000
-0.166672  0.032810  0.689000
-0.165360  0.032810  0.689000
-0.164286  0.032857  0.690000
-0.162971  0.032857  0.690000
-0.161657  0.032857  0.690000
-0.160575  0.032905  0.691000
-0.159259  0.032905  0.691000
-0.158400  0.033000  0.693000
-0.157080  0.033000  0.693000
-0.155760  0.033000  0.693000
-0.154663  0.033048  0.694000
-0.153341  0.033048  0.694000
-0.152238  0.033095  0.695000
-0.150914  0.033095  0.695000
-0.150021  0.033190  0.697000
-0.148907  0.033238  0.698000
-0.148000  0.033333  0.700000
-0.146876  0.033381  0.701000
-0.145541  0.033381  0.701000
-0.144617  0.033476  0.703000
-0.143482  0.033524  0.704000
-0.142343  0.033571  0.705000
-0.141400  0.033667  0.707000
-0.140053  0.033667  0.707000
-0.139491  0.033857  0.711000
-0.139109  0.034095  0.716000
-0.137745  0.034095  0.716000
-0.136571  0.034143  0.717000
-0.135583  0.034238  0.719000
-0.134400  0.034286  0.720000
-0.133398  0.034381  0.722000
-0.048733  0.034810  0.731000
-0.047341  0.034810  0.731000
-0.045823  0.034714  0.729000
-0.044434  0.034714  0.729000
-0.042987  0.034667  0.728000
-0.041486  0.034571  0.726000
-0.040103  0.034571  0.726000
-0.038667  0.034524  0.725000
-0.037183  0.034429  0.723000
-0.035756  0.034381  0.722000
-0.034286  0.034286  0.720000
-0.032869  0.034238  0.719000
-0.031411  0.034143  0.717000
-0.030004  0.034095  0.716000
-0.028560  0.034000  0.714000
-0.027162  0.033952  0.713000
-0.025731  0.033857  0.711000
-0.024343  0.033810  0.710000
-0.022926  0.033714  0.708000
-0.021547  0.033667  0.707000
-0.020143  0.033571  0.705000
-0.018800  0.033571  0.705000
-0.017457  0.033571  0.705000
-0.016114  0.033571  0.705000
-0.014750  0.033524  0.704000
-0.013410  0.033524  0.704000
-0.012069  0.033524  0.704000
-0.010712  0.033476  0.703000
-0.009373  0.033476  0.703000
-0.008034  0.033476  0.703000
-0.006705  0.033524  0.704000
-0.005356  0.033476  0.703000
-0.004017  0.033476  0.703000
-0.002678  0.033476  0.703000
-0.001341  0.033524  0.704000
0.000000  0.033524  0.704000
0.001341  0.033524  0.704000
0.002682  0.033524  0.704000
0.004023  0.033524  0.704000
0.005364  0.033524  0.704000
0.006705  0.033524  0.704000
0.008046  0.033524  0.704000
0.009387  0.033524  0.704000
0.010728  0.033524  0.704000
0.012069  0.033524  0.704000
0.013410  0.033524  0.704000
0.014771  0.033571  0.705000
0.016114  0.033571  0.705000
0.017457  0.033571  0.705000
0.018853  0.033667  0.707000
0.020200  0.033667  0.707000
0.021547  0.033667  0.707000
0.022893  0.033667  0.707000
0.024274  0.033714  0.708000
0.025623  0.033714  0.708000
0.026971  0.033714  0.708000
0.028400  0.033810  0.710000
0.029794  0.033857  0.711000
0.031280  0.034000  0.714000
0.032731  0.034095  0.716000
0.034238  0.034238  0.719000
0.035756  0.034381  0.722000
0.104284  0.049190  1.033000
0.106251  0.049190  1.033000
0.108219  0.049190  1.033000
0.117101  0.049619  1.042000
0.119086  0.049619  1.042000
0.121070  0.049619  1.042000
0.123764  0.049905  1.048000
0.125760  0.049905  1.048000
0.127390  0.049762  1.045000
0.129381  0.049762  1.045000
0.131371  0.049762  1.045000
0.133745  0.049905  1.048000
0.136648  0.050238  1.055000
0.138657  0.050238  1.055000
0.140667  0.050238  1.055000
0.142676  0.050238  1.055000
0.144686  0.050238  1.055000
0.146695  0.050238  1.055000
0.149128  0.050381  1.058000
0.152387  0.049476  1.039000
0.154366  0.049476  1.039000
0.157410  0.049190  1.033000
0.159377  0.049190  1.033000
0.168219  0.049476  1.039000
0.170198  0.049476  1.039000
0.172674  0.049619  1.042000
0.174659  0.049619  1.042000
0.177152  0.049762  1.045000
-0.594402  0.045577  0.997000
-0.588937  0.045303  0.991000
-0.585272  0.045166  0.988000
-0.581619  0.045029  0.985000
-0.579743  0.045029  0.985000
-0.574933  0.044800  0.980000
-0.573067  0.044800  0.980000
-0.571200  0.044800  0.980000
-0.555162  0.045166  0.988000
-0.553280  0.045166  0.988000
-0.551398  0.045166  0.988000
-0.547848  0.045029  0.985000
-0.543200  0.044800  0.980000
-0.541333  0.044800  0.980000
-0.540107  0.045166  0.988000
-0.538225  0.045166  0.988000
-0.542857  0.045714  1.000000
-0.525333  0.045029  0.985000
-0.523457  0.045029  0.985000
-0.490564  0.044937  0.983000
-0.488691  0.044937  0.983000
-0.486819  0.044937  0.983000
-0.484947  0.044937  0.983000
-0.485531  0.045166  0.988000
-0.490992  0.045851  1.003000
-0.489082  0.045851  1.003000
-0.487171  0.045851  1.003000
-0.486712  0.045989  1.006000
-0.487206  0.046217  1.011000
-0.489600  0.046629  1.020000
-0.487657  0.046629  1.020000
-0.487143  0.046766  1.023000
-0.485194  0.046766  1.023000
-0.386949  0.046903  1.026000
-0.383869  0.046766  1.023000
-0.380800  0.046629  1.020000
-0.378857  0.046629  1.020000
-0.378023  0.046766  1.023000
-0.374971  0.046629  1.020000
-0.373029  0.046629  1.020000
-0.373269  0.046903  1.026000
-0.370229  0.046766  1.023000
-0.368280  0.046766  1.023000
-0.366331  0.046766  1.023000
-0.360109  0.046217  1.011000
-0.358183  0.046217  1.011000
-0.357314  0.046354  1.014000
-0.354331  0.046217  1.011000
-0.352406  0.046217  1.011000
-0.349440  0.046080  1.008000
-0.347520  0.046080  1.008000
-0.345600  0.046080  1.008000
-0.343680  0.046080  1.008000
-0.211200  0.031680  0.693000
-0.209274  0.031589  0.691000
-0.207958  0.031589  0.691000
-0.206343  0.031543  0.690000
-0.205029  0.031543  0.690000
-0.203714  0.031543  0.690000
-0.202400  0.031543  0.690000
-0.201086  0.031543  0.690000
-0.199482  0.031497  0.689000
-0.198170  0.031497  0.689000
-0.196857  0.031497  0.689000
-0.194977  0.031406  0.687000
-0.193669  0.031406  0.687000
-0.192080  0.031360  0.686000
-0.190773  0.031360  0.686000
-0.189467  0.031360  0.686000
-0.188160  0.031360  0.686000
-0.186853  0.031360  0.686000
-0.185547  0.031360  0.686000
-0.183703  0.031269  0.684000
-0.182400  0.031269  0.684000
-0.181097  0.031269  0.684000
-0.179794  0.031269  0.684000
-0.179013  0.031360  0.686000
-0.177707  0.031360  0.686000
-0.176400  0.031360  0.686000
-0.175093  0.031360  0.686000
-0.173787  0.031360  0.686000
-0.172731  0.031406  0.687000
-0.171423  0.031406  0.687000
-0.170114  0.031406  0.687000
-0.168806  0.031406  0.687000
-0.167497  0.031406  0.687000
-0.166672  0.031497  0.689000
-0.165360  0.031497  0.689000
-0.164286  0.031543  0.690000
-0.162971  0.031543  0.690000
-0.161657  0.031543  0.690000
-0.160575  0.031589  0.691000
-0.159259  0.031589  0.691000
-0.158400  0.031680  0.693000
-0.157080  0.031680  0.693000
-0.155760  0.031680  0.693000
-0.154663  0.031726  0.694000
-0.153562  0.031771  0.695000
-0.152238  0.031771  0.695000
-0.150914  0.031771  0.695000
-0.150021  0.031863  0.697000
-0.148907  0.031909  0.698000
-0.148000  0.032000  0.700000
-0.146876  0.032046  0.701000
-0.145541  0.032046  0.701000
-0.144823  0.032183  0.704000
-0.143686  0.032229  0.705000
-0.142343  0.032229  0.705000
-0.141400  0.032320  0.707000
-0.140251  0.032366  0.708000
-0.139491  0.032503  0.711000
-0.138526  0.032594  0.713000
-0.137937  0.032777  0.717000
-0.136952  0.032869  0.719000
-0.135583  0.032869  0.719000
-0.134400  0.032914  0.720000
-0.133398  0.033006  0.722000
-0.048733  0.033417  0.731000
-0.047341  0.033417  0.731000
-0.045949  0.033417  0.731000
-0.044434  0.033326  0.729000
-0.042987  0.033280  0.728000
-0.041486  0.033189  0.726000
-0.040103  0.033189  0.726000
-0.038667  0.033143  0.725000
-0.037183  0.033051  0.723000
-0.035756  0.033006  0.722000
-0.034286  0.032914  0.720000
-0.032869  0.032869  0.719000
-0.031411  0.032777  0.717000
-0.030046  0.032777  0.717000
-0.028640  0.032731  0.716000
-0.027200  0.032640  0.714000
-0.025731  0.032503  0.711000
-0.024343  0.032457  0.710000
-0.022926  0.032366  0.708000
-0.021547  0.032320  0.707000
-0.020200  0.032320  0.707000
-0.018800  0.032229  0.705000
-0.017457  0.032229  0.705000
-0.016114  0.032229  0.705000
-0.014750  0.032183  0.704000
-0.013410  0.032183  0.704000
-0.012069  0.032183  0.704000
-0.010712  0.032137  0.703000
-0.009373  0.032137  0.703000
-0.008034  0.032137  0.703000
-0.006705  0.032183  0.704000
-0.005356  0.032137  0.703000
-0.004017  0.032137  0.703000
-0.002678  0.032137  0.703000
-0.001341  0.032183  0.704000
0.000000  0.032183  0.704000
0.001341  0.032183  0.704000
0.002678  0.032137  0.703000
0.004017  0.032137  0.703000
0.005356  0.032137  0.703000
0.006705  0.032183  0.704000
0.008046  0.032183  0.704000
0.009387  0.032183  0.704000
0.010728  0.032183  0.704000
0.012069  0.032183  0.704000
0.013429  0.032229  0.705000
0.014771  0.032229  0.705000
0.016114  0.032229  0.705000
0.017457  0.032229  0.705000
0.018853  0.032320  0.707000
0.020200  0.032320  0.707000
0.021547  0.032320  0.707000
0.022893  0.032320  0.707000
0.024274  0.032366  0.708000
0.025623  0.032366  0.708000
0.026971  0.032366  0.708000
0.028400  0.032457  0.710000
0.029794  0.032503  0.711000
0.031280  0.032640  0.714000
0.032731  0.032731  0.716000
0.034238  0.032869  0.719000
0.035756  0.033006  0.722000
0.037286  0.033143  0.725000
0.103981  0.047086  1.030000
0.105943  0.047086  1.030000
0.108219  0.047223  1.033000
0.110187  0.047223  1.033000
0.112154  0.047223  1.033000
0.114453  0.047360  1.036000
0.117101  0.047634  1.042000
0.119086  0.047634  1.042000
0.121070  0.047634  1.042000
0.123764  0.047909  1.048000
0.125760  0.047909  1.048000
0.127756  0.047909  1.048000
0.129381  0.047771  1.045000
0.131371  0.047771  1.045000
0.133745  0.047909  1.048000
0.136648  0.048229  1.055000
0.138657  0.048229  1.055000
0.140667  0.048229  1.055000
0.142676  0.048229  1.055000
0.144686  0.048229  1.055000
0.146695  0.048229  1.055000
0.149128  0.048366  1.058000
0.149973  0.047360  1.036000
0.151947  0.047360  1.036000
0.153474  0.047223  1.033000
0.155442  0.047223  1.033000
0.157410  0.047223  1.033000
0.159377  0.047223  1.033000
0.161813  0.047360  1.036000
0.167733  0.047360  1.036000
0.169707  0.047360  1.036000
0.172177  0.047497  1.039000
0.174156  0.047497  1.039000
0.176135  0.047497  1.039000
0.178629  0.047634  1.042000
-0.592613  0.043547  0.994000
-0.588937  0.043415  0.991000
-0.585272  0.043284  0.988000
-0.581619  0.043152  0.985000
-0.576800  0.042933  0.980000
-0.574933  0.042933  0.980000
-0.571312  0.042802  0.977000
-0.569451  0.042802  0.977000
-0.567590  0.042802  0.977000
-0.565729  0.042802  0.977000
-0.565600  0.042933  0.980000
-0.563733  0.042933  0.980000
-0.561867  0.042933  0.980000
-0.560000  0.042933  0.980000
-0.559842  0.043065  0.983000
-0.560808  0.043284  0.988000
-0.558926  0.043284  0.988000
-0.557044  0.043284  0.988000
-0.555162  0.043284  0.988000
-0.550480  0.043065  0.983000
-0.548608  0.043065  0.983000
-0.546735  0.043065  0.983000
-0.543200  0.042933  0.980000
-0.541333  0.042933  0.980000
-0.542219  0.043152  0.985000
-0.541989  0.043284  0.988000
-0.540107  0.043284  0.988000
-0.539859  0.043415  0.991000
-0.542857  0.043810  1.000000
-0.520251  0.042583  0.972000
-0.518400  0.042583  0.972000
-0.520800  0.042933  0.980000
-0.518933  0.042933  0.980000
-0.517067  0.042933  0.980000
-0.515200  0.042933  0.980000
-0.490933  0.042933  0.980000
-0.489067  0.042933  0.980000
-0.487200  0.042933  0.980000
-0.485333  0.042933  0.980000
-0.483467  0.042933  0.980000
-0.483074  0.043065  0.983000
-0.489524  0.043810  1.000000
-0.487619  0.043810  1.000000
-0.487171  0.043941  1.003000
-0.486712  0.044072  1.006000
-0.487206  0.044291  1.011000
-0.489600  0.044686  1.020000
-0.487657  0.044686  1.020000
-0.485714  0.044686  1.020000
-0.380800  0.044686  1.020000
