# .PCD v.5 - Point Cloud Data file format
FIELDS x y z 
SIZE 4 4 4
TYPE F F F
COUNT 1 1 1
WIDTH 1556
HEIGHT 1
POINTS 1556
DATA ascii
-0.377520  -0.128040  0.693000
-0.372400  -0.126747  0.686000
-0.371093  -0.126747  0.686000
-0.369787  -0.126747  0.686000
-0.369017  -0.126931  0.687000
-0.369314  -0.127486  0.690000
-0.364800  -0.126377  0.684000
-0.363497  -0.126377  0.684000
-0.363783  -0.126931  0.687000
-0.363530  -0.127301  0.689000
-0.362217  -0.127301  0.689000
-0.360905  -0.127301  0.689000
-0.358280  -0.127301  0.689000
-0.356968  -0.127301  0.689000
-0.356688  -0.127670  0.691000
-0.356400  -0.128040  0.693000
-0.355080  -0.128040  0.693000
-0.353760  -0.128040  0.693000
-0.352440  -0.128040  0.693000
-0.351120  -0.128040  0.693000
-0.349800  -0.128040  0.693000
-0.348983  -0.128225  0.694000
-0.347661  -0.128225  0.694000
-0.345840  -0.128040  0.693000
-0.344520  -0.128040  0.693000
-0.346667  -0.129333  0.700000
-0.345333  -0.129333  0.700000
-0.337611  -0.126931  0.687000
-0.336303  -0.126931  0.687000
-0.334994  -0.126931  0.687000
-0.333686  -0.126931  0.687000
-0.333345  -0.127301  0.689000
-0.332996  -0.127670  0.691000
-0.331680  -0.127670  0.691000
-0.334667  -0.129333  0.700000
-0.333333  -0.129333  0.700000
-0.332000  -0.129333  0.700000
-0.330667  -0.129333  0.700000
-0.327922  -0.128779  0.697000
-0.326594  -0.128779  0.697000
-0.325733  -0.128964  0.698000
-0.323010  -0.128410  0.695000
-0.321686  -0.128410  0.695000
-0.321284  -0.128779  0.697000
-0.317202  -0.127670  0.691000
-0.315886  -0.127670  0.691000
-0.315480  -0.128040  0.693000
-0.314160  -0.128040  0.693000
-0.312840  -0.128040  0.693000
-0.311970  -0.128225  0.694000
-0.310648  -0.128225  0.694000
-0.309326  -0.128225  0.694000
-0.308448  -0.128410  0.695000
-0.307124  -0.128410  0.695000
-0.305800  -0.128410  0.695000
-0.305352  -0.128779  0.697000
-0.304025  -0.128779  0.697000
-0.302697  -0.128779  0.697000
-0.302667  -0.129333  0.700000
-0.301333  -0.129333  0.700000
-0.300000  -0.129333  0.700000
-0.285827  -0.125453  0.679000
-0.284533  -0.125453  0.679000
-0.283240  -0.125453  0.679000
-0.292328  -0.130072  0.704000
-0.290987  -0.130072  0.704000
-0.288411  -0.129518  0.701000
-0.287076  -0.129518  0.701000
-0.285741  -0.129518  0.701000
-0.285623  -0.130072  0.704000
-0.284282  -0.130072  0.704000
-0.277716  -0.127670  0.691000
-0.278000  -0.128410  0.695000
-0.276676  -0.128410  0.695000
-0.275352  -0.128410  0.695000
-0.274029  -0.128410  0.695000
-0.272705  -0.128410  0.695000
-0.272162  -0.128779  0.697000
-0.270057  -0.128410  0.695000
-0.268733  -0.128410  0.695000
-0.267410  -0.128410  0.695000
-0.266086  -0.128410  0.695000
-0.264762  -0.128410  0.695000
-0.263438  -0.128410  0.695000
-0.262114  -0.128410  0.695000
-0.261541  -0.128779  0.697000
-0.260213  -0.128779  0.697000
-0.258886  -0.128779  0.697000
-0.260145  -0.130072  0.704000
-0.258804  -0.130072  0.704000
-0.245684  -0.129518  0.701000
-0.244349  -0.129518  0.701000
-0.243013  -0.129518  0.701000
-0.241678  -0.129518  0.701000
-0.240343  -0.129518  0.701000
-0.239008  -0.129518  0.701000
-0.230606  -0.130811  0.708000
-0.229257  -0.130811  0.708000
-0.133886  -0.131181  0.710000
-0.132533  -0.131181  0.710000
-0.131366  -0.131366  0.711000
-0.129463  -0.130811  0.708000
-0.128114  -0.130811  0.708000
-0.126766  -0.130811  0.708000
-0.125417  -0.130811  0.708000
-0.124069  -0.130811  0.708000
-0.122720  -0.130811  0.708000
-0.121714  -0.131181  0.710000
-0.091143  -0.133952  0.725000
-0.089762  -0.133952  0.725000
-0.088503  -0.134137  0.726000
-0.055600  -0.128410  0.695000
-0.054276  -0.128410  0.695000
-0.053105  -0.128779  0.697000
-0.051777  -0.128779  0.697000
-0.050450  -0.128779  0.697000
-0.049122  -0.128779  0.697000
-0.047794  -0.128779  0.697000
-0.046467  -0.128779  0.697000
-0.045204  -0.128964  0.698000
-0.041392  -0.129518  0.701000
-0.040057  -0.129518  0.701000
-0.038722  -0.129518  0.701000
-0.037387  -0.129518  0.701000
-0.036257  -0.130257  0.705000
-0.034914  -0.130257  0.705000
-0.033667  -0.130627  0.707000
-0.032320  -0.130627  0.707000
-0.031499  -0.132844  0.719000
-0.030130  -0.132844  0.719000
-0.028760  -0.132844  0.719000
-0.026857  -0.130257  0.705000
-0.025514  -0.130257  0.705000
-0.024651  -0.132844  0.719000
-0.022764  -0.129888  0.703000
-0.021425  -0.129888  0.703000
-0.020114  -0.130072  0.704000
-0.018800  -0.130257  0.705000
-0.017457  -0.130257  0.705000
-0.016160  -0.130627  0.707000
-0.013390  -0.129888  0.703000
-0.012051  -0.129888  0.703000
0.122547  -0.130627  0.707000
0.123893  -0.130627  0.707000
0.124886  -0.130257  0.705000
0.126229  -0.130257  0.705000
0.127933  -0.130627  0.707000
0.129280  -0.130627  0.707000
0.130627  -0.130627  0.707000
0.131973  -0.130627  0.707000
0.133320  -0.130627  0.707000
0.134667  -0.130627  0.707000
0.136013  -0.130627  0.707000
0.137554  -0.130811  0.708000
0.139491  -0.131366  0.711000
0.140846  -0.131366  0.711000
0.142200  -0.131366  0.711000
0.143554  -0.131366  0.711000
0.145316  -0.131735  0.713000
0.146880  -0.131920  0.714000
0.148863  -0.132474  0.717000
0.150648  -0.132844  0.719000
0.152651  -0.133398  0.722000
0.154027  -0.133398  0.722000
0.155617  -0.133583  0.723000
0.156777  -0.133398  0.722000
0.158152  -0.133398  0.722000
0.159528  -0.133398  0.722000
0.160903  -0.133398  0.722000
0.162278  -0.133398  0.722000
0.163880  -0.133583  0.723000
0.163886  -0.132474  0.717000
0.165251  -0.132474  0.717000
0.166617  -0.132474  0.717000
0.168686  -0.133029  0.720000
0.170766  -0.133583  0.723000
0.171429  -0.133029  0.720000
0.172560  -0.132844  0.719000
0.173446  -0.132474  0.717000
0.174811  -0.132474  0.717000
0.176914  -0.133029  0.720000
0.178286  -0.133029  0.720000
0.177910  -0.131735  0.713000
0.179269  -0.131735  0.713000
0.180880  -0.131920  0.714000
0.182240  -0.131920  0.714000
0.184886  -0.132844  0.719000
0.202690  -0.132844  0.719000
0.204059  -0.132844  0.719000
0.205429  -0.132844  0.719000
0.206223  -0.132474  0.717000
0.207589  -0.132474  0.717000
0.208954  -0.132474  0.717000
0.211787  -0.133398  0.722000
0.214048  -0.133952  0.725000
0.215429  -0.133952  0.725000
0.216810  -0.133952  0.725000
0.218190  -0.133952  0.725000
0.218966  -0.133583  0.723000
0.220343  -0.133583  0.723000
0.221720  -0.133583  0.723000
0.224640  -0.134507  0.728000
0.234762  -0.133952  0.725000
0.236143  -0.133952  0.725000
0.237524  -0.133952  0.725000
0.238246  -0.133583  0.723000
0.239623  -0.133583  0.723000
0.241000  -0.133583  0.723000
-0.394011  -0.126187  0.676000
-0.392724  -0.126187  0.676000
-0.392594  -0.126560  0.678000
-0.391303  -0.126560  0.678000
-0.390587  -0.126747  0.679000
-0.389293  -0.126747  0.679000
-0.388571  -0.126933  0.680000
-0.387276  -0.126933  0.680000
-0.385981  -0.126933  0.680000
-0.386949  -0.127680  0.684000
-0.385646  -0.127680  0.684000
-0.382095  -0.126933  0.680000
-0.380800  -0.126933  0.680000
-0.381737  -0.127680  0.684000
-0.380434  -0.127680  0.684000
-0.379131  -0.127680  0.684000
-0.377829  -0.127680  0.684000
-0.378177  -0.128240  0.687000
-0.377966  -0.128613  0.689000
-0.376653  -0.128613  0.689000
-0.372617  -0.127680  0.684000
-0.371314  -0.127680  0.684000
-0.370011  -0.127680  0.684000
-0.368709  -0.127680  0.684000
-0.368480  -0.128053  0.686000
-0.365032  -0.127307  0.682000
-0.363733  -0.127307  0.682000
-0.363497  -0.127680  0.684000
-0.362194  -0.127680  0.684000
-0.362474  -0.128240  0.687000
-0.361166  -0.128240  0.687000
-0.359857  -0.128240  0.687000
-0.358280  -0.128613  0.689000
-0.356968  -0.128613  0.689000
-0.356688  -0.128987  0.691000
-0.355371  -0.128987  0.691000
-0.354055  -0.128987  0.691000
-0.352739  -0.128987  0.691000
-0.352440  -0.129360  0.693000
-0.351120  -0.129360  0.693000
-0.349800  -0.129360  0.693000
-0.348983  -0.129547  0.694000
-0.347661  -0.129547  0.694000
-0.346838  -0.129733  0.695000
-0.345514  -0.129733  0.695000
-0.346667  -0.130667  0.700000
-0.337440  -0.127680  0.684000
-0.336137  -0.127680  0.684000
-0.335813  -0.128053  0.686000
-0.334507  -0.128053  0.686000
-0.333200  -0.128053  0.686000
-0.331893  -0.128053  0.686000
-0.330587  -0.128053  0.686000
-0.331200  -0.128800  0.690000
-0.334667  -0.130667  0.700000
-0.333333  -0.130667  0.700000
-0.332000  -0.130667  0.700000
-0.330667  -0.130667  0.700000
-0.329333  -0.130667  0.700000
-0.328000  -0.130667  0.700000
-0.322467  -0.128987  0.691000
-0.321150  -0.128987  0.691000
-0.319834  -0.128987  0.691000
-0.318518  -0.128987  0.691000
-0.317202  -0.128987  0.691000
-0.315886  -0.128987  0.691000
-0.314570  -0.128987  0.691000
-0.313253  -0.128987  0.691000
-0.311937  -0.128987  0.691000
-0.311520  -0.129360  0.693000
-0.310648  -0.129547  0.694000
-0.309326  -0.129547  0.694000
-0.308004  -0.129547  0.694000
-0.306682  -0.129547  0.694000
-0.305360  -0.129547  0.694000
-0.304038  -0.129547  0.694000
-0.304025  -0.130107  0.697000
-0.302697  -0.130107  0.697000
-0.302667  -0.130667  0.700000
-0.301333  -0.130667  0.700000
-0.287989  -0.126560  0.678000
-0.287120  -0.126747  0.679000
-0.285827  -0.126747  0.679000
-0.284533  -0.126747  0.679000
-0.283240  -0.126747  0.679000
-0.281947  -0.126747  0.679000
-0.280240  -0.126560  0.678000
-0.278949  -0.126560  0.678000
-0.285848  -0.130293  0.698000
-0.285741  -0.130853  0.701000
-0.284406  -0.130853  0.701000
-0.277417  -0.128240  0.687000
-0.277716  -0.128987  0.691000
-0.276400  -0.128987  0.691000
-0.275084  -0.128987  0.691000
-0.274560  -0.129360  0.693000
-0.273240  -0.129360  0.693000
-0.272312  -0.129547  0.694000
-0.269819  -0.128987  0.691000
-0.268503  -0.128987  0.691000
-0.267960  -0.129360  0.693000
-0.266640  -0.129360  0.693000
-0.265320  -0.129360  0.693000
-0.264000  -0.129360  0.693000
-0.262680  -0.129360  0.693000
-0.261360  -0.129360  0.693000
-0.260040  -0.129360  0.693000
-0.259093  -0.129547  0.694000
-0.257771  -0.129547  0.694000
-0.256450  -0.129547  0.694000
-0.245684  -0.130853  0.701000
-0.244349  -0.130853  0.701000
-0.243013  -0.130853  0.701000
-0.241678  -0.130853  0.701000
-0.240343  -0.130853  0.701000
-0.239008  -0.130853  0.701000
-0.128914  -0.131600  0.705000
-0.127571  -0.131600  0.705000
-0.126587  -0.131973  0.707000
-0.125240  -0.131973  0.707000
-0.123893  -0.131973  0.707000
-0.122720  -0.132160  0.708000
-0.121371  -0.132160  0.708000
-0.055600  -0.129733  0.695000
-0.054276  -0.129733  0.695000
-0.053105  -0.130107  0.697000
-0.051777  -0.130107  0.697000
-0.050305  -0.129733  0.695000
-0.048981  -0.129733  0.695000
-0.047657  -0.129733  0.695000
-0.046333  -0.129733  0.695000
-0.045010  -0.129733  0.695000
-0.043686  -0.129733  0.695000
-0.041392  -0.130853  0.701000
-0.040000  -0.130667  0.700000
-0.038667  -0.130667  0.700000
-0.037387  -0.130853  0.701000
-0.036206  -0.131413  0.704000
-0.034865  -0.131413  0.704000
-0.033571  -0.131600  0.705000
-0.032137  -0.131227  0.703000
-0.030798  -0.131227  0.703000
-0.029459  -0.131227  0.703000
-0.028120  -0.131227  0.703000
-0.026781  -0.131227  0.703000
-0.025442  -0.131227  0.703000
-0.024103  -0.131227  0.703000
-0.022699  -0.130853  0.701000
-0.021364  -0.130853  0.701000
-0.020086  -0.131227  0.703000
-0.018747  -0.131227  0.703000
-0.017408  -0.131227  0.703000
-0.016069  -0.131227  0.703000
-0.014604  -0.130107  0.697000
-0.013276  -0.130107  0.697000
-0.012017  -0.130853  0.701000
-0.009293  -0.130107  0.697000
-0.007943  -0.129733  0.695000
-0.006619  -0.129733  0.695000
-0.005295  -0.129733  0.695000
0.121200  -0.131973  0.707000
0.122200  -0.131600  0.705000
0.123543  -0.131600  0.705000
0.124886  -0.131600  0.705000
0.126229  -0.131600  0.705000
0.127571  -0.131600  0.705000
0.128914  -0.131600  0.705000
0.130257  -0.131600  0.705000
0.131973  -0.131973  0.707000
0.133320  -0.131973  0.707000
0.134286  -0.131600  0.705000
0.135629  -0.131600  0.705000
0.137360  -0.131973  0.707000
0.139491  -0.132720  0.711000
0.140846  -0.132720  0.711000
0.142200  -0.132720  0.711000
0.143554  -0.132720  0.711000
0.145520  -0.133280  0.714000
0.147291  -0.133653  0.716000
0.149278  -0.134213  0.719000
0.150648  -0.134213  0.719000
0.152651  -0.134773  0.722000
0.154027  -0.134773  0.722000
0.155402  -0.134773  0.722000
0.156777  -0.134773  0.722000
0.158152  -0.134773  0.722000
0.159528  -0.134773  0.722000
0.160903  -0.134773  0.722000
0.162278  -0.134773  0.722000
0.163653  -0.134773  0.722000
0.163886  -0.133840  0.717000
0.165251  -0.133840  0.717000
0.166617  -0.133840  0.717000
0.168451  -0.134213  0.719000
0.170766  -0.134960  0.723000
0.171429  -0.134400  0.720000
0.171360  -0.133280  0.714000
0.172720  -0.133280  0.714000
0.174080  -0.133280  0.714000
0.176669  -0.134213  0.719000
0.178286  -0.134400  0.720000
0.177910  -0.133093  0.713000
0.179269  -0.133093  0.713000
0.180880  -0.133280  0.714000
0.182240  -0.133280  0.714000
0.184886  -0.134213  0.719000
0.200434  -0.132720  0.711000
0.201789  -0.132720  0.711000
0.203714  -0.133093  0.713000
0.204210  -0.132533  0.710000
0.205562  -0.132533  0.710000
0.207206  -0.132720  0.711000
0.211787  -0.134773  0.722000
0.214048  -0.135333  0.725000
0.214537  -0.134773  0.722000
0.215912  -0.134773  0.722000
0.217288  -0.134773  0.722000
0.218663  -0.134773  0.722000
0.220343  -0.134960  0.723000
0.221720  -0.134960  0.723000
0.234114  -0.134960  0.723000
0.235491  -0.134960  0.723000
0.237524  -0.135333  0.725000
0.238246  -0.134960  0.723000
0.239623  -0.134960  0.723000
0.241000  -0.134960  0.723000
-0.394011  -0.127474  0.676000
-0.392724  -0.127474  0.676000
-0.392594  -0.127851  0.678000
-0.391303  -0.127851  0.678000
-0.390011  -0.127851  0.678000
-0.388720  -0.127851  0.678000
-0.387429  -0.127851  0.678000
-0.386707  -0.128040  0.679000
-0.385981  -0.128229  0.680000
-0.385817  -0.128606  0.682000
-0.384518  -0.128606  0.682000
-0.382095  -0.128229  0.680000
-0.380800  -0.128229  0.680000
-0.381179  -0.128794  0.683000
-0.379878  -0.128794  0.683000
-0.379131  -0.128983  0.684000
-0.377829  -0.128983  0.684000
-0.377627  -0.129360  0.686000
-0.377966  -0.129926  0.689000
-0.376653  -0.129926  0.689000
-0.372617  -0.128983  0.684000
-0.371314  -0.128983  0.684000
-0.370011  -0.128983  0.684000
-0.368709  -0.128983  0.684000
-0.368480  -0.129360  0.686000
-0.365032  -0.128606  0.682000
-0.363733  -0.128606  0.682000
-0.363497  -0.128983  0.684000
-0.362194  -0.128983  0.684000
-0.361947  -0.129360  0.686000
-0.360640  -0.129360  0.686000
-0.356968  -0.129926  0.689000
-0.355655  -0.129926  0.689000
-0.354343  -0.129926  0.689000
-0.353543  -0.130114  0.690000
-0.352229  -0.130114  0.690000
-0.350914  -0.130114  0.690000
-0.349600  -0.130114  0.690000
-0.348790  -0.130303  0.691000
-0.347474  -0.130303  0.691000
-0.346158  -0.130303  0.691000
-0.344842  -0.130303  0.691000
-0.343526  -0.130303  0.691000
-0.338743  -0.128983  0.684000
-0.337440  -0.128983  0.684000
-0.336137  -0.128983  0.684000
-0.334834  -0.128983  0.684000
-0.333531  -0.128983  0.684000
-0.332229  -0.128983  0.684000
-0.330926  -0.128983  0.684000
-0.329623  -0.128983  0.684000
-0.324000  -0.127286  0.675000
-0.322714  -0.127286  0.675000
-0.321429  -0.127286  0.675000
-0.320143  -0.127286  0.675000
-0.318857  -0.127286  0.675000
-0.317571  -0.127286  0.675000
-0.322000  -0.130114  0.690000
-0.320686  -0.130114  0.690000
-0.319371  -0.130114  0.690000
-0.318518  -0.130303  0.691000
-0.316743  -0.130114  0.690000
-0.315429  -0.130114  0.690000
-0.314114  -0.130114  0.690000
-0.313253  -0.130303  0.691000
-0.311937  -0.130303  0.691000
-0.311520  -0.130680  0.693000
-0.310200  -0.130680  0.693000
-0.307989  -0.130303  0.691000
-0.306672  -0.130303  0.691000
-0.304914  -0.130114  0.690000
-0.303600  -0.130114  0.690000
-0.304038  -0.130869  0.694000
-0.302716  -0.130869  0.694000
-0.296183  -0.128606  0.682000
-0.294884  -0.128606  0.682000
-0.293585  -0.128606  0.682000
-0.292714  -0.128794  0.683000
-0.291413  -0.128794  0.683000
-0.287989  -0.127851  0.678000
-0.286697  -0.127851  0.678000
-0.285406  -0.127851  0.678000
-0.284533  -0.128040  0.679000
-0.283240  -0.128040  0.679000
-0.281947  -0.128040  0.679000
-0.280240  -0.127851  0.678000
-0.278949  -0.127851  0.678000
-0.278067  -0.128040  0.679000
-0.277181  -0.128229  0.680000
-0.278726  -0.129549  0.687000
-0.277417  -0.129549  0.687000
-0.276912  -0.129926  0.689000
-0.276000  -0.130114  0.690000
-0.274686  -0.130114  0.690000
-0.273768  -0.130303  0.691000
-0.272451  -0.130303  0.691000
-0.271135  -0.130303  0.691000
-0.269819  -0.130303  0.691000
-0.268503  -0.130303  0.691000
-0.267187  -0.130303  0.691000
-0.265870  -0.130303  0.691000
-0.264554  -0.130303  0.691000
-0.263238  -0.130303  0.691000
-0.262680  -0.130680  0.693000
-0.260606  -0.130303  0.691000
-0.259290  -0.130303  0.691000
-0.257973  -0.130303  0.691000
-0.255914  -0.129926  0.689000
-0.254602  -0.129926  0.689000
-0.253290  -0.129926  0.689000
-0.251977  -0.129926  0.689000
-0.245684  -0.132189  0.701000
-0.244349  -0.132189  0.701000
-0.243013  -0.132189  0.701000
-0.241678  -0.132189  0.701000
-0.240343  -0.132189  0.701000
-0.128914  -0.132943  0.705000
-0.127571  -0.132943  0.705000
-0.126587  -0.133320  0.707000
-0.125240  -0.133320  0.707000
-0.123893  -0.133320  0.707000
-0.122720  -0.133509  0.708000
-0.121371  -0.133509  0.708000
-0.055600  -0.131057  0.695000
-0.054276  -0.131057  0.695000
-0.053105  -0.131434  0.697000
-0.051777  -0.131434  0.697000
-0.050305  -0.131057  0.695000
-0.048981  -0.131057  0.695000
-0.047657  -0.131057  0.695000
-0.046333  -0.131057  0.695000
-0.044945  -0.130869  0.694000
-0.043560  -0.130680  0.693000
-0.042240  -0.130680  0.693000
-0.041156  -0.131434  0.697000
-0.039829  -0.131434  0.697000
-0.038556  -0.131623  0.698000
-0.037227  -0.131623  0.698000
-0.036000  -0.132000  0.700000
-0.034815  -0.132566  0.703000
-0.033524  -0.132754  0.704000
-0.032046  -0.132189  0.701000
-0.030710  -0.132189  0.701000
-0.029375  -0.132189  0.701000
-0.028120  -0.132566  0.703000
-0.026781  -0.132566  0.703000
-0.025442  -0.132566  0.703000
-0.024034  -0.132189  0.701000
-0.022667  -0.132000  0.700000
-0.021333  -0.132000  0.700000
-0.020029  -0.132189  0.701000
-0.018693  -0.132189  0.701000
-0.017358  -0.132189  0.701000
-0.016023  -0.132189  0.701000
-0.014604  -0.131434  0.697000
-0.013276  -0.131434  0.697000
-0.011966  -0.131623  0.698000
-0.010621  -0.131434  0.697000
-0.009293  -0.131434  0.697000
-0.007943  -0.131057  0.695000
-0.006619  -0.131057  0.695000
-0.005295  -0.131057  0.695000
0.115825  -0.130303  0.691000
0.117141  -0.130303  0.691000
0.118800  -0.130680  0.693000
0.122027  -0.132754  0.704000
0.123368  -0.132754  0.704000
0.124709  -0.132754  0.704000
0.125512  -0.132189  0.701000
0.126848  -0.132189  0.701000
0.128549  -0.132566  0.703000
0.129888  -0.132566  0.703000
0.131413  -0.132754  0.704000
0.132754  -0.132754  0.704000
0.134095  -0.132754  0.704000
0.135436  -0.132754  0.704000
0.136583  -0.132566  0.703000
0.137922  -0.132566  0.703000
0.140053  -0.133320  0.707000
0.141600  -0.133509  0.708000
0.143554  -0.134074  0.711000
0.145928  -0.135017  0.716000
0.147497  -0.135206  0.717000
0.151276  -0.136149  0.722000
0.152651  -0.136149  0.722000
0.154240  -0.136337  0.723000
0.155402  -0.136149  0.722000
0.156777  -0.136149  0.722000
0.158152  -0.136149  0.722000
0.160903  -0.136149  0.722000
0.162278  -0.136149  0.722000
0.163653  -0.136149  0.722000
0.163886  -0.135206  0.717000
0.165251  -0.135206  0.717000
0.166617  -0.135206  0.717000
0.168451  -0.135583  0.719000
0.170766  -0.136337  0.723000
0.171905  -0.136149  0.722000
0.171360  -0.134640  0.714000
0.172720  -0.134640  0.714000
0.174080  -0.134640  0.714000
0.176669  -0.135583  0.719000
0.178038  -0.135583  0.719000
0.175665  -0.132754  0.704000
0.177006  -0.132754  0.704000
0.199589  -0.133509  0.708000
0.200937  -0.133509  0.708000
0.202286  -0.133509  0.708000
0.202771  -0.132943  0.705000
0.204114  -0.132943  0.705000
0.204874  -0.132566  0.703000
0.204747  -0.131623  0.698000
0.206076  -0.131623  0.698000
0.207406  -0.131623  0.698000
0.215912  -0.136149  0.722000
0.217288  -0.136149  0.722000
0.218663  -0.136149  0.722000
0.220343  -0.136337  0.723000
0.234114  -0.136337  0.723000
0.235491  -0.136337  0.723000
0.238246  -0.136337  0.723000
0.239623  -0.136337  0.723000
-0.391400  -0.126667  0.665000
-0.390133  -0.126667  0.665000
-0.395299  -0.128762  0.676000
-0.394011  -0.128762  0.676000
-0.392724  -0.128762  0.676000
-0.392594  -0.129143  0.678000
-0.391303  -0.129143  0.678000
-0.390011  -0.129143  0.678000
-0.388720  -0.129143  0.678000
-0.387429  -0.129143  0.678000
-0.386707  -0.129333  0.679000
-0.385981  -0.129524  0.680000
-0.385817  -0.129905  0.682000
-0.384518  -0.129905  0.682000
-0.383219  -0.129905  0.682000
-0.381920  -0.129905  0.682000
-0.380621  -0.129905  0.682000
-0.379322  -0.129905  0.682000
-0.378023  -0.129905  0.682000
-0.377276  -0.130095  0.683000
-0.376526  -0.130286  0.684000
-0.376869  -0.130857  0.687000
-0.376653  -0.131238  0.689000
-0.371528  -0.129905  0.682000
-0.370229  -0.129905  0.682000
-0.368930  -0.129905  0.682000
-0.368170  -0.130095  0.683000
-0.365257  -0.129524  0.680000
-0.363962  -0.129524  0.680000
-0.362667  -0.129524  0.680000
-0.362434  -0.129905  0.682000
-0.361665  -0.130095  0.683000
-0.360364  -0.130095  0.683000
-0.360640  -0.130667  0.686000
-0.356968  -0.131238  0.689000
-0.355655  -0.131238  0.689000
-0.354343  -0.131238  0.689000
-0.353030  -0.131238  0.689000
-0.351718  -0.131238  0.689000
-0.350406  -0.131238  0.689000
-0.349600  -0.131429  0.690000
-0.348286  -0.131429  0.690000
-0.346971  -0.131429  0.690000
-0.346158  -0.131619  0.691000
-0.344842  -0.131619  0.691000
-0.338057  -0.129524  0.680000
-0.336762  -0.129524  0.680000
-0.336947  -0.130095  0.683000
-0.334171  -0.129524  0.680000
-0.332876  -0.129524  0.680000
-0.333044  -0.130095  0.683000
-0.332229  -0.130286  0.684000
-0.330926  -0.130286  0.684000
-0.325768  -0.128762  0.676000
-0.324000  -0.128571  0.675000
-0.322714  -0.128571  0.675000
-0.321429  -0.128571  0.675000
-0.320143  -0.128571  0.675000
-0.318857  -0.128571  0.675000
-0.317571  -0.128571  0.675000
-0.315817  -0.128381  0.674000
-0.322000  -0.131429  0.690000
-0.320686  -0.131429  0.690000
-0.319371  -0.131429  0.690000
-0.318057  -0.131429  0.690000
-0.316743  -0.131429  0.690000
-0.315429  -0.131429  0.690000
-0.314114  -0.131429  0.690000
-0.313253  -0.131619  0.691000
-0.312840  -0.132000  0.693000
-0.310621  -0.131619  0.691000
-0.309305  -0.131619  0.691000
-0.307543  -0.131429  0.690000
-0.306229  -0.131429  0.690000
-0.304472  -0.131238  0.689000
-0.302280  -0.130857  0.687000
-0.300971  -0.130857  0.687000
-0.297482  -0.129905  0.682000
-0.296183  -0.129905  0.682000
-0.294884  -0.129905  0.682000
-0.293585  -0.129905  0.682000
-0.292714  -0.130095  0.683000
-0.291413  -0.130095  0.683000
-0.288838  -0.129524  0.680000
-0.286697  -0.129143  0.678000
-0.285406  -0.129143  0.678000
-0.284533  -0.129333  0.679000
-0.283240  -0.129333  0.679000
-0.281947  -0.129333  0.679000
-0.280653  -0.129333  0.679000
-0.279360  -0.129333  0.679000
-0.278067  -0.129333  0.679000
-0.277181  -0.129524  0.680000
-0.278726  -0.130857  0.687000
-0.277417  -0.130857  0.687000
-0.276912  -0.131238  0.689000
-0.276000  -0.131429  0.690000
-0.274686  -0.131429  0.690000
-0.273371  -0.131429  0.690000
-0.272057  -0.131429  0.690000
-0.270743  -0.131429  0.690000
-0.269819  -0.131619  0.691000
-0.268503  -0.131619  0.691000
-0.267187  -0.131619  0.691000
-0.265870  -0.131619  0.691000
-0.264171  -0.131429  0.690000
-0.262857  -0.131429  0.690000
-0.261543  -0.131429  0.690000
-0.259851  -0.131238  0.689000
-0.258539  -0.131238  0.689000
-0.257227  -0.131238  0.689000
-0.254800  -0.130667  0.686000
-0.253493  -0.130667  0.686000
-0.252187  -0.130667  0.686000
-0.250880  -0.130667  0.686000
-0.249937  -0.130857  0.687000
-0.245046  -0.133905  0.703000
-0.243707  -0.133905  0.703000
-0.124069  -0.134857  0.708000
-0.122720  -0.134857  0.708000
-0.055600  -0.132381  0.695000
-0.054276  -0.132381  0.695000
-0.053181  -0.132952  0.698000
-0.051777  -0.132762  0.697000
-0.050450  -0.132762  0.697000
-0.049122  -0.132762  0.697000
-0.047383  -0.131619  0.691000
-0.046067  -0.131619  0.691000
-0.044750  -0.131619  0.691000
-0.043434  -0.131619  0.691000
-0.042118  -0.131619  0.691000
-0.040802  -0.131619  0.691000
-0.039657  -0.132190  0.694000
-0.038390  -0.132381  0.695000
-0.037173  -0.132762  0.697000
-0.035897  -0.132952  0.698000
-0.034716  -0.133524  0.701000
-0.033476  -0.133905  0.703000
-0.032000  -0.133333  0.700000
-0.030667  -0.133333  0.700000
-0.029375  -0.133524  0.701000
-0.028120  -0.133905  0.703000
-0.026705  -0.133524  0.701000
-0.025370  -0.133524  0.701000
-0.024000  -0.133333  0.700000
-0.022667  -0.133333  0.700000
-0.021333  -0.133333  0.700000
-0.020000  -0.133333  0.700000
-0.018613  -0.132952  0.698000
-0.017284  -0.132952  0.698000
-0.016000  -0.133333  0.700000
-0.014562  -0.132381  0.695000
-0.013238  -0.132381  0.695000
-0.011914  -0.132381  0.695000
-0.010590  -0.132381  0.695000
-0.009267  -0.132381  0.695000
-0.007943  -0.132381  0.695000
-0.006610  -0.132190  0.694000
-0.005288  -0.132190  0.694000
0.110400  -0.131429  0.690000
0.111714  -0.131429  0.690000
0.114509  -0.131619  0.691000
0.115657  -0.131429  0.690000
0.116971  -0.131429  0.690000
0.118457  -0.131619  0.691000
0.120120  -0.132000  0.693000
0.121615  -0.132190  0.694000
0.124709  -0.134095  0.704000
0.125512  -0.133524  0.701000
0.126848  -0.133524  0.701000
0.128183  -0.133524  0.701000
0.129888  -0.133905  0.703000
0.131413  -0.134095  0.704000
0.132754  -0.134095  0.704000
0.133905  -0.133905  0.703000
0.135244  -0.133905  0.703000
0.136583  -0.133905  0.703000
0.137922  -0.133905  0.703000
0.139261  -0.133905  0.703000
0.141600  -0.134857  0.708000
0.143554  -0.135429  0.711000
0.151276  -0.137524  0.722000
0.152651  -0.137524  0.722000
0.157533  -0.132381  0.695000
0.158857  -0.132381  0.695000
0.159259  -0.131619  0.691000
0.160575  -0.131619  0.691000
0.162829  -0.132381  0.695000
0.174324  -0.134095  0.704000
0.175665  -0.134095  0.704000
0.177006  -0.134095  0.704000
0.199307  -0.134667  0.707000
0.199802  -0.134095  0.704000
0.201143  -0.134095  0.704000
0.202484  -0.134095  0.704000
0.203825  -0.134095  0.704000
0.204291  -0.133524  0.701000
0.204747  -0.132952  0.698000
0.205781  -0.132762  0.697000
0.207109  -0.132762  0.697000
0.209333  -0.133333  0.700000
0.210667  -0.133333  0.700000
0.212000  -0.133333  0.700000
0.213638  -0.133524  0.701000
0.214973  -0.133524  0.701000
-0.398851  -0.128703  0.669000
-0.396389  -0.128318  0.667000
-0.394526  -0.128126  0.666000
-0.392667  -0.127933  0.665000
-0.391400  -0.127933  0.665000
-0.390133  -0.127933  0.665000
-0.388867  -0.127933  0.665000
-0.393429  -0.129857  0.675000
-0.392724  -0.130050  0.676000
-0.392594  -0.130434  0.678000
-0.391880  -0.130627  0.679000
-0.390587  -0.130627  0.679000
-0.389293  -0.130627  0.679000
-0.388000  -0.130627  0.679000
-0.386707  -0.130627  0.679000
-0.385981  -0.130819  0.680000
-0.385817  -0.131204  0.682000
-0.384518  -0.131204  0.682000
-0.382095  -0.130819  0.680000
-0.380800  -0.130819  0.680000
-0.379505  -0.130819  0.680000
-0.378210  -0.130819  0.680000
-0.378023  -0.131204  0.682000
-0.377276  -0.131396  0.683000
-0.376526  -0.131589  0.684000
-0.376869  -0.132166  0.687000
-0.376653  -0.132550  0.689000
-0.371528  -0.131204  0.682000
-0.370229  -0.131204  0.682000
-0.367848  -0.130819  0.680000
-0.366013  -0.130627  0.679000
-0.364183  -0.130434  0.678000
-0.362891  -0.130434  0.678000
-0.362133  -0.130627  0.679000
-0.361371  -0.130819  0.680000
-0.360076  -0.130819  0.680000
-0.360364  -0.131396  0.683000
-0.351010  -0.130819  0.680000
-0.349714  -0.130819  0.680000
-0.352006  -0.132166  0.687000
-0.350697  -0.132166  0.687000
-0.349389  -0.132166  0.687000
-0.349093  -0.132550  0.689000
-0.347781  -0.132550  0.689000
-0.346469  -0.132550  0.689000
-0.338644  -0.130050  0.676000
-0.337356  -0.130050  0.676000
-0.336069  -0.130050  0.676000
-0.336267  -0.130627  0.679000
-0.334973  -0.130627  0.679000
-0.333189  -0.130434  0.678000
-0.331897  -0.130434  0.678000
-0.330606  -0.130434  0.678000
-0.332229  -0.131589  0.684000
-0.331893  -0.131973  0.686000
-0.325286  -0.129857  0.675000
-0.323520  -0.129665  0.674000
-0.322236  -0.129665  0.674000
-0.320952  -0.129665  0.674000
-0.319669  -0.129665  0.674000
-0.318385  -0.129665  0.674000
-0.317101  -0.129665  0.674000
-0.315817  -0.129665  0.674000
-0.314533  -0.129665  0.674000
-0.313250  -0.129665  0.674000
-0.319371  -0.132743  0.690000
-0.318057  -0.132743  0.690000
-0.309857  -0.129857  0.675000
-0.317257  -0.133512  0.694000
-0.315935  -0.133512  0.694000
-0.313253  -0.132935  0.691000
-0.311937  -0.132935  0.691000
-0.310621  -0.132935  0.691000
-0.309305  -0.132935  0.691000
-0.307543  -0.132743  0.690000
-0.306229  -0.132743  0.690000
-0.304472  -0.132550  0.689000
-0.302280  -0.132166  0.687000
-0.300971  -0.132166  0.687000
-0.297482  -0.131204  0.682000
-0.295314  -0.130819  0.680000
-0.294019  -0.130819  0.680000
-0.292724  -0.130819  0.680000
-0.292286  -0.131204  0.682000
-0.291413  -0.131396  0.683000
-0.288413  -0.130627  0.679000
-0.287120  -0.130627  0.679000
-0.285827  -0.130627  0.679000
-0.284533  -0.130627  0.679000
-0.283657  -0.130819  0.680000
-0.281947  -0.130627  0.679000
-0.280653  -0.130627  0.679000
-0.279360  -0.130627  0.679000
-0.282981  -0.132935  0.691000
-0.281257  -0.132743  0.690000
-0.278726  -0.132166  0.687000
-0.277417  -0.132166  0.687000
-0.276912  -0.132550  0.689000
-0.276000  -0.132743  0.690000
-0.274686  -0.132743  0.690000
-0.272975  -0.132550  0.689000
-0.271663  -0.132550  0.689000
-0.270350  -0.132550  0.689000
-0.269429  -0.132743  0.690000
-0.268114  -0.132743  0.690000
-0.266800  -0.132743  0.690000
-0.265486  -0.132743  0.690000
-0.264171  -0.132743  0.690000
-0.262857  -0.132743  0.690000
-0.261543  -0.132743  0.690000
-0.259851  -0.132550  0.689000
-0.255162  -0.130819  0.680000
-0.253867  -0.130819  0.680000
-0.252571  -0.130819  0.680000
-0.252015  -0.131204  0.682000
-0.251451  -0.131589  0.684000
-0.250880  -0.131973  0.686000
-0.249573  -0.131973  0.686000
-0.054510  -0.134282  0.698000
-0.053105  -0.134090  0.697000
-0.051629  -0.133705  0.695000
-0.050305  -0.133705  0.695000
-0.048699  -0.132935  0.691000
-0.047383  -0.132935  0.691000
-0.046067  -0.132935  0.691000
-0.044686  -0.132743  0.690000
-0.043371  -0.132743  0.690000
-0.042057  -0.132743  0.690000
-0.040802  -0.132935  0.691000
-0.039486  -0.132935  0.691000
-0.038335  -0.133512  0.694000
-0.037067  -0.133705  0.695000
-0.035846  -0.134090  0.697000
-0.034667  -0.134667  0.700000
-0.033476  -0.135244  0.703000
-0.032000  -0.134667  0.700000
-0.030667  -0.134667  0.700000
-0.029333  -0.134667  0.700000
-0.028120  -0.135244  0.703000
-0.026705  -0.134859  0.701000
-0.025333  -0.134667  0.700000
-0.023931  -0.134282  0.698000
-0.022602  -0.134282  0.698000
-0.021242  -0.134090  0.697000
-0.019857  -0.133705  0.695000
-0.018533  -0.133705  0.695000
-0.017210  -0.133705  0.695000
-0.015931  -0.134090  0.697000
-0.014541  -0.133512  0.694000
-0.013219  -0.133512  0.694000
-0.011897  -0.133512  0.694000
-0.010575  -0.133512  0.694000
-0.009253  -0.133512  0.694000
-0.007943  -0.133705  0.695000
-0.006610  -0.133512  0.694000
-0.005288  -0.133512  0.694000
0.110400  -0.132743  0.690000
0.111714  -0.132743  0.690000
0.113520  -0.133320  0.693000
0.114509  -0.132935  0.691000
0.115657  -0.132743  0.690000
0.116971  -0.132743  0.690000
0.118457  -0.132935  0.691000
0.120120  -0.133320  0.693000
0.121615  -0.133512  0.694000
0.124177  -0.134859  0.701000
0.125333  -0.134667  0.700000
0.126667  -0.134667  0.700000
0.128000  -0.134667  0.700000
0.129888  -0.135244  0.703000
0.131413  -0.135436  0.704000
0.132566  -0.135244  0.703000
0.133524  -0.134859  0.701000
0.134859  -0.134859  0.701000
0.136194  -0.134859  0.701000
0.137530  -0.134859  0.701000
0.138865  -0.134859  0.701000
0.154886  -0.133705  0.695000
0.156210  -0.133705  0.695000
0.157533  -0.133705  0.695000
0.158857  -0.133705  0.695000
0.159259  -0.132935  0.691000
0.160575  -0.132935  0.691000
0.162829  -0.133705  0.695000
0.164152  -0.133705  0.695000
0.174324  -0.135436  0.704000
0.175665  -0.135436  0.704000
0.177006  -0.135436  0.704000
0.198179  -0.135244  0.703000
0.199518  -0.135244  0.703000
0.200857  -0.135244  0.703000
0.202484  -0.135436  0.704000
0.203825  -0.135436  0.704000
0.204291  -0.134859  0.701000
0.204747  -0.134282  0.698000
0.205781  -0.134090  0.697000
0.207109  -0.134090  0.697000
0.208436  -0.134090  0.697000
0.210667  -0.134667  0.700000
0.212000  -0.134667  0.700000
0.213333  -0.134667  0.700000
0.214973  -0.134859  0.701000
0.216309  -0.134859  0.701000
-0.396467  -0.129200  0.665000
-0.395200  -0.129200  0.665000
-0.393933  -0.129200  0.665000
-0.392667  -0.129200  0.665000
-0.391400  -0.129200  0.665000
-0.390133  -0.129200  0.665000
-0.388867  -0.129200  0.665000
-0.389931  -0.129977  0.669000
-0.392143  -0.131143  0.675000
-0.390857  -0.131143  0.675000
-0.391880  -0.131920  0.679000
-0.390587  -0.131920  0.679000
-0.389293  -0.131920  0.679000
-0.388000  -0.131920  0.679000
-0.386707  -0.131920  0.679000
-0.385413  -0.131920  0.679000
-0.384686  -0.132114  0.680000
-0.384518  -0.132503  0.682000
-0.382095  -0.132114  0.680000
-0.380800  -0.132114  0.680000
-0.379505  -0.132114  0.680000
-0.378210  -0.132114  0.680000
-0.376914  -0.132114  0.680000
-0.376724  -0.132503  0.682000
-0.376526  -0.132891  0.684000
-0.377966  -0.133863  0.689000
-0.377200  -0.134057  0.690000
-0.366766  -0.131726  0.678000
-0.365474  -0.131726  0.678000
-0.364183  -0.131726  0.678000
-0.362891  -0.131726  0.678000
-0.362133  -0.131920  0.679000
-0.361371  -0.132114  0.680000
-0.360076  -0.132114  0.680000
-0.351010  -0.132114  0.680000
-0.349714  -0.132114  0.680000
-0.352006  -0.133474  0.687000
-0.350697  -0.133474  0.687000
-0.349389  -0.133474  0.687000
-0.349093  -0.133863  0.689000
-0.347781  -0.133863  0.689000
-0.346469  -0.133863  0.689000
-0.338143  -0.131143  0.675000
-0.336857  -0.131143  0.675000
-0.335571  -0.131143  0.675000
-0.334781  -0.131337  0.676000
-0.333000  -0.131143  0.675000
-0.331714  -0.131143  0.675000
-0.330429  -0.131143  0.675000
-0.329143  -0.131143  0.675000
-0.324943  -0.129977  0.669000
-0.323669  -0.129977  0.669000
-0.322876  -0.130171  0.670000
-0.321600  -0.130171  0.670000
-0.321280  -0.130560  0.672000
-0.320000  -0.130560  0.672000
-0.318720  -0.130560  0.672000
-0.317440  -0.130560  0.672000
-0.316160  -0.130560  0.672000
-0.315817  -0.130949  0.674000
-0.314533  -0.130949  0.674000
-0.312320  -0.130560  0.672000
-0.311040  -0.130560  0.672000
-0.311143  -0.131143  0.675000
-0.309857  -0.131143  0.675000
-0.308571  -0.131143  0.675000
-0.304554  -0.129977  0.669000
-0.303280  -0.129977  0.669000
-0.302457  -0.130171  0.670000
-0.310621  -0.134251  0.691000
-0.309305  -0.134251  0.691000
-0.308880  -0.134640  0.693000
-0.307560  -0.134640  0.693000
-0.304472  -0.133863  0.689000
-0.303160  -0.133863  0.689000
-0.301848  -0.133863  0.689000
-0.297482  -0.132503  0.682000
-0.295314  -0.132114  0.680000
-0.293587  -0.131920  0.679000
-0.291002  -0.131337  0.676000
-0.289714  -0.131337  0.676000
-0.288000  -0.131143  0.675000
-0.286714  -0.131143  0.675000
-0.285429  -0.131143  0.675000
-0.284143  -0.131143  0.675000
-0.284533  -0.131920  0.679000
-0.285326  -0.132891  0.684000
-0.284023  -0.132891  0.684000
-0.285613  -0.134251  0.691000
-0.284297  -0.134251  0.691000
-0.282981  -0.134251  0.691000
-0.281665  -0.134251  0.691000
-0.278726  -0.133474  0.687000
-0.277417  -0.133474  0.687000
-0.276912  -0.133863  0.689000
-0.276000  -0.134057  0.690000
-0.274686  -0.134057  0.690000
-0.272975  -0.133863  0.689000
-0.271663  -0.133863  0.689000
-0.270350  -0.133863  0.689000
-0.269038  -0.133863  0.689000
-0.268114  -0.134057  0.690000
-0.266800  -0.134057  0.690000
-0.265486  -0.134057  0.690000
-0.264171  -0.134057  0.690000
-0.257143  -0.131143  0.675000
-0.255857  -0.131143  0.675000
-0.254571  -0.131143  0.675000
-0.253661  -0.131337  0.676000
-0.252373  -0.131337  0.676000
-0.252200  -0.131920  0.679000
-0.251276  -0.132114  0.680000
-0.251451  -0.132891  0.684000
-0.250149  -0.132891  0.684000
-0.249573  -0.133280  0.686000
-0.054432  -0.135417  0.697000
-0.053105  -0.135417  0.697000
-0.051629  -0.135029  0.695000
-0.050232  -0.134834  0.694000
-0.048699  -0.134251  0.691000
-0.047314  -0.134057  0.690000
-0.046000  -0.134057  0.690000
-0.044686  -0.134057  0.690000
-0.043371  -0.134057  0.690000
-0.042057  -0.134057  0.690000
-0.040802  -0.134251  0.691000
-0.039486  -0.134251  0.691000
-0.038335  -0.134834  0.694000
-0.037067  -0.135029  0.695000
-0.035846  -0.135417  0.697000
-0.034667  -0.136000  0.700000
-0.033476  -0.136583  0.703000
-0.032137  -0.136583  0.703000
-0.030667  -0.136000  0.700000
-0.029333  -0.136000  0.700000
-0.025333  -0.136000  0.700000
-0.023897  -0.135417  0.697000
-0.022570  -0.135417  0.697000
-0.021242  -0.135417  0.697000
-0.019829  -0.134834  0.694000
-0.018480  -0.134640  0.693000
-0.017160  -0.134640  0.693000
-0.015886  -0.135029  0.695000
-0.014541  -0.134834  0.694000
-0.013219  -0.134834  0.694000
-0.011829  -0.134057  0.690000
-0.010514  -0.134057  0.690000
-0.009213  -0.134251  0.691000
-0.007943  -0.135029  0.695000
0.110560  -0.134251  0.691000
0.111876  -0.134251  0.691000
0.113520  -0.134640  0.693000
0.114343  -0.134057  0.690000
0.115490  -0.133863  0.689000
0.116802  -0.133863  0.689000
0.118286  -0.134057  0.690000
0.119600  -0.134057  0.690000
0.121090  -0.134251  0.691000
0.122406  -0.134251  0.691000
0.124259  -0.134834  0.694000
0.125581  -0.134834  0.694000
0.127634  -0.135611  0.698000
0.129888  -0.136583  0.703000
0.131413  -0.136777  0.704000
0.132566  -0.136583  0.703000
0.133524  -0.136194  0.701000
0.134282  -0.135611  0.698000
0.135611  -0.135611  0.698000
0.137530  -0.136194  0.701000
0.138865  -0.136194  0.701000
0.155760  -0.134640  0.693000
0.157080  -0.134640  0.693000
0.158629  -0.134834  0.694000
0.159259  -0.134251  0.691000
0.160575  -0.134251  0.691000
0.162594  -0.134834  0.694000
0.164152  -0.135029  0.695000
0.164935  -0.128423  0.661000
0.166194  -0.128423  0.661000
0.167453  -0.128423  0.661000
0.198179  -0.136583  0.703000
0.199518  -0.136583  0.703000
0.200857  -0.136583  0.703000
0.202484  -0.136777  0.704000
0.203825  -0.136777  0.704000
0.202543  -0.135029  0.695000
0.203867  -0.135029  0.695000
0.205190  -0.135029  0.695000
0.206514  -0.135029  0.695000
0.207838  -0.135029  0.695000
0.209162  -0.135029  0.695000
0.212000  -0.136000  0.700000
0.213333  -0.136000  0.700000
0.214667  -0.136000  0.700000
0.216000  -0.136000  0.700000
-0.396467  -0.130467  0.665000
-0.395200  -0.130467  0.665000
-0.393933  -0.130467  0.665000
-0.391486  -0.130074  0.663000
-0.390223  -0.130074  0.663000
-0.390133  -0.130467  0.665000
-0.389451  -0.130663  0.666000
-0.389931  -0.131251  0.669000
-0.392143  -0.132429  0.675000
-0.390857  -0.132429  0.675000
-0.390587  -0.133213  0.679000
-0.389293  -0.133213  0.679000
-0.386707  -0.133213  0.679000
-0.385413  -0.133213  0.679000
-0.384686  -0.133410  0.680000
-0.379505  -0.133410  0.680000
-0.378210  -0.133410  0.680000
-0.376914  -0.133410  0.680000
-0.376724  -0.133802  0.682000
-0.365143  -0.132429  0.675000
-0.363857  -0.132429  0.675000
-0.363427  -0.133213  0.679000
-0.362133  -0.133213  0.679000
-0.338684  -0.129682  0.661000
-0.337425  -0.129682  0.661000
-0.336166  -0.129682  0.661000
-0.334907  -0.129682  0.661000
-0.334657  -0.130074  0.663000
-0.346971  -0.135371  0.690000
-0.336640  -0.131840  0.672000
-0.335360  -0.131840  0.672000
-0.334080  -0.131840  0.672000
-0.333790  -0.132232  0.674000
-0.332507  -0.132232  0.674000
-0.331223  -0.132232  0.674000
-0.329939  -0.132232  0.674000
-0.325242  -0.130859  0.667000
-0.323971  -0.130859  0.667000
-0.323669  -0.131251  0.669000
-0.322876  -0.131448  0.670000
-0.321600  -0.131448  0.670000
-0.321280  -0.131840  0.672000
-0.320000  -0.131840  0.672000
-0.318720  -0.131840  0.672000
-0.316968  -0.131644  0.671000
-0.315690  -0.131644  0.671000
-0.315817  -0.132232  0.674000
-0.313600  -0.131840  0.672000
-0.312320  -0.131840  0.672000
-0.311040  -0.131840  0.672000
-0.311143  -0.132429  0.675000
-0.309857  -0.132429  0.675000
-0.308114  -0.132232  0.674000
-0.304554  -0.131251  0.669000
-0.303280  -0.131251  0.669000
-0.302457  -0.131448  0.670000
-0.301181  -0.131448  0.670000
-0.299905  -0.131448  0.670000
-0.298629  -0.131448  0.670000
-0.297352  -0.131448  0.670000
-0.304472  -0.135175  0.689000
-0.303160  -0.135175  0.689000
-0.301848  -0.135175  0.689000
-0.297482  -0.133802  0.682000
-0.295314  -0.133410  0.680000
-0.291857  -0.132429  0.675000
-0.290571  -0.132429  0.675000
-0.289286  -0.132429  0.675000
-0.287573  -0.132232  0.674000
-0.286290  -0.132232  0.674000
-0.285429  -0.132429  0.675000
-0.284143  -0.132429  0.675000
-0.282857  -0.132429  0.675000
-0.281571  -0.132429  0.675000
-0.275303  -0.130074  0.663000
-0.274040  -0.130074  0.663000
-0.269029  -0.129486  0.660000
-0.268583  -0.129878  0.662000
-0.278629  -0.135371  0.690000
-0.277314  -0.135371  0.690000
-0.276000  -0.135371  0.690000
-0.274686  -0.135371  0.690000
-0.272975  -0.135175  0.689000
-0.271663  -0.135175  0.689000
-0.270350  -0.135175  0.689000
-0.269038  -0.135175  0.689000
-0.268114  -0.135371  0.690000
-0.266800  -0.135371  0.690000
-0.265486  -0.135371  0.690000
-0.254983  -0.130663  0.666000
-0.257143  -0.132429  0.675000
-0.255857  -0.132429  0.675000
-0.254571  -0.132429  0.675000
-0.253286  -0.132429  0.675000
-0.252000  -0.132429  0.675000
-0.252200  -0.133213  0.679000
-0.250907  -0.133213  0.679000
-0.251451  -0.134194  0.684000
-0.250149  -0.134194  0.684000
-0.054276  -0.136352  0.695000
-0.052952  -0.136352  0.695000
-0.051554  -0.136156  0.694000
-0.050232  -0.136156  0.694000
-0.048699  -0.135568  0.691000
-0.047246  -0.135175  0.689000
-0.045933  -0.135175  0.689000
-0.044621  -0.135175  0.689000
-0.043309  -0.135175  0.689000
-0.041996  -0.135175  0.689000
-0.040743  -0.135371  0.690000
-0.039429  -0.135371  0.690000
-0.038170  -0.135568  0.691000
-0.037067  -0.136352  0.695000
-0.035846  -0.136745  0.697000
-0.023897  -0.136745  0.697000
-0.022570  -0.136745  0.697000
-0.021242  -0.136745  0.697000
-0.019800  -0.135960  0.693000
-0.018427  -0.135568  0.691000
-0.017110  -0.135568  0.691000
-0.015863  -0.136156  0.694000
-0.014520  -0.135960  0.693000
-0.013200  -0.135960  0.693000
-0.011811  -0.135175  0.689000
-0.010499  -0.135175  0.689000
-0.009213  -0.135568  0.691000
0.110880  -0.135960  0.693000
0.111876  -0.135568  0.691000
0.113192  -0.135568  0.691000
0.114177  -0.135175  0.689000
0.115154  -0.134783  0.687000
0.116463  -0.134783  0.687000
0.118114  -0.135175  0.689000
0.119427  -0.135175  0.689000
0.120914  -0.135371  0.690000
0.122229  -0.135371  0.690000
0.123722  -0.135568  0.691000
0.125038  -0.135568  0.691000
0.126720  -0.135960  0.693000
0.128410  -0.136352  0.695000
0.131413  -0.138118  0.704000
0.132566  -0.137922  0.703000
0.133524  -0.137530  0.701000
0.133705  -0.136352  0.695000
0.135029  -0.136352  0.695000
0.153994  -0.135568  0.691000
0.155310  -0.135568  0.691000
0.156627  -0.135568  0.691000
0.157714  -0.135371  0.690000
0.159029  -0.135371  0.690000
0.161272  -0.136156  0.694000
0.161891  -0.135568  0.691000
0.163208  -0.135568  0.691000
0.164935  -0.129682  0.661000
0.166194  -0.129682  0.661000
0.167453  -0.129682  0.661000
0.198461  -0.138118  0.704000
0.198667  -0.137333  0.700000
0.200000  -0.137333  0.700000
0.199895  -0.136352  0.695000
0.201219  -0.136352  0.695000
0.202543  -0.136352  0.695000
0.203867  -0.136352  0.695000
0.205190  -0.136352  0.695000
0.206514  -0.136352  0.695000
0.207838  -0.136352  0.695000
0.209162  -0.136352  0.695000
0.214667  -0.137333  0.700000
0.216000  -0.137333  0.700000
-0.395274  -0.131337  0.663000
-0.394011  -0.131337  0.663000
-0.392156  -0.131139  0.662000
-0.390895  -0.131139  0.662000
-0.389634  -0.131139  0.662000
-0.390133  -0.131733  0.665000
-0.389451  -0.131931  0.666000
-0.389931  -0.132526  0.669000
-0.365143  -0.133714  0.675000
-0.363857  -0.133714  0.675000
-0.338171  -0.130743  0.660000
-0.337425  -0.130941  0.661000
-0.336166  -0.130941  0.661000
-0.334907  -0.130941  0.661000
-0.334657  -0.131337  0.663000
-0.334400  -0.131733  0.665000
-0.333634  -0.131931  0.666000
-0.333863  -0.132526  0.669000
-0.332589  -0.132526  0.669000
-0.333790  -0.133516  0.674000
-0.331027  -0.132922  0.671000
-0.329749  -0.132922  0.671000
-0.328960  -0.133120  0.672000
-0.325242  -0.132130  0.667000
-0.323971  -0.132130  0.667000
-0.323669  -0.132526  0.669000
-0.322394  -0.132526  0.669000
-0.321120  -0.132526  0.669000
-0.321280  -0.133120  0.672000
-0.320000  -0.133120  0.672000
-0.318720  -0.133120  0.672000
-0.316968  -0.132922  0.671000
-0.315690  -0.132922  0.671000
-0.314880  -0.133120  0.672000
-0.313133  -0.132922  0.671000
-0.311855  -0.132922  0.671000
-0.310577  -0.132922  0.671000
-0.310682  -0.133516  0.674000
-0.309398  -0.133516  0.674000
-0.307200  -0.133120  0.672000
-0.305010  -0.132724  0.670000
-0.303733  -0.132724  0.670000
-0.302457  -0.132724  0.670000
-0.301181  -0.132724  0.670000
-0.299457  -0.132526  0.669000
-0.298183  -0.132526  0.669000
-0.296909  -0.132526  0.669000
-0.295634  -0.132526  0.669000
-0.294360  -0.132526  0.669000
-0.292210  -0.132130  0.667000
-0.290503  -0.131931  0.666000
-0.289234  -0.131931  0.666000
-0.287966  -0.131931  0.666000
-0.286697  -0.131931  0.666000
-0.285429  -0.131931  0.666000
-0.284160  -0.131931  0.666000
-0.284166  -0.132526  0.669000
-0.282891  -0.132526  0.669000
-0.284143  -0.133714  0.675000
-0.282857  -0.133714  0.675000
-0.276149  -0.131139  0.662000
-0.275303  -0.131337  0.663000
-0.274040  -0.131337  0.663000
-0.271543  -0.130743  0.660000
-0.270286  -0.130743  0.660000
-0.269029  -0.130743  0.660000
-0.268583  -0.131139  0.662000
-0.267322  -0.131139  0.662000
-0.277314  -0.136686  0.690000
-0.276000  -0.136686  0.690000
-0.274686  -0.136686  0.690000
-0.273371  -0.136686  0.690000
-0.272057  -0.136686  0.690000
-0.261718  -0.132130  0.667000
-0.260448  -0.132130  0.667000
-0.258789  -0.131931  0.666000
-0.257520  -0.131931  0.666000
-0.256251  -0.131931  0.666000
-0.254983  -0.131931  0.666000
-0.254857  -0.132526  0.669000
-0.254341  -0.132922  0.671000
-0.253440  -0.133120  0.672000
-0.252160  -0.133120  0.672000
-0.251627  -0.133516  0.674000
-0.252200  -0.134507  0.679000
-0.250907  -0.134507  0.679000
-0.244834  -0.131931  0.666000
-0.243566  -0.131931  0.666000
-0.151192  -0.129950  0.656000
-0.149943  -0.129950  0.656000
-0.148693  -0.129950  0.656000
-0.054276  -0.137676  0.695000
-0.052952  -0.137676  0.695000
-0.051554  -0.137478  0.694000
-0.050232  -0.137478  0.694000
-0.048699  -0.136884  0.691000
-0.047040  -0.135893  0.686000
-0.045733  -0.135893  0.686000
-0.044427  -0.135893  0.686000
-0.043120  -0.135893  0.686000
-0.041996  -0.136488  0.689000
-0.040389  -0.135497  0.684000
-0.039086  -0.135497  0.684000
-0.038170  -0.136884  0.691000
-0.023897  -0.138072  0.697000
-0.022570  -0.138072  0.697000
-0.021242  -0.138072  0.697000
-0.019800  -0.137280  0.693000
-0.018373  -0.136488  0.689000
-0.017061  -0.136488  0.689000
-0.015794  -0.136884  0.691000
-0.014478  -0.136884  0.691000
-0.013200  -0.137280  0.693000
-0.011709  -0.135299  0.683000
-0.010408  -0.135299  0.683000
0.067550  -0.135101  0.682000
0.068850  -0.135101  0.682000
0.070149  -0.135101  0.682000
0.071552  -0.135299  0.683000
0.087429  -0.133714  0.675000
0.088714  -0.133714  0.675000
0.090000  -0.133714  0.675000
0.091286  -0.133714  0.675000
0.092709  -0.133912  0.676000
0.105272  -0.133516  0.674000
0.106556  -0.133516  0.674000
0.107840  -0.133516  0.674000
0.109124  -0.133516  0.674000
