# .PCD v.5 - Point Cloud Data file format
FIELDS x y z 
SIZE 4 4 4
TYPE F F F
COUNT 1 1 1
WIDTH 1596
HEIGHT 1
POINTS 1596
DATA ascii
-0.091364  0.113417  0.827000
-0.089789  0.113417  0.827000
-0.088427  0.113691  0.829000
-0.086848  0.113691  0.829000
-0.085474  0.113966  0.831000
-0.083891  0.113966  0.831000
-0.082507  0.114240  0.833000
-0.081114  0.114514  0.835000
-0.079524  0.114514  0.835000
-0.077933  0.114514  0.835000
-0.076343  0.114514  0.835000
-0.074931  0.114789  0.837000
-0.073337  0.114789  0.837000
-0.071743  0.114789  0.837000
-0.070149  0.114789  0.837000
-0.068718  0.115063  0.839000
-0.067120  0.115063  0.839000
-0.065678  0.115337  0.841000
-0.064229  0.115611  0.843000
-0.062623  0.115611  0.843000
-0.061162  0.115886  0.845000
-0.059552  0.115886  0.845000
-0.057943  0.115886  0.845000
-0.056333  0.115886  0.845000
-0.054724  0.115886  0.845000
-0.140029  0.114276  0.845000
-0.138091  0.114006  0.843000
-0.136162  0.113735  0.841000
-0.134560  0.113735  0.841000
-0.132958  0.113735  0.841000
-0.131356  0.113735  0.841000
-0.129446  0.113465  0.839000
-0.127848  0.113465  0.839000
-0.126250  0.113465  0.839000
-0.124354  0.113194  0.837000
-0.122760  0.113194  0.837000
-0.120876  0.112924  0.835000
-0.119286  0.112924  0.835000
-0.117695  0.112924  0.835000
-0.115549  0.112383  0.831000
-0.113966  0.112383  0.831000
-0.112383  0.112383  0.831000
-0.110533  0.112112  0.829000
-0.108691  0.111842  0.827000
-0.106857  0.111571  0.825000
-0.105286  0.111571  0.825000
-0.103714  0.111571  0.825000
-0.102390  0.111842  0.827000
-0.100571  0.111571  0.825000
-0.099000  0.111571  0.825000
-0.097429  0.111571  0.825000
-0.095857  0.111571  0.825000
-0.094286  0.111571  0.825000
-0.092939  0.111842  0.827000
-0.091364  0.111842  0.827000
-0.089789  0.111842  0.827000
-0.088427  0.112112  0.829000
-0.086848  0.112112  0.829000
-0.085474  0.112383  0.831000
-0.084093  0.112653  0.833000
-0.082507  0.112653  0.833000
-0.081114  0.112924  0.835000
-0.079524  0.112924  0.835000
-0.078120  0.113194  0.837000
-0.076526  0.113194  0.837000
-0.074931  0.113194  0.837000
-0.073337  0.113194  0.837000
-0.071743  0.113194  0.837000
-0.070316  0.113465  0.839000
-0.068718  0.113465  0.839000
-0.067120  0.113465  0.839000
-0.065678  0.113735  0.841000
-0.064076  0.113735  0.841000
-0.062623  0.114006  0.843000
-0.061017  0.114006  0.843000
-0.059552  0.114276  0.845000
-0.057806  0.114006  0.843000
-0.056200  0.114006  0.843000
-0.054724  0.114276  0.845000
-0.140029  0.112667  0.845000
-0.138091  0.112400  0.843000
-0.136486  0.112400  0.843000
-0.134560  0.112133  0.841000
-0.132958  0.112133  0.841000
-0.131356  0.112133  0.841000
-0.129754  0.112133  0.841000
-0.127848  0.111867  0.839000
-0.126250  0.111867  0.839000
-0.124354  0.111600  0.837000
-0.122760  0.111600  0.837000
-0.121166  0.111600  0.837000
-0.119286  0.111333  0.835000
-0.117695  0.111333  0.835000
-0.115549  0.110800  0.831000
-0.113966  0.110800  0.831000
-0.112383  0.110800  0.831000
-0.110533  0.110533  0.829000
-0.108691  0.110267  0.827000
-0.106857  0.110000  0.825000
-0.105286  0.110000  0.825000
-0.103714  0.110000  0.825000
-0.102390  0.110267  0.827000
-0.100571  0.110000  0.825000
-0.099000  0.110000  0.825000
-0.097665  0.110267  0.827000
-0.096090  0.110267  0.827000
-0.094514  0.110267  0.827000
-0.092939  0.110267  0.827000
-0.091364  0.110267  0.827000
-0.090006  0.110533  0.829000
-0.088427  0.110533  0.829000
-0.087057  0.110800  0.831000
-0.085474  0.110800  0.831000
-0.084093  0.111067  0.833000
-0.082507  0.111067  0.833000
-0.081114  0.111333  0.835000
-0.079524  0.111333  0.835000
-0.078120  0.111600  0.837000
-0.076526  0.111600  0.837000
-0.074931  0.111600  0.837000
-0.073337  0.111600  0.837000
-0.071743  0.111600  0.837000
-0.070316  0.111867  0.839000
-0.068718  0.111867  0.839000
-0.067120  0.111867  0.839000
-0.065678  0.112133  0.841000
-0.064076  0.112133  0.841000
-0.062623  0.112400  0.843000
-0.061017  0.112400  0.843000
-0.059552  0.112667  0.845000
-0.057806  0.112400  0.843000
-0.056200  0.112400  0.843000
-0.140029  0.111057  0.845000
-0.138091  0.110794  0.843000
-0.136486  0.110794  0.843000
-0.134880  0.110794  0.843000
-0.133274  0.110794  0.843000
-0.131356  0.110531  0.841000
-0.129754  0.110531  0.841000
-0.128152  0.110531  0.841000
-0.126250  0.110269  0.839000
-0.124651  0.110269  0.839000
-0.122760  0.110006  0.837000
-0.121166  0.110006  0.837000
-0.119571  0.110006  0.837000
-0.117695  0.109743  0.835000
-0.115827  0.109480  0.833000
-0.113966  0.109217  0.831000
-0.112383  0.109217  0.831000
-0.110533  0.108954  0.829000
-0.108691  0.108691  0.827000
-0.106857  0.108429  0.825000
-0.105286  0.108429  0.825000
-0.103714  0.108429  0.825000
-0.102390  0.108691  0.827000
-0.100571  0.108429  0.825000
-0.099000  0.108429  0.825000
-0.097665  0.108691  0.827000
-0.096090  0.108691  0.827000
-0.094514  0.108691  0.827000
-0.092939  0.108691  0.827000
-0.091585  0.108954  0.829000
-0.090006  0.108954  0.829000
-0.088427  0.108954  0.829000
-0.087057  0.109217  0.831000
-0.085474  0.109217  0.831000
-0.084093  0.109480  0.833000
-0.082705  0.109743  0.835000
-0.081114  0.109743  0.835000
-0.079524  0.109743  0.835000
-0.078120  0.110006  0.837000
-0.076526  0.110006  0.837000
-0.074931  0.110006  0.837000
-0.073337  0.110006  0.837000
-0.071914  0.110269  0.839000
-0.070316  0.110269  0.839000
-0.068718  0.110269  0.839000
-0.067280  0.110531  0.841000
-0.065678  0.110531  0.841000
-0.064076  0.110531  0.841000
-0.062623  0.110794  0.843000
-0.061017  0.110794  0.843000
-0.059552  0.111057  0.845000
-0.057943  0.111057  0.845000
-0.056333  0.111057  0.845000
-0.140029  0.109448  0.845000
-0.138419  0.109448  0.845000
-0.136810  0.109448  0.845000
-0.134880  0.109189  0.843000
-0.133274  0.109189  0.843000
-0.131669  0.109189  0.843000
-0.129754  0.108930  0.841000
-0.128152  0.108930  0.841000
-0.126250  0.108670  0.839000
-0.124651  0.108670  0.839000
-0.122760  0.108411  0.837000
-0.121166  0.108411  0.837000
-0.119571  0.108411  0.837000
-0.117695  0.108152  0.835000
-0.115827  0.107893  0.833000
-0.113966  0.107634  0.831000
-0.112383  0.107634  0.831000
-0.110533  0.107375  0.829000
-0.108691  0.107116  0.827000
-0.107116  0.107116  0.827000
-0.105541  0.107116  0.827000
-0.103966  0.107116  0.827000
-0.102390  0.107116  0.827000
-0.100815  0.107116  0.827000
-0.099240  0.107116  0.827000
-0.097665  0.107116  0.827000
-0.096090  0.107116  0.827000
-0.094514  0.107116  0.827000
-0.093164  0.107375  0.829000
-0.091585  0.107375  0.829000
-0.090006  0.107375  0.829000
-0.088640  0.107634  0.831000
-0.087057  0.107634  0.831000
-0.085680  0.107893  0.833000
-0.084295  0.108152  0.835000
-0.082705  0.108152  0.835000
-0.081114  0.108152  0.835000
-0.079714  0.108411  0.837000
-0.078120  0.108411  0.837000
-0.076526  0.108411  0.837000
-0.074931  0.108411  0.837000
-0.073337  0.108411  0.837000
-0.071914  0.108670  0.839000
-0.070316  0.108670  0.839000
-0.068718  0.108670  0.839000
-0.067120  0.108670  0.839000
-0.065678  0.108930  0.841000
-0.064076  0.108930  0.841000
-0.062623  0.109189  0.843000
-0.061017  0.109189  0.843000
-0.059552  0.109448  0.845000
-0.057806  0.109189  0.843000
-0.056200  0.109189  0.843000
-0.140029  0.107838  0.845000
-0.138419  0.107838  0.845000
-0.136810  0.107838  0.845000
-0.135200  0.107838  0.845000
-0.133590  0.107838  0.845000
-0.131669  0.107583  0.843000
-0.129754  0.107328  0.841000
-0.128152  0.107328  0.841000
-0.126250  0.107072  0.839000
-0.124651  0.107072  0.839000
-0.122760  0.106817  0.837000
-0.121166  0.106817  0.837000
-0.119571  0.106817  0.837000
-0.117695  0.106562  0.835000
-0.115827  0.106307  0.833000
-0.113966  0.106051  0.831000
-0.112383  0.106051  0.831000
-0.110533  0.105796  0.829000
-0.108691  0.105541  0.827000
-0.107116  0.105541  0.827000
-0.105541  0.105541  0.827000
-0.103966  0.105541  0.827000
-0.102390  0.105541  0.827000
-0.100815  0.105541  0.827000
-0.099240  0.105541  0.827000
-0.097665  0.105541  0.827000
-0.096090  0.105541  0.827000
-0.094743  0.105796  0.829000
-0.093164  0.105796  0.829000
-0.091585  0.105796  0.829000
-0.090006  0.105796  0.829000
-0.088640  0.106051  0.831000
-0.087267  0.106307  0.833000
-0.085886  0.106562  0.835000
-0.084295  0.106562  0.835000
-0.082903  0.106817  0.837000
-0.081309  0.106817  0.837000
-0.079714  0.106817  0.837000
-0.078120  0.106817  0.837000
-0.076526  0.106817  0.837000
-0.074931  0.106817  0.837000
-0.073337  0.106817  0.837000
-0.071914  0.107072  0.839000
-0.070316  0.107072  0.839000
-0.068718  0.107072  0.839000
-0.067120  0.107072  0.839000
-0.065522  0.107072  0.839000
-0.064076  0.107328  0.841000
-0.062623  0.107583  0.843000
-0.061017  0.107583  0.843000
-0.059552  0.107838  0.845000
-0.057806  0.107583  0.843000
-0.056200  0.107583  0.843000
-0.141638  0.106229  0.845000
-0.140029  0.106229  0.845000
-0.138419  0.106229  0.845000
-0.136810  0.106229  0.845000
-0.135200  0.106229  0.845000
-0.133590  0.106229  0.845000
-0.131669  0.105977  0.843000
-0.129754  0.105726  0.841000
-0.127848  0.105474  0.839000
-0.126250  0.105474  0.839000
-0.124651  0.105474  0.839000
-0.122760  0.105223  0.837000
-0.121166  0.105223  0.837000
-0.119571  0.105223  0.837000
-0.117977  0.105223  0.837000
-0.116105  0.104971  0.835000
-0.114240  0.104720  0.833000
-0.112653  0.104720  0.833000
-0.110533  0.104217  0.829000
-0.108954  0.104217  0.829000
-0.107116  0.103966  0.827000
-0.105541  0.103966  0.827000
-0.103966  0.103966  0.827000
-0.102390  0.103966  0.827000
-0.100815  0.103966  0.827000
-0.099240  0.103966  0.827000
-0.097665  0.103966  0.827000
-0.096322  0.104217  0.829000
-0.094743  0.104217  0.829000
-0.093164  0.104217  0.829000
-0.091585  0.104217  0.829000
-0.090223  0.104469  0.831000
-0.088640  0.104469  0.831000
-0.087267  0.104720  0.833000
-0.085886  0.104971  0.835000
-0.084295  0.104971  0.835000
-0.082705  0.104971  0.835000
-0.081309  0.105223  0.837000
-0.079714  0.105223  0.837000
-0.078120  0.105223  0.837000
-0.076526  0.105223  0.837000
-0.074931  0.105223  0.837000
-0.073337  0.105223  0.837000
-0.071914  0.105474  0.839000
-0.070316  0.105474  0.839000
-0.068718  0.105474  0.839000
-0.067120  0.105474  0.839000
-0.065522  0.105474  0.839000
-0.064076  0.105726  0.841000
-0.062623  0.105977  0.843000
-0.061017  0.105977  0.843000
-0.059552  0.106229  0.845000
-0.057806  0.105977  0.843000
-0.056200  0.105977  0.843000
-0.141638  0.104619  0.845000
-0.140029  0.104619  0.845000
-0.138419  0.104619  0.845000
-0.136810  0.104619  0.845000
-0.135200  0.104619  0.845000
-0.133274  0.104371  0.843000
-0.131669  0.104371  0.843000
-0.129754  0.104124  0.841000
-0.127848  0.103876  0.839000
-0.126250  0.103876  0.839000
-0.124651  0.103876  0.839000
-0.122760  0.103629  0.837000
-0.121166  0.103629  0.837000
-0.119571  0.103629  0.837000
-0.117695  0.103381  0.835000
-0.116105  0.103381  0.835000
-0.114514  0.103381  0.835000
-0.112653  0.103133  0.833000
-0.110800  0.102886  0.831000
-0.108954  0.102638  0.829000
-0.107375  0.102638  0.829000
-0.105541  0.102390  0.827000
-0.103966  0.102390  0.827000
-0.102390  0.102390  0.827000
-0.100815  0.102390  0.827000
-0.099240  0.102390  0.827000
-0.097901  0.102638  0.829000
-0.096322  0.102638  0.829000
-0.094743  0.102638  0.829000
-0.093164  0.102638  0.829000
-0.091806  0.102886  0.831000
-0.090223  0.102886  0.831000
-0.088640  0.102886  0.831000
-0.087267  0.103133  0.833000
-0.085886  0.103381  0.835000
-0.084295  0.103381  0.835000
-0.082705  0.103381  0.835000
-0.081309  0.103629  0.837000
-0.079714  0.103629  0.837000
-0.078120  0.103629  0.837000
-0.076526  0.103629  0.837000
-0.074931  0.103629  0.837000
-0.073337  0.103629  0.837000
-0.071743  0.103629  0.837000
-0.070316  0.103876  0.839000
-0.068718  0.103876  0.839000
-0.067120  0.103876  0.839000
-0.065522  0.103876  0.839000
-0.064076  0.104124  0.841000
-0.062623  0.104371  0.843000
-0.061162  0.104619  0.845000
-0.059552  0.104619  0.845000
-0.057943  0.104619  0.845000
-0.141638  0.103010  0.845000
-0.140029  0.103010  0.845000
-0.138419  0.103010  0.845000
-0.136810  0.103010  0.845000
-0.135200  0.103010  0.845000
-0.133274  0.102766  0.843000
-0.131669  0.102766  0.843000
-0.129754  0.102522  0.841000
-0.128152  0.102522  0.841000
-0.126250  0.102278  0.839000
-0.124651  0.102278  0.839000
-0.122760  0.102034  0.837000
-0.121166  0.102034  0.837000
-0.119571  0.102034  0.837000
-0.117695  0.101790  0.835000
-0.116105  0.101790  0.835000
-0.114240  0.101547  0.833000
-0.112383  0.101303  0.831000
-0.110800  0.101303  0.831000
-0.108954  0.101059  0.829000
-0.107375  0.101059  0.829000
-0.105796  0.101059  0.829000
-0.104217  0.101059  0.829000
-0.102390  0.100815  0.827000
-0.100815  0.100815  0.827000
-0.099240  0.100815  0.827000
-0.097901  0.101059  0.829000
-0.096322  0.101059  0.829000
-0.094743  0.101059  0.829000
-0.093164  0.101059  0.829000
-0.091806  0.101303  0.831000
-0.090223  0.101303  0.831000
-0.088853  0.101547  0.833000
-0.087267  0.101547  0.833000
-0.085886  0.101790  0.835000
-0.084295  0.101790  0.835000
-0.082705  0.101790  0.835000
-0.081309  0.102034  0.837000
-0.079714  0.102034  0.837000
-0.078120  0.102034  0.837000
-0.076526  0.102034  0.837000
-0.074931  0.102034  0.837000
-0.073337  0.102034  0.837000
-0.071743  0.102034  0.837000
-0.070316  0.102278  0.839000
-0.068718  0.102278  0.839000
-0.067120  0.102278  0.839000
-0.065678  0.102522  0.841000
-0.064229  0.102766  0.843000
-0.062771  0.103010  0.845000
-0.061162  0.103010  0.845000
-0.059552  0.103010  0.845000
-0.057943  0.103010  0.845000
-0.142141  0.101760  0.848000
-0.140029  0.101400  0.845000
-0.138419  0.101400  0.845000
-0.136810  0.101400  0.845000
-0.135200  0.101400  0.845000
-0.133590  0.101400  0.845000
-0.131669  0.101160  0.843000
-0.129754  0.100920  0.841000
-0.127848  0.100680  0.839000
-0.126250  0.100680  0.839000
-0.124651  0.100680  0.839000
-0.122760  0.100440  0.837000
-0.121166  0.100440  0.837000
-0.119571  0.100440  0.837000
-0.117695  0.100200  0.835000
-0.116105  0.100200  0.835000
-0.114240  0.099960  0.833000
-0.112383  0.099720  0.831000
-0.110800  0.099720  0.831000
-0.108954  0.099480  0.829000
-0.107375  0.099480  0.829000
-0.105796  0.099480  0.829000
-0.104217  0.099480  0.829000
-0.102390  0.099240  0.827000
-0.100815  0.099240  0.827000
-0.099480  0.099480  0.829000
-0.097901  0.099480  0.829000
-0.096322  0.099480  0.829000
-0.094971  0.099720  0.831000
-0.093389  0.099720  0.831000
-0.091806  0.099720  0.831000
-0.090223  0.099720  0.831000
-0.088853  0.099960  0.833000
-0.087267  0.099960  0.833000
-0.085886  0.100200  0.835000
-0.084295  0.100200  0.835000
-0.082903  0.100440  0.837000
-0.081309  0.100440  0.837000
-0.079714  0.100440  0.837000
-0.078120  0.100440  0.837000
-0.076526  0.100440  0.837000
-0.074931  0.100440  0.837000
-0.073337  0.100440  0.837000
-0.071914  0.100680  0.839000
-0.070316  0.100680  0.839000
-0.068718  0.100680  0.839000
-0.067280  0.100920  0.841000
-0.065678  0.100920  0.841000
-0.064229  0.101160  0.843000
-0.062771  0.101400  0.845000
-0.061162  0.101400  0.845000
-0.059552  0.101400  0.845000
-0.058149  0.101760  0.848000
-0.142141  0.100145  0.848000
-0.140029  0.099790  0.845000
-0.138419  0.099790  0.845000
-0.136810  0.099790  0.845000
-0.135200  0.099790  0.845000
-0.133590  0.099790  0.845000
-0.131669  0.099554  0.843000
-0.129754  0.099318  0.841000
-0.127848  0.099082  0.839000
-0.126250  0.099082  0.839000
-0.124651  0.099082  0.839000
-0.122760  0.098846  0.837000
-0.121166  0.098846  0.837000
-0.119571  0.098846  0.837000
-0.117977  0.098846  0.837000
-0.116105  0.098610  0.835000
-0.114240  0.098373  0.833000
-0.112383  0.098137  0.831000
-0.110800  0.098137  0.831000
-0.108954  0.097901  0.829000
-0.107375  0.097901  0.829000
-0.105796  0.097901  0.829000
-0.104217  0.097901  0.829000
-0.102638  0.097901  0.829000
-0.101059  0.097901  0.829000
-0.099480  0.097901  0.829000
-0.097901  0.097901  0.829000
-0.096322  0.097901  0.829000
-0.094971  0.098137  0.831000
-0.093389  0.098137  0.831000
-0.091806  0.098137  0.831000
-0.090223  0.098137  0.831000
-0.088853  0.098373  0.833000
-0.087267  0.098373  0.833000
-0.085886  0.098610  0.835000
-0.084295  0.098610  0.835000
-0.082705  0.098610  0.835000
-0.081309  0.098846  0.837000
-0.079714  0.098846  0.837000
-0.078120  0.098846  0.837000
-0.076526  0.098846  0.837000
-0.074931  0.098846  0.837000
-0.073337  0.098846  0.837000
-0.071914  0.099082  0.839000
-0.070316  0.099082  0.839000
-0.068718  0.099082  0.839000
-0.067280  0.099318  0.841000
-0.065834  0.099554  0.843000
-0.064229  0.099554  0.843000
-0.062771  0.099790  0.845000
-0.061162  0.099790  0.845000
-0.059552  0.099790  0.845000
-0.058149  0.100145  0.848000
-0.142141  0.098530  0.848000
-0.140029  0.098181  0.845000
-0.138419  0.098181  0.845000
-0.136810  0.098181  0.845000
-0.135200  0.098181  0.845000
-0.133590  0.098181  0.845000
-0.131669  0.097949  0.843000
-0.129754  0.097716  0.841000
-0.128152  0.097716  0.841000
-0.126250  0.097484  0.839000
-0.124651  0.097484  0.839000
-0.122760  0.097251  0.837000
-0.121166  0.097251  0.837000
-0.119571  0.097251  0.837000
-0.117977  0.097251  0.837000
-0.116383  0.097251  0.837000
-0.114514  0.097019  0.835000
-0.112653  0.096787  0.833000
-0.110800  0.096554  0.831000
-0.109217  0.096554  0.831000
-0.107375  0.096322  0.829000
-0.105796  0.096322  0.829000
-0.104217  0.096322  0.829000
-0.102638  0.096322  0.829000
-0.101059  0.096322  0.829000
-0.099480  0.096322  0.829000
-0.097901  0.096322  0.829000
-0.096554  0.096554  0.831000
-0.094971  0.096554  0.831000
-0.093389  0.096554  0.831000
-0.091806  0.096554  0.831000
-0.090223  0.096554  0.831000
-0.088853  0.096787  0.833000
-0.087267  0.096787  0.833000
-0.085886  0.097019  0.835000
-0.084295  0.097019  0.835000
-0.082705  0.097019  0.835000
-0.081309  0.097251  0.837000
-0.079714  0.097251  0.837000
-0.078120  0.097251  0.837000
-0.076526  0.097251  0.837000
-0.074931  0.097251  0.837000
-0.073512  0.097484  0.839000
-0.071914  0.097484  0.839000
-0.070316  0.097484  0.839000
-0.068718  0.097484  0.839000
-0.067280  0.097716  0.841000
-0.065834  0.097949  0.843000
-0.064229  0.097949  0.843000
-0.062771  0.098181  0.845000
-0.061162  0.098181  0.845000
-0.059552  0.098181  0.845000
-0.142476  0.097143  0.850000
-0.140526  0.096914  0.848000
-0.138419  0.096571  0.845000
-0.136810  0.096571  0.845000
-0.135200  0.096571  0.845000
-0.133274  0.096343  0.843000
-0.131669  0.096343  0.843000
-0.130063  0.096343  0.843000
-0.128152  0.096114  0.841000
-0.126550  0.096114  0.841000
-0.124651  0.095886  0.839000
-0.123053  0.095886  0.839000
-0.121455  0.095886  0.839000
-0.119571  0.095657  0.837000
-0.117977  0.095657  0.837000
-0.116383  0.095657  0.837000
-0.114514  0.095429  0.835000
-0.112653  0.095200  0.833000
-0.110800  0.094971  0.831000
-0.109217  0.094971  0.831000
-0.107375  0.094743  0.829000
-0.105796  0.094743  0.829000
-0.104217  0.094743  0.829000
-0.102638  0.094743  0.829000
-0.101059  0.094743  0.829000
-0.099480  0.094743  0.829000
-0.097901  0.094743  0.829000
-0.096554  0.094971  0.831000
-0.094971  0.094971  0.831000
-0.093389  0.094971  0.831000
-0.091806  0.094971  0.831000
-0.090440  0.095200  0.833000
-0.088853  0.095200  0.833000
-0.087267  0.095200  0.833000
-0.085886  0.095429  0.835000
-0.084295  0.095429  0.835000
-0.082705  0.095429  0.835000
-0.081309  0.095657  0.837000
-0.079714  0.095657  0.837000
-0.078120  0.095657  0.837000
-0.076526  0.095657  0.837000
-0.075110  0.095886  0.839000
-0.073512  0.095886  0.839000
-0.071914  0.095886  0.839000
-0.070484  0.096114  0.841000
-0.068882  0.096114  0.841000
-0.067440  0.096343  0.843000
-0.065834  0.096343  0.843000
-0.064381  0.096571  0.845000
-0.062771  0.096571  0.845000
-0.061379  0.096914  0.848000
-0.059764  0.096914  0.848000
-0.142811  0.095749  0.852000
-0.140526  0.095299  0.848000
-0.138419  0.094962  0.845000
-0.136810  0.094962  0.845000
-0.135200  0.094962  0.845000
-0.133274  0.094737  0.843000
-0.131669  0.094737  0.843000
-0.130063  0.094737  0.843000
-0.128457  0.094737  0.843000
-0.126851  0.094737  0.843000
-0.124651  0.094288  0.839000
-0.123053  0.094288  0.839000
-0.121455  0.094288  0.839000
-0.119857  0.094288  0.839000
-0.118259  0.094288  0.839000
-0.116383  0.094063  0.837000
-0.114240  0.093613  0.833000
-0.112383  0.093389  0.831000
-0.110800  0.093389  0.831000
-0.109217  0.093389  0.831000
-0.107375  0.093164  0.829000
-0.105796  0.093164  0.829000
-0.104217  0.093164  0.829000
-0.102638  0.093164  0.829000
-0.101059  0.093164  0.829000
-0.099480  0.093164  0.829000
-0.098137  0.093389  0.831000
-0.096554  0.093389  0.831000
-0.094971  0.093389  0.831000
-0.093389  0.093389  0.831000
-0.092027  0.093613  0.833000
-0.090440  0.093613  0.833000
-0.088853  0.093613  0.833000
-0.087476  0.093838  0.835000
-0.085886  0.093838  0.835000
-0.084295  0.093838  0.835000
-0.082705  0.093838  0.835000
-0.081309  0.094063  0.837000
-0.079714  0.094063  0.837000
-0.078307  0.094288  0.839000
-0.076709  0.094288  0.839000
-0.075110  0.094288  0.839000
-0.073512  0.094288  0.839000
-0.072086  0.094512  0.841000
-0.070484  0.094512  0.841000
-0.068882  0.094512  0.841000
-0.067440  0.094737  0.843000
-0.065834  0.094737  0.843000
-0.064381  0.094962  0.845000
-0.062994  0.095299  0.848000
-0.061379  0.095299  0.848000
-0.059764  0.095299  0.848000
-0.058286  0.095524  0.850000
-0.140526  0.093684  0.848000
-0.138419  0.093352  0.845000
-0.136810  0.093352  0.845000
-0.135200  0.093352  0.845000
-0.133590  0.093352  0.845000
-0.131669  0.093131  0.843000
-0.130063  0.093131  0.843000
-0.128457  0.093131  0.843000
-0.126851  0.093131  0.843000
-0.124651  0.092690  0.839000
-0.123053  0.092690  0.839000
-0.121455  0.092690  0.839000
-0.119857  0.092690  0.839000
-0.118259  0.092690  0.839000
-0.116383  0.092469  0.837000
-0.114240  0.092027  0.833000
-0.112383  0.091806  0.831000
-0.110800  0.091806  0.831000
-0.109217  0.091806  0.831000
-0.107634  0.091806  0.831000
-0.105796  0.091585  0.829000
-0.104217  0.091585  0.829000
-0.102638  0.091585  0.829000
-0.101059  0.091585  0.829000
-0.099720  0.091806  0.831000
-0.098137  0.091806  0.831000
-0.096554  0.091806  0.831000
-0.094971  0.091806  0.831000
-0.093389  0.091806  0.831000
-0.092027  0.092027  0.833000
-0.090440  0.092027  0.833000
-0.088853  0.092027  0.833000
-0.087476  0.092248  0.835000
-0.085886  0.092248  0.835000
-0.084497  0.092469  0.837000
-0.082903  0.092469  0.837000
-0.081309  0.092469  0.837000
-0.079714  0.092469  0.837000
-0.078307  0.092690  0.839000
-0.076709  0.092690  0.839000
-0.075110  0.092690  0.839000
-0.073688  0.092910  0.841000
-0.072086  0.092910  0.841000
-0.070651  0.093131  0.843000
-0.069046  0.093131  0.843000
-0.067440  0.093131  0.843000
-0.065834  0.093131  0.843000
-0.064381  0.093352  0.845000
-0.062994  0.093684  0.848000
-0.061379  0.093684  0.848000
-0.059764  0.093684  0.848000
-0.058286  0.093905  0.850000
-0.140526  0.092069  0.848000
-0.138910  0.092069  0.848000
-0.137295  0.092069  0.848000
-0.135680  0.092069  0.848000
-0.133590  0.091743  0.845000
-0.131669  0.091526  0.843000
-0.130063  0.091526  0.843000
-0.128457  0.091526  0.843000
-0.126851  0.091526  0.843000
-0.124651  0.091091  0.839000
-0.123053  0.091091  0.839000
-0.121455  0.091091  0.839000
-0.119857  0.091091  0.839000
-0.118259  0.091091  0.839000
-0.116383  0.090874  0.837000
-0.114789  0.090874  0.837000
-0.112653  0.090440  0.833000
-0.110800  0.090223  0.831000
-0.109217  0.090223  0.831000
-0.107634  0.090223  0.831000
-0.106051  0.090223  0.831000
-0.104469  0.090223  0.831000
-0.102886  0.090223  0.831000
-0.101303  0.090223  0.831000
-0.099720  0.090223  0.831000
-0.098137  0.090223  0.831000
-0.096554  0.090223  0.831000
-0.094971  0.090223  0.831000
-0.093613  0.090440  0.833000
-0.092027  0.090440  0.833000
-0.090440  0.090440  0.833000
-0.088853  0.090440  0.833000
-0.087476  0.090657  0.835000
-0.085886  0.090657  0.835000
-0.084497  0.090874  0.837000
-0.082903  0.090874  0.837000
-0.081309  0.090874  0.837000
-0.079905  0.091091  0.839000
-0.078307  0.091091  0.839000
-0.076891  0.091309  0.841000
-0.075290  0.091309  0.841000
-0.073688  0.091309  0.841000
-0.072257  0.091526  0.843000
-0.070651  0.091526  0.843000
-0.069046  0.091526  0.843000
-0.067600  0.091743  0.845000
-0.065990  0.091743  0.845000
-0.064381  0.091743  0.845000
-0.062994  0.092069  0.848000
-0.061379  0.092069  0.848000
-0.059764  0.092069  0.848000
-0.058286  0.092286  0.850000
-0.140526  0.090453  0.848000
-0.138910  0.090453  0.848000
-0.137295  0.090453  0.848000
-0.135680  0.090453  0.848000
-0.133590  0.090133  0.845000
-0.131981  0.090133  0.845000
-0.130371  0.090133  0.845000
-0.128762  0.090133  0.845000
-0.126851  0.089920  0.843000
-0.125246  0.089920  0.843000
-0.123053  0.089493  0.839000
-0.121455  0.089493  0.839000
-0.119857  0.089493  0.839000
-0.118259  0.089493  0.839000
-0.116661  0.089493  0.839000
-0.114789  0.089280  0.837000
-0.113194  0.089280  0.837000
-0.110800  0.088640  0.831000
-0.109217  0.088640  0.831000
-0.107634  0.088640  0.831000
-0.106051  0.088640  0.831000
-0.104469  0.088640  0.831000
-0.102886  0.088640  0.831000
-0.101303  0.088640  0.831000
-0.099720  0.088640  0.831000
-0.098137  0.088640  0.831000
-0.096554  0.088640  0.831000
-0.095200  0.088853  0.833000
-0.093613  0.088853  0.833000
-0.092027  0.088853  0.833000
-0.090440  0.088853  0.833000
-0.088853  0.088853  0.833000
-0.087476  0.089067  0.835000
-0.086091  0.089280  0.837000
-0.084497  0.089280  0.837000
-0.083101  0.089493  0.839000
-0.081503  0.089493  0.839000
-0.079905  0.089493  0.839000
-0.078493  0.089707  0.841000
-0.076891  0.089707  0.841000
-0.075290  0.089707  0.841000
-0.073863  0.089920  0.843000
-0.072257  0.089920  0.843000
-0.070651  0.089920  0.843000
-0.069210  0.090133  0.845000
-0.067600  0.090133  0.845000
-0.065990  0.090133  0.845000
-0.064610  0.090453  0.848000
-0.062994  0.090453  0.848000
-0.061379  0.090453  0.848000
-0.059905  0.090667  0.850000
-0.058286  0.090667  0.850000
-0.056933  0.091093  0.854000
-0.142476  0.089048  0.850000
-0.140857  0.089048  0.850000
-0.138910  0.088838  0.848000
-0.137295  0.088838  0.848000
-0.135680  0.088838  0.848000
-0.133590  0.088524  0.845000
-0.131981  0.088524  0.845000
-0.130371  0.088524  0.845000
-0.128762  0.088524  0.845000
-0.127152  0.088524  0.845000
-0.125246  0.088314  0.843000
-0.123347  0.088105  0.841000
-0.121455  0.087895  0.839000
-0.119857  0.087895  0.839000
-0.118259  0.087895  0.839000
-0.116661  0.087895  0.839000
-0.114789  0.087686  0.837000
-0.113194  0.087686  0.837000
-0.111333  0.087476  0.835000
-0.109480  0.087267  0.833000
-0.107893  0.087267  0.833000
-0.106051  0.087057  0.831000
-0.104469  0.087057  0.831000
-0.102886  0.087057  0.831000
-0.101303  0.087057  0.831000
-0.099720  0.087057  0.831000
-0.098137  0.087057  0.831000
-0.096787  0.087267  0.833000
-0.095200  0.087267  0.833000
-0.093613  0.087267  0.833000
-0.092248  0.087476  0.835000
-0.090657  0.087476  0.835000
-0.089067  0.087476  0.835000
-0.087476  0.087476  0.835000
-0.086091  0.087686  0.837000
-0.084497  0.087686  0.837000
-0.083101  0.087895  0.839000
-0.081503  0.087895  0.839000
-0.079905  0.087895  0.839000
-0.078493  0.088105  0.841000
-0.076891  0.088105  0.841000
-0.075469  0.088314  0.843000
-0.074038  0.088524  0.845000
-0.072429  0.088524  0.845000
-0.070819  0.088524  0.845000
-0.069210  0.088524  0.845000
-0.067600  0.088524  0.845000
-0.065990  0.088524  0.845000
-0.064610  0.088838  0.848000
-0.063143  0.089048  0.850000
-0.061524  0.089048  0.850000
-0.060187  0.089467  0.854000
-0.058560  0.089467  0.854000
-0.056933  0.089467  0.854000
-0.535886  0.107177  1.042000
-0.532364  0.106869  1.039000
-0.530385  0.106869  1.039000
-0.142476  0.087429  0.850000
-0.140857  0.087429  0.850000
-0.138910  0.087223  0.848000
-0.137295  0.087223  0.848000
-0.135680  0.087223  0.848000
-0.134065  0.087223  0.848000
-0.131981  0.086914  0.845000
-0.130371  0.086914  0.845000
-0.128762  0.086914  0.845000
-0.127152  0.086914  0.845000
-0.125246  0.086709  0.843000
-0.123640  0.086709  0.843000
-0.121745  0.086503  0.841000
-0.120143  0.086503  0.841000
-0.118259  0.086297  0.839000
-0.116661  0.086297  0.839000
-0.114789  0.086091  0.837000
-0.113194  0.086091  0.837000
-0.111333  0.085886  0.835000
-0.109743  0.085886  0.835000
-0.107893  0.085680  0.833000
-0.106051  0.085474  0.831000
-0.104469  0.085474  0.831000
-0.102886  0.085474  0.831000
-0.101303  0.085474  0.831000
-0.099720  0.085474  0.831000
-0.098373  0.085680  0.833000
-0.096787  0.085680  0.833000
-0.095200  0.085680  0.833000
-0.093838  0.085886  0.835000
-0.092248  0.085886  0.835000
-0.090657  0.085886  0.835000
-0.089067  0.085886  0.835000
-0.087686  0.086091  0.837000
-0.086091  0.086091  0.837000
-0.084497  0.086091  0.837000
-0.083101  0.086297  0.839000
-0.081503  0.086297  0.839000
-0.080095  0.086503  0.841000
-0.078493  0.086503  0.841000
-0.077074  0.086709  0.843000
-0.075469  0.086709  0.843000
-0.074038  0.086914  0.845000
-0.072429  0.086914  0.845000
-0.070819  0.086914  0.845000
-0.069210  0.086914  0.845000
-0.067840  0.087223  0.848000
-0.066225  0.087223  0.848000
-0.064610  0.087223  0.848000
-0.063143  0.087429  0.850000
-0.061669  0.087634  0.852000
-0.060187  0.087840  0.854000
-0.058560  0.087840  0.854000
-0.056933  0.087840  0.854000
-0.539419  0.105495  1.045000
-0.535886  0.105192  1.042000
-0.532364  0.104890  1.039000
-0.530385  0.104890  1.039000
-0.467404  0.109130  1.081000
-0.144095  0.085810  0.850000
-0.142476  0.085810  0.850000
-0.140857  0.085810  0.850000
-0.139238  0.085810  0.850000
-0.137619  0.085810  0.850000
-0.136000  0.085810  0.850000
-0.134065  0.085608  0.848000
-0.132450  0.085608  0.848000
-0.130834  0.085608  0.848000
-0.129219  0.085608  0.848000
-0.127604  0.085608  0.848000
-0.125543  0.085305  0.845000
-0.123933  0.085305  0.845000
-0.122034  0.085103  0.843000
-0.120143  0.084901  0.841000
-0.118259  0.084699  0.839000
-0.116661  0.084699  0.839000
-0.114789  0.084497  0.837000
-0.113194  0.084497  0.837000
-0.111333  0.084295  0.835000
-0.109743  0.084295  0.835000
-0.107893  0.084093  0.833000
-0.106307  0.084093  0.833000
-0.104469  0.083891  0.831000
-0.102886  0.083891  0.831000
-0.101547  0.084093  0.833000
-0.099960  0.084093  0.833000
-0.098373  0.084093  0.833000
-0.096787  0.084093  0.833000
-0.095429  0.084295  0.835000
-0.093838  0.084295  0.835000
-0.092248  0.084295  0.835000
-0.090874  0.084497  0.837000
-0.089280  0.084497  0.837000
-0.087686  0.084497  0.837000
-0.086091  0.084497  0.837000
-0.084497  0.084497  0.837000
-0.083101  0.084699  0.839000
-0.081503  0.084699  0.839000
-0.080095  0.084901  0.841000
-0.078493  0.084901  0.841000
-0.077074  0.085103  0.843000
-0.075469  0.085103  0.843000
-0.074038  0.085305  0.845000
-0.072429  0.085305  0.845000
-0.070819  0.085305  0.845000
-0.069210  0.085305  0.845000
-0.067840  0.085608  0.848000
-0.066225  0.085608  0.848000
-0.064610  0.085608  0.848000
-0.063143  0.085810  0.850000
-0.061669  0.086011  0.852000
-0.060046  0.086011  0.852000
-0.058560  0.086213  0.854000
-0.056933  0.086213  0.854000
-0.544960  0.103802  1.048000
-0.542964  0.103802  1.048000
-0.539419  0.103505  1.045000
-0.535886  0.103208  1.042000
-0.533901  0.103208  1.042000
-0.531916  0.103208  1.042000
-0.532983  0.103802  1.048000
-0.530987  0.103802  1.048000
-0.495063  0.106377  1.074000
-0.493017  0.106377  1.074000
-0.490971  0.106377  1.074000
-0.469463  0.107070  1.081000
-0.467404  0.107070  1.081000
-0.465345  0.107070  1.081000
-0.463286  0.107070  1.081000
-0.461227  0.107070  1.081000
-0.144095  0.084190  0.850000
-0.142476  0.084190  0.850000
-0.140857  0.084190  0.850000
-0.139238  0.084190  0.850000
-0.137943  0.084389  0.852000
-0.136000  0.084190  0.850000
-0.134065  0.083992  0.848000
-0.132450  0.083992  0.848000
-0.130834  0.083992  0.848000
-0.129219  0.083992  0.848000
-0.127604  0.083992  0.848000
-0.125543  0.083695  0.845000
-0.123933  0.083695  0.845000
-0.122034  0.083497  0.843000
-0.120143  0.083299  0.841000
-0.118259  0.083101  0.839000
-0.116661  0.083101  0.839000
-0.115063  0.083101  0.839000
-0.113194  0.082903  0.837000
-0.111333  0.082705  0.835000
-0.109743  0.082705  0.835000
-0.108152  0.082705  0.835000
-0.106307  0.082507  0.833000
-0.104720  0.082507  0.833000
-0.103133  0.082507  0.833000
-0.101790  0.082705  0.835000
-0.100200  0.082705  0.835000
-0.098610  0.082705  0.835000
-0.097019  0.082705  0.835000
-0.095429  0.082705  0.835000
-0.093838  0.082705  0.835000
-0.092469  0.082903  0.837000
-0.090874  0.082903  0.837000
-0.089280  0.082903  0.837000
-0.087686  0.082903  0.837000
-0.086091  0.082903  0.837000
-0.084699  0.083101  0.839000
-0.083101  0.083101  0.839000
-0.081503  0.083101  0.839000
-0.080095  0.083299  0.841000
-0.078493  0.083299  0.841000
-0.077074  0.083497  0.843000
-0.075469  0.083497  0.843000
-0.074038  0.083695  0.845000
-0.072429  0.083695  0.845000
-0.070819  0.083695  0.845000
-0.069455  0.083992  0.848000
-0.067840  0.083992  0.848000
-0.066225  0.083992  0.848000
-0.064610  0.083992  0.848000
-0.063291  0.084389  0.852000
-0.061669  0.084389  0.852000
-0.060046  0.084389  0.852000
-0.058560  0.084587  0.854000
-0.056933  0.084587  0.854000
-0.544960  0.101806  1.048000
-0.542964  0.101806  1.048000
-0.540968  0.101806  1.048000
-0.538971  0.101806  1.048000
-0.536975  0.101806  1.048000
-0.534979  0.101806  1.048000
-0.532983  0.101806  1.048000
-0.530987  0.101806  1.048000
-0.497109  0.104331  1.074000
-0.495063  0.104331  1.074000
-0.493017  0.104331  1.074000
-0.490971  0.104331  1.074000
-0.490747  0.104720  1.078000
-0.488693  0.104720  1.078000
-0.486640  0.104720  1.078000
-0.482789  0.104331  1.074000
-0.483876  0.105011  1.081000
-0.469463  0.105011  1.081000
-0.467404  0.105011  1.081000
-0.465345  0.105011  1.081000
-0.463286  0.105011  1.081000
-0.461227  0.105011  1.081000
-0.146400  0.082960  0.854000
-0.144434  0.082766  0.852000
-0.142811  0.082766  0.852000
-0.141189  0.082766  0.852000
-0.139566  0.082766  0.852000
-0.137943  0.082766  0.852000
-0.136000  0.082571  0.850000
-0.134381  0.082571  0.850000
-0.132450  0.082377  0.848000
-0.130834  0.082377  0.848000
-0.129219  0.082377  0.848000
-0.127604  0.082377  0.848000
-0.125543  0.082086  0.845000
-0.123933  0.082086  0.845000
-0.122034  0.081891  0.843000
-0.120143  0.081697  0.841000
-0.118541  0.081697  0.841000
-0.116661  0.081503  0.839000
-0.115063  0.081503  0.839000
-0.113194  0.081309  0.837000
-0.111600  0.081309  0.837000
-0.109743  0.081114  0.835000
-0.108152  0.081114  0.835000
-0.106562  0.081114  0.835000
-0.104720  0.080920  0.833000
-0.103133  0.080920  0.833000
-0.101790  0.081114  0.835000
-0.100200  0.081114  0.835000
-0.098610  0.081114  0.835000
-0.097019  0.081114  0.835000
-0.095429  0.081114  0.835000
-0.093838  0.081114  0.835000
-0.092469  0.081309  0.837000
-0.090874  0.081309  0.837000
-0.089280  0.081309  0.837000
-0.087686  0.081309  0.837000
-0.086091  0.081309  0.837000
-0.084699  0.081503  0.839000
-0.083101  0.081503  0.839000
-0.081503  0.081503  0.839000
-0.080095  0.081697  0.841000
-0.078493  0.081697  0.841000
-0.077074  0.081891  0.843000
-0.075648  0.082086  0.845000
-0.074038  0.082086  0.845000
-0.072429  0.082086  0.845000
-0.070819  0.082086  0.845000
-0.069455  0.082377  0.848000
-0.067840  0.082377  0.848000
-0.066225  0.082377  0.848000
-0.064762  0.082571  0.850000
-0.063440  0.082960  0.854000
-0.061813  0.082960  0.854000
-0.060187  0.082960  0.854000
-0.058560  0.082960  0.854000
-0.056933  0.082960  0.854000
-0.544960  0.099810  1.048000
-0.542964  0.099810  1.048000
-0.540968  0.099810  1.048000
-0.538971  0.099810  1.048000
-0.539025  0.100190  1.052000
-0.532983  0.099810  1.048000
-0.530987  0.099810  1.048000
-0.531010  0.100190  1.052000
-0.497109  0.102286  1.074000
-0.495063  0.102286  1.074000
-0.493017  0.102286  1.074000
-0.490971  0.102286  1.074000
-0.490747  0.102667  1.078000
-0.486880  0.102286  1.074000
-0.484834  0.102286  1.074000
-0.482789  0.102286  1.074000
-0.483876  0.102952  1.081000
-0.469463  0.102952  1.081000
-0.467404  0.102952  1.081000
-0.465345  0.102952  1.081000
-0.465000  0.103333  1.085000
-0.146400  0.081333  0.854000
-0.144434  0.081143  0.852000
-0.142811  0.081143  0.852000
-0.141189  0.081143  0.852000
-0.139566  0.081143  0.852000
-0.138267  0.081333  0.854000
-0.136320  0.081143  0.852000
-0.134381  0.080952  0.850000
-0.132762  0.080952  0.850000
-0.130834  0.080762  0.848000
-0.129219  0.080762  0.848000
-0.127604  0.080762  0.848000
-0.125543  0.080476  0.845000
-0.123933  0.080476  0.845000
-0.122034  0.080286  0.843000
-0.120429  0.080286  0.843000
-0.118541  0.080095  0.841000
-0.116661  0.079905  0.839000
-0.115063  0.079905  0.839000
-0.113194  0.079714  0.837000
-0.111600  0.079714  0.837000
-0.109743  0.079524  0.835000
-0.108152  0.079524  0.835000
-0.106307  0.079333  0.833000
-0.104720  0.079333  0.833000
-0.103133  0.079333  0.833000
-0.101547  0.079333  0.833000
-0.099960  0.079333  0.833000
-0.098610  0.079524  0.835000
-0.097019  0.079524  0.835000
-0.095429  0.079524  0.835000
-0.094063  0.079714  0.837000
-0.092469  0.079714  0.837000
-0.090874  0.079714  0.837000
-0.089280  0.079714  0.837000
-0.087895  0.079905  0.839000
-0.086297  0.079905  0.839000
-0.084699  0.079905  0.839000
-0.083101  0.079905  0.839000
-0.081697  0.080095  0.841000
-0.080095  0.080095  0.841000
-0.078680  0.080286  0.843000
-0.077257  0.080476  0.845000
-0.075648  0.080476  0.845000
-0.074038  0.080476  0.845000
-0.072429  0.080476  0.845000
-0.070819  0.080476  0.845000
-0.069455  0.080762  0.848000
-0.067840  0.080762  0.848000
-0.066381  0.080952  0.850000
-0.064762  0.080952  0.850000
-0.063440  0.081333  0.854000
-0.061813  0.081333  0.854000
-0.060187  0.081333  0.854000
-0.058697  0.081524  0.856000
-0.546591  0.098467  1.055000
-0.543032  0.098187  1.052000
-0.541029  0.098187  1.052000
-0.539025  0.098187  1.052000
-0.537021  0.098187  1.052000
-0.532983  0.097813  1.048000
-0.530987  0.097813  1.048000
-0.531010  0.098187  1.052000
-0.530514  0.098467  1.055000
-0.495063  0.100240  1.074000
-0.493017  0.100240  1.074000
-0.490971  0.100240  1.074000
-0.490747  0.100613  1.078000
-0.486880  0.100240  1.074000
-0.484834  0.100240  1.074000
-0.484587  0.100613  1.078000
-0.483876  0.100893  1.081000
-0.471522  0.100893  1.081000
-0.469463  0.100893  1.081000
-0.467404  0.100893  1.081000
-0.465345  0.100893  1.081000
-0.463286  0.100893  1.081000
-0.144434  0.079520  0.852000
-0.142811  0.079520  0.852000
-0.141189  0.079520  0.852000
-0.139566  0.079520  0.852000
-0.138267  0.079707  0.854000
-0.136320  0.079520  0.852000
-0.134697  0.079520  0.852000
-0.132762  0.079333  0.850000
-0.131143  0.079333  0.850000
-0.129219  0.079147  0.848000
-0.127604  0.079147  0.848000
-0.125543  0.078867  0.845000
-0.123933  0.078867  0.845000
-0.122324  0.078867  0.845000
-0.120429  0.078680  0.843000
-0.118823  0.078680  0.843000
-0.116939  0.078493  0.841000
-0.115063  0.078307  0.839000
-0.113194  0.078120  0.837000
-0.111600  0.078120  0.837000
-0.109743  0.077933  0.835000
-0.108152  0.077933  0.835000
-0.106307  0.077747  0.833000
-0.104720  0.077747  0.833000
-0.103133  0.077747  0.833000
-0.101547  0.077747  0.833000
-0.099960  0.077747  0.833000
-0.098610  0.077933  0.835000
-0.097019  0.077933  0.835000
-0.095429  0.077933  0.835000
-0.094063  0.078120  0.837000
-0.092469  0.078120  0.837000
-0.090874  0.078120  0.837000
-0.089280  0.078120  0.837000
-0.087895  0.078307  0.839000
-0.086297  0.078307  0.839000
-0.084699  0.078307  0.839000
-0.083101  0.078307  0.839000
-0.081697  0.078493  0.841000
-0.080095  0.078493  0.841000
-0.078493  0.078493  0.841000
-0.077257  0.078867  0.845000
-0.075648  0.078867  0.845000
-0.074038  0.078867  0.845000
-0.072429  0.078867  0.845000
-0.070819  0.078867  0.845000
-0.069455  0.079147  0.848000
-0.067840  0.079147  0.848000
-0.066381  0.079333  0.850000
-0.064762  0.079333  0.850000
-0.063440  0.079707  0.854000
-0.061813  0.079707  0.854000
-0.060187  0.079707  0.854000
-0.058697  0.079893  0.856000
-0.057067  0.079893  0.856000
0.088457  0.108360  1.161000
0.090669  0.108360  1.161000
0.110952  0.108733  1.165000
-0.542571  0.096457  1.055000
-0.540562  0.096457  1.055000
-0.537021  0.096183  1.052000
-0.535017  0.096183  1.052000
-0.533013  0.096183  1.052000
-0.531010  0.096183  1.052000
-0.530514  0.096457  1.055000
-0.530008  0.096731  1.058000
-0.529490  0.097006  1.061000
-0.527469  0.097006  1.061000
-0.506526  0.098834  1.081000
-0.504467  0.098834  1.081000
-0.502408  0.098834  1.081000
-0.500349  0.098834  1.081000
-0.498290  0.098834  1.081000
-0.494853  0.098560  1.078000
-0.492800  0.098560  1.078000
-0.490747  0.098560  1.078000
-0.488693  0.098560  1.078000
-0.486640  0.098560  1.078000
-0.484587  0.098560  1.078000
-0.482533  0.098560  1.078000
-0.481817  0.098834  1.081000
-0.469463  0.098834  1.081000
-0.467404  0.098834  1.081000
-0.465345  0.098834  1.081000
-0.465000  0.099200  1.085000
-0.464213  0.099474  1.088000
-0.462141  0.099474  1.088000
-0.460069  0.099474  1.088000
-0.459259  0.099749  1.091000
-0.144434  0.077897  0.852000
-0.142811  0.077897  0.852000
-0.141189  0.077897  0.852000
-0.139566  0.077897  0.852000
-0.138267  0.078080  0.854000
-0.136320  0.077897  0.852000
-0.134697  0.077897  0.852000
-0.132762  0.077714  0.850000
-0.131143  0.077714  0.850000
-0.129219  0.077531  0.848000
-0.127604  0.077531  0.848000
-0.125989  0.077531  0.848000
-0.123933  0.077257  0.845000
-0.122324  0.077257  0.845000
-0.120714  0.077257  0.845000
-0.118823  0.077074  0.843000
-0.116939  0.076891  0.841000
-0.115063  0.076709  0.839000
-0.113194  0.076526  0.837000
-0.111600  0.076526  0.837000
-0.110006  0.076526  0.837000
-0.108152  0.076343  0.835000
-0.106562  0.076343  0.835000
-0.104971  0.076343  0.835000
-0.103381  0.076343  0.835000
-0.101790  0.076343  0.835000
-0.100200  0.076343  0.835000
-0.098610  0.076343  0.835000
-0.097019  0.076343  0.835000
-0.095657  0.076526  0.837000
-0.094063  0.076526  0.837000
-0.092469  0.076526  0.837000
-0.090874  0.076526  0.837000
-0.089280  0.076526  0.837000
-0.087895  0.076709  0.839000
-0.086297  0.076709  0.839000
-0.084699  0.076709  0.839000
-0.083101  0.076709  0.839000
-0.081697  0.076891  0.841000
-0.080095  0.076891  0.841000
-0.078493  0.076891  0.841000
-0.077257  0.077257  0.845000
-0.075648  0.077257  0.845000
-0.074038  0.077257  0.845000
-0.072686  0.077531  0.848000
-0.071070  0.077531  0.848000
-0.069455  0.077531  0.848000
-0.067840  0.077531  0.848000
-0.066381  0.077714  0.850000
-0.064762  0.077714  0.850000
-0.063440  0.078080  0.854000
-0.061813  0.078080  0.854000
-0.060187  0.078080  0.854000
-0.058697  0.078263  0.856000
-0.057067  0.078263  0.856000
0.092880  0.106149  1.161000
0.095091  0.106149  1.161000
0.097303  0.106149  1.161000
0.099857  0.106514  1.165000
0.102076  0.106514  1.165000
-0.544114  0.094716  1.058000
-0.542099  0.094716  1.058000
-0.538552  0.094448  1.055000
-0.536543  0.094448  1.055000
-0.534533  0.094448  1.055000
-0.532524  0.094448  1.055000
-0.530514  0.094448  1.055000
-0.530008  0.094716  1.058000
-0.529490  0.094985  1.061000
-0.527469  0.094985  1.061000
-0.526933  0.095253  1.064000
-0.524907  0.095253  1.064000
-0.520777  0.095611  1.068000
-0.518743  0.095611  1.068000
-0.516709  0.095611  1.068000
-0.514674  0.095611  1.068000
-0.505120  0.096507  1.078000
-0.503067  0.096507  1.078000
-0.502408  0.096775  1.081000
-0.500349  0.096775  1.081000
-0.498290  0.096775  1.081000
-0.494853  0.096507  1.078000
-0.492800  0.096507  1.078000
-0.490747  0.096507  1.078000
-0.488693  0.096507  1.078000
-0.486640  0.096507  1.078000
-0.484587  0.096507  1.078000
-0.482533  0.096507  1.078000
-0.481817  0.096775  1.081000
-0.479758  0.096775  1.081000
-0.477699  0.096775  1.081000
-0.469463  0.096775  1.081000
-0.467404  0.096775  1.081000
-0.465345  0.096775  1.081000
-0.465000  0.097133  1.085000
-0.464213  0.097402  1.088000
-0.462141  0.097402  1.088000
-0.460069  0.097402  1.088000
-0.459259  0.097670  1.091000
-0.143147  0.076453  0.854000
-0.141520  0.076453  0.854000
-0.139893  0.076453  0.854000
-0.138267  0.076453  0.854000
-0.136640  0.076453  0.854000
-0.135013  0.076453  0.854000
-0.133074  0.076274  0.852000
-0.131451  0.076274  0.852000
-0.129524  0.076095  0.850000
-0.127905  0.076095  0.850000
-0.125989  0.075916  0.848000
-0.124373  0.075916  0.848000
-0.122324  0.075648  0.845000
-0.120429  0.075469  0.843000
-0.118823  0.075469  0.843000
-0.116939  0.075290  0.841000
-0.115063  0.075110  0.839000
-0.113194  0.074931  0.837000
-0.111600  0.074931  0.837000
-0.110006  0.074931  0.837000
-0.108152  0.074752  0.835000
-0.106562  0.074752  0.835000
-0.104971  0.074752  0.835000
-0.103381  0.074752  0.835000
-0.101790  0.074752  0.835000
-0.100200  0.074752  0.835000
-0.098610  0.074752  0.835000
-0.097019  0.074752  0.835000
-0.095657  0.074931  0.837000
-0.094063  0.074931  0.837000
-0.092469  0.074931  0.837000
-0.090874  0.074931  0.837000
-0.089493  0.075110  0.839000
-0.087895  0.075110  0.839000
-0.086297  0.075110  0.839000
-0.084699  0.075110  0.839000
-0.083101  0.075110  0.839000
-0.081697  0.075290  0.841000
-0.080095  0.075290  0.841000
-0.078680  0.075469  0.843000
-0.077257  0.075648  0.845000
-0.075648  0.075648  0.845000
-0.074301  0.075916  0.848000
-0.072686  0.075916  0.848000
-0.071070  0.075916  0.848000
-0.069455  0.075916  0.848000
-0.067840  0.075916  0.848000
-0.066381  0.076095  0.850000
-0.064914  0.076274  0.852000
-0.063440  0.076453  0.854000
-0.061958  0.076632  0.856000
-0.060328  0.076632  0.856000
-0.058834  0.076811  0.858000
-0.057200  0.076811  0.858000
0.088457  0.103937  1.161000
0.090669  0.103937  1.161000
0.092880  0.103937  1.161000
0.095091  0.103937  1.161000
0.097303  0.103937  1.161000
0.099857  0.104295  1.165000
0.102076  0.104295  1.165000
0.108733  0.104295  1.165000
0.110952  0.104295  1.165000
-0.548145  0.092701  1.058000
-0.546130  0.092701  1.058000
-0.544114  0.092701  1.058000
-0.542099  0.092701  1.058000
-0.538552  0.092438  1.055000
-0.536543  0.092438  1.055000
-0.534533  0.092438  1.055000
-0.532524  0.092438  1.055000
-0.532023  0.092701  1.058000
-0.530008  0.092701  1.058000
-0.529490  0.092964  1.061000
-0.527469  0.092964  1.061000
-0.526933  0.093227  1.064000
-0.524907  0.093227  1.064000
-0.524846  0.093577  1.068000
-0.522811  0.093577  1.068000
-0.520777  0.093577  1.068000
-0.518743  0.093577  1.068000
-0.516709  0.093577  1.068000
-0.514674  0.093577  1.068000
-0.512640  0.093577  1.068000
-0.505120  0.094453  1.078000
-0.503067  0.094453  1.078000
-0.502408  0.094716  1.081000
-0.500349  0.094716  1.081000
-0.500133  0.095067  1.085000
-0.496230  0.094716  1.081000
-0.494171  0.094716  1.081000
-0.492112  0.094716  1.081000
-0.490053  0.094716  1.081000
-0.486640  0.094453  1.078000
-0.484587  0.094453  1.078000
-0.483876  0.094716  1.081000
-0.481817  0.094716  1.081000
-0.479758  0.094716  1.081000
-0.477699  0.094716  1.081000
-0.475640  0.094716  1.081000
-0.475333  0.095067  1.085000
-0.473267  0.095067  1.085000
-0.469463  0.094716  1.081000
-0.467404  0.094716  1.081000
-0.467067  0.095067  1.085000
-0.466286  0.095330  1.088000
-0.464213  0.095330  1.088000
-0.462141  0.095330  1.088000
-0.460069  0.095330  1.088000
-0.459259  0.095592  1.091000
-0.144773  0.074827  0.854000
-0.143147  0.074827  0.854000
-0.141520  0.074827  0.854000
-0.139893  0.074827  0.854000
-0.138267  0.074827  0.854000
-0.136640  0.074827  0.854000
-0.135013  0.074827  0.854000
-0.133387  0.074827  0.854000
-0.131451  0.074651  0.852000
