# .PCD v.5 - Point Cloud Data file format
FIELDS x y z 
SIZE 4 4 4
TYPE F F F
COUNT 1 1 1
WIDTH 1616
HEIGHT 1
POINTS 1616
DATA ascii
-0.259657  0.024343  0.710000
-0.258669  0.024377  0.711000
-0.258038  0.024446  0.713000
-0.256680  0.024446  0.713000
-0.255322  0.024446  0.713000
-0.254320  0.024480  0.714000
-0.252960  0.024480  0.714000
-0.251600  0.024480  0.714000
-0.250941  0.024549  0.716000
-0.249926  0.024583  0.717000
-0.249253  0.024651  0.719000
-0.247884  0.024651  0.719000
-0.246514  0.024651  0.719000
-0.245486  0.024686  0.720000
-0.244114  0.024686  0.720000
-0.242743  0.024686  0.720000
-0.242042  0.024754  0.722000
-0.240667  0.024754  0.722000
-0.239623  0.024789  0.723000
-0.238905  0.024857  0.725000
-0.237524  0.024857  0.725000
-0.236469  0.024891  0.726000
-0.236057  0.024994  0.729000
-0.235312  0.025063  0.731000
-0.233920  0.025063  0.731000
-0.232528  0.025063  0.731000
-0.231451  0.025097  0.732000
-0.230057  0.025097  0.732000
-0.229288  0.025166  0.734000
-0.227890  0.025166  0.734000
-0.227109  0.025234  0.736000
-0.225707  0.025234  0.736000
-0.224305  0.025234  0.736000
-0.223206  0.025269  0.737000
-0.222404  0.025337  0.739000
-0.220996  0.025337  0.739000
-0.219589  0.025337  0.739000
-0.218476  0.025371  0.740000
-0.217067  0.025371  0.740000
-0.216240  0.025440  0.742000
-0.215116  0.025474  0.743000
-0.214276  0.025543  0.745000
-0.212857  0.025543  0.745000
-0.211438  0.025543  0.745000
-0.210583  0.025611  0.747000
-0.209440  0.025646  0.748000
-0.208571  0.025714  0.750000
-0.207695  0.025783  0.752000
-0.206263  0.025783  0.752000
-0.204830  0.025783  0.752000
-0.203669  0.025817  0.753000
-0.202234  0.025817  0.753000
-0.201333  0.025886  0.755000
-0.199895  0.025886  0.755000
-0.198720  0.025920  0.756000
-0.197280  0.025920  0.756000
-0.196358  0.025989  0.758000
-0.194914  0.025989  0.758000
-0.193470  0.025989  0.758000
-0.192533  0.026057  0.760000
-0.191086  0.026057  0.760000
-0.189888  0.026091  0.761000
-0.188933  0.026160  0.763000
-0.187971  0.026229  0.765000
-0.186514  0.026229  0.765000
-0.185541  0.026297  0.767000
-0.184320  0.026331  0.768000
-0.183333  0.026400  0.770000
-0.181867  0.026400  0.770000
-0.180400  0.026400  0.770000
-0.179398  0.026469  0.772000
-0.177928  0.026469  0.772000
-0.176686  0.026503  0.773000
-0.175667  0.026571  0.775000
-0.174190  0.026571  0.775000
-0.024960  0.024960  0.728000
-0.023573  0.024960  0.728000
-0.022187  0.024960  0.728000
-0.020829  0.024994  0.729000
-0.019440  0.024994  0.729000
-0.018101  0.025063  0.731000
-0.016709  0.025063  0.731000
-0.015337  0.025097  0.732000
-0.013943  0.025097  0.732000
-0.012549  0.025097  0.732000
-0.011185  0.025166  0.734000
-0.009787  0.025166  0.734000
-0.008411  0.025234  0.736000
-0.007010  0.025234  0.736000
-0.005608  0.025234  0.736000
-0.004206  0.025234  0.736000
-0.002808  0.025269  0.737000
-0.001404  0.025269  0.737000
0.000000  0.025269  0.737000
0.001408  0.025337  0.739000
0.002819  0.025371  0.740000
0.004240  0.025440  0.742000
0.005653  0.025440  0.742000
0.007067  0.025440  0.742000
0.008491  0.025474  0.743000
0.009907  0.025474  0.743000
0.011322  0.025474  0.743000
0.012771  0.025543  0.745000
0.014190  0.025543  0.745000
0.015610  0.025543  0.745000
0.017097  0.025646  0.748000
0.018522  0.025646  0.748000
0.020000  0.025714  0.750000
0.021486  0.025783  0.752000
0.022918  0.025783  0.752000
0.024383  0.025817  0.753000
0.025817  0.025817  0.753000
0.027324  0.025886  0.755000
0.028800  0.025920  0.756000
0.030320  0.025989  0.758000
0.031764  0.025989  0.758000
0.033295  0.026057  0.760000
0.034743  0.026057  0.760000
0.036238  0.026091  0.761000
0.037787  0.026160  0.763000
0.039240  0.026160  0.763000
0.040800  0.026229  0.765000
0.042257  0.026229  0.765000
0.043829  0.026297  0.767000
0.045290  0.026297  0.767000
0.046811  0.026331  0.768000
0.048400  0.026400  0.770000
0.049996  0.026469  0.772000
0.051533  0.026503  0.773000
0.053006  0.026503  0.773000
0.054478  0.026503  0.773000
0.056095  0.026571  0.775000
0.057571  0.026571  0.775000
0.059200  0.026640  0.777000
0.060680  0.026640  0.777000
0.062160  0.026640  0.777000
0.063640  0.026640  0.777000
0.065288  0.026709  0.779000
0.066857  0.026743  0.780000
0.068343  0.026743  0.780000
0.070008  0.026811  0.782000
0.071680  0.026880  0.784000
0.073173  0.026880  0.784000
0.074857  0.026949  0.786000
0.076549  0.027017  0.788000
0.078050  0.027017  0.788000
0.079651  0.027051  0.789000
0.081154  0.027051  0.789000
0.082867  0.027120  0.791000
0.084373  0.027120  0.791000
0.086097  0.027189  0.793000
0.087829  0.027257  0.795000
0.089343  0.027257  0.795000
0.090857  0.027257  0.795000
0.092604  0.027326  0.797000
0.094122  0.027326  0.797000
0.095760  0.027360  0.798000
0.097524  0.027429  0.800000
0.099048  0.027429  0.800000
0.100571  0.027429  0.800000
0.102095  0.027429  0.800000
0.103619  0.027429  0.800000
0.105669  0.027566  0.804000
-0.282981  0.022375  0.691000
-0.281665  0.022375  0.691000
-0.280349  0.022375  0.691000
-0.279840  0.022440  0.693000
-0.278922  0.022472  0.694000
-0.277600  0.022472  0.694000
-0.276676  0.022505  0.695000
-0.276145  0.022570  0.697000
-0.274817  0.022570  0.697000
-0.273490  0.022570  0.697000
-0.272552  0.022602  0.698000
-0.272000  0.022667  0.700000
-0.271053  0.022699  0.701000
-0.269718  0.022699  0.701000
-0.268383  0.022699  0.701000
-0.267810  0.022764  0.703000
-0.266850  0.022796  0.704000
-0.265509  0.022796  0.704000
-0.264543  0.022829  0.705000
-0.263947  0.022893  0.707000
-0.262600  0.022893  0.707000
-0.261623  0.022926  0.708000
-0.260274  0.022926  0.708000
-0.258926  0.022926  0.708000
-0.258669  0.023023  0.711000
-0.258038  0.023088  0.713000
-0.257040  0.023120  0.714000
-0.255680  0.023120  0.714000
-0.254320  0.023120  0.714000
-0.252960  0.023120  0.714000
-0.251600  0.023120  0.714000
-0.250240  0.023120  0.714000
-0.249926  0.023217  0.717000
-0.249253  0.023282  0.719000
-0.247884  0.023282  0.719000
-0.246514  0.023282  0.719000
-0.245486  0.023314  0.720000
-0.244114  0.023314  0.720000
-0.242743  0.023314  0.720000
-0.242042  0.023379  0.722000
-0.240667  0.023379  0.722000
-0.239623  0.023411  0.723000
-0.238905  0.023476  0.725000
-0.237851  0.023509  0.726000
-0.236469  0.023509  0.726000
-0.235733  0.023573  0.728000
-0.234669  0.023606  0.729000
-0.233920  0.023670  0.731000
-0.232528  0.023670  0.731000
-0.231135  0.023670  0.731000
-0.230057  0.023703  0.732000
-0.228663  0.023703  0.732000
-0.227890  0.023768  0.734000
-0.227109  0.023832  0.736000
-0.225707  0.023832  0.736000
-0.224305  0.023832  0.736000
-0.223206  0.023865  0.737000
-0.222404  0.023930  0.739000
-0.220996  0.023930  0.739000
-0.219589  0.023930  0.739000
-0.218476  0.023962  0.740000
-0.217067  0.023962  0.740000
-0.216240  0.024027  0.742000
-0.215116  0.024059  0.743000
-0.213701  0.024059  0.743000
-0.212857  0.024124  0.745000
-0.211438  0.024124  0.745000
-0.210583  0.024189  0.747000
-0.209440  0.024221  0.748000
-0.208571  0.024286  0.750000
-0.207143  0.024286  0.750000
-0.206263  0.024350  0.752000
-0.204830  0.024350  0.752000
-0.203669  0.024383  0.753000
-0.202234  0.024383  0.753000
-0.201333  0.024448  0.755000
-0.199895  0.024448  0.755000
-0.198720  0.024480  0.756000
-0.197280  0.024480  0.756000
-0.196358  0.024545  0.758000
-0.194914  0.024545  0.758000
-0.193470  0.024545  0.758000
-0.192533  0.024610  0.760000
-0.191086  0.024610  0.760000
-0.189888  0.024642  0.761000
-0.188933  0.024707  0.763000
-0.187971  0.024771  0.765000
-0.186514  0.024771  0.765000
-0.185541  0.024836  0.767000
-0.184320  0.024869  0.768000
-0.182857  0.024869  0.768000
-0.181867  0.024933  0.770000
-0.180400  0.024933  0.770000
-0.179398  0.024998  0.772000
-0.177928  0.024998  0.772000
-0.176686  0.025030  0.773000
-0.175213  0.025030  0.773000
-0.174190  0.025095  0.775000
-0.024960  0.023573  0.728000
-0.023573  0.023573  0.728000
-0.022187  0.023573  0.728000
-0.020800  0.023573  0.728000
-0.019413  0.023573  0.728000
-0.018051  0.023606  0.729000
-0.016709  0.023670  0.731000
-0.015316  0.023670  0.731000
-0.013924  0.023670  0.731000
-0.012549  0.023703  0.732000
-0.011154  0.023703  0.732000
-0.009787  0.023768  0.734000
-0.008389  0.023768  0.734000
-0.006990  0.023768  0.734000
-0.005608  0.023832  0.736000
-0.004206  0.023832  0.736000
-0.002808  0.023865  0.737000
-0.001404  0.023865  0.737000
0.000000  0.023865  0.737000
0.001408  0.023930  0.739000
0.002819  0.023962  0.740000
0.004240  0.024027  0.742000
0.005653  0.024027  0.742000
0.007067  0.024027  0.742000
0.008491  0.024059  0.743000
0.009907  0.024059  0.743000
0.011322  0.024059  0.743000
0.012737  0.024059  0.743000
0.014190  0.024124  0.745000
0.015610  0.024124  0.745000
0.017074  0.024189  0.747000
0.018522  0.024221  0.748000
0.019947  0.024221  0.748000
0.021429  0.024286  0.750000
0.022918  0.024350  0.752000
0.024383  0.024383  0.753000
0.025817  0.024383  0.753000
0.027324  0.024448  0.755000
0.028800  0.024480  0.756000
0.030320  0.024545  0.758000
0.031764  0.024545  0.758000
0.033295  0.024610  0.760000
0.034743  0.024610  0.760000
0.036238  0.024642  0.761000
0.037787  0.024707  0.763000
0.039240  0.024707  0.763000
0.040800  0.024771  0.765000
0.042257  0.024771  0.765000
0.043829  0.024836  0.767000
0.045349  0.024869  0.768000
0.046811  0.024869  0.768000
0.048274  0.024869  0.768000
0.049867  0.024933  0.770000
0.051467  0.024998  0.772000
0.052937  0.024998  0.772000
0.054408  0.024998  0.772000
0.055950  0.025030  0.773000
0.057423  0.025030  0.773000
0.059048  0.025095  0.775000
0.060680  0.025160  0.777000
0.062160  0.025160  0.777000
0.063640  0.025160  0.777000
0.065120  0.025160  0.777000
0.066771  0.025225  0.779000
0.068343  0.025257  0.780000
0.070008  0.025322  0.782000
0.071680  0.025387  0.784000
0.073173  0.025387  0.784000
0.074857  0.025451  0.786000
0.076549  0.025516  0.788000
0.078050  0.025516  0.788000
0.079651  0.025549  0.789000
0.081154  0.025549  0.789000
0.082867  0.025613  0.791000
0.084373  0.025613  0.791000
0.086097  0.025678  0.793000
0.087829  0.025743  0.795000
0.089343  0.025743  0.795000
0.090857  0.025743  0.795000
0.092604  0.025808  0.797000
0.094240  0.025840  0.798000
0.095760  0.025840  0.798000
0.097524  0.025905  0.800000
0.099048  0.025905  0.800000
0.100571  0.025905  0.800000
0.102095  0.025905  0.800000
0.103619  0.025905  0.800000
-0.284297  0.021059  0.691000
-0.282981  0.021059  0.691000
-0.281665  0.021059  0.691000
-0.280349  0.021059  0.691000
-0.279032  0.021059  0.691000
-0.278520  0.021120  0.693000
-0.277600  0.021150  0.694000
-0.276278  0.021150  0.694000
-0.275352  0.021181  0.695000
-0.274029  0.021181  0.695000
-0.273490  0.021242  0.697000
-0.272162  0.021242  0.697000
-0.272000  0.021333  0.700000
-0.270667  0.021333  0.700000
-0.269718  0.021364  0.701000
-0.268383  0.021364  0.701000
-0.267810  0.021425  0.703000
-0.266470  0.021425  0.703000
-0.265509  0.021455  0.704000
-0.264543  0.021486  0.705000
-0.263200  0.021486  0.705000
-0.262600  0.021547  0.707000
-0.261623  0.021577  0.708000
-0.260274  0.021577  0.708000
-0.258926  0.021577  0.708000
-0.258669  0.021669  0.711000
-0.257314  0.021669  0.711000
-0.256680  0.021730  0.713000
-0.255322  0.021730  0.713000
-0.254320  0.021760  0.714000
-0.252960  0.021760  0.714000
-0.251600  0.021760  0.714000
-0.250240  0.021760  0.714000
-0.249926  0.021851  0.717000
-0.249253  0.021912  0.719000
-0.247884  0.021912  0.719000
-0.246514  0.021912  0.719000
-0.245486  0.021943  0.720000
-0.244114  0.021943  0.720000
-0.242743  0.021943  0.720000
-0.242042  0.022004  0.722000
-0.240667  0.022004  0.722000
-0.239623  0.022034  0.723000
-0.238905  0.022095  0.725000
-0.237851  0.022126  0.726000
-0.236469  0.022126  0.726000
-0.235733  0.022187  0.728000
-0.234669  0.022217  0.729000
-0.233920  0.022278  0.731000
-0.232528  0.022278  0.731000
-0.231135  0.022278  0.731000
-0.230057  0.022309  0.732000
-0.228663  0.022309  0.732000
-0.227269  0.022309  0.732000
-0.227109  0.022430  0.736000
-0.225707  0.022430  0.736000
-0.224610  0.022461  0.737000
-0.223206  0.022461  0.737000
-0.222404  0.022522  0.739000
-0.220996  0.022522  0.739000
-0.219886  0.022552  0.740000
-0.218476  0.022552  0.740000
-0.217653  0.022613  0.742000
-0.216531  0.022644  0.743000
-0.215116  0.022644  0.743000
-0.213701  0.022644  0.743000
-0.212857  0.022705  0.745000
-0.211438  0.022705  0.745000
-0.210583  0.022766  0.747000
-0.209440  0.022796  0.748000
-0.208571  0.022857  0.750000
-0.207143  0.022857  0.750000
-0.206263  0.022918  0.752000
-0.204830  0.022918  0.752000
-0.203669  0.022949  0.753000
-0.202234  0.022949  0.753000
-0.201333  0.023010  0.755000
-0.199895  0.023010  0.755000
-0.198720  0.023040  0.756000
-0.197280  0.023040  0.756000
-0.196358  0.023101  0.758000
-0.194914  0.023101  0.758000
-0.193470  0.023101  0.758000
-0.192533  0.023162  0.760000
-0.191086  0.023162  0.760000
-0.189888  0.023192  0.761000
-0.188933  0.023253  0.763000
-0.187971  0.023314  0.765000
-0.186514  0.023314  0.765000
-0.185541  0.023375  0.767000
-0.184320  0.023406  0.768000
-0.182857  0.023406  0.768000
-0.181867  0.023467  0.770000
-0.180400  0.023467  0.770000
-0.179398  0.023528  0.772000
-0.177928  0.023528  0.772000
-0.176686  0.023558  0.773000
-0.175213  0.023558  0.773000
-0.023509  0.022126  0.726000
-0.022126  0.022126  0.726000
-0.020800  0.022187  0.728000
-0.019413  0.022187  0.728000
-0.018051  0.022217  0.729000
-0.016663  0.022217  0.729000
-0.015316  0.022278  0.731000
-0.013924  0.022278  0.731000
-0.012531  0.022278  0.731000
-0.011154  0.022309  0.732000
-0.009760  0.022309  0.732000
-0.008366  0.022309  0.732000
-0.006971  0.022309  0.732000
-0.005592  0.022370  0.734000
-0.004206  0.022430  0.736000
-0.002804  0.022430  0.736000
-0.001404  0.022461  0.737000
0.000000  0.022461  0.737000
0.001404  0.022461  0.737000
0.002815  0.022522  0.739000
0.004229  0.022552  0.740000
0.005638  0.022552  0.740000
0.007067  0.022613  0.742000
0.008491  0.022644  0.743000
0.009907  0.022644  0.743000
0.011322  0.022644  0.743000
0.012737  0.022644  0.743000
0.014152  0.022644  0.743000
0.015610  0.022705  0.745000
0.017029  0.022705  0.745000
0.018497  0.022766  0.747000
0.019947  0.022796  0.748000
0.021429  0.022857  0.750000
0.022918  0.022918  0.752000
0.024383  0.022949  0.753000
0.025817  0.022949  0.753000
0.027324  0.023010  0.755000
0.028800  0.023040  0.756000
0.030320  0.023101  0.758000
0.031764  0.023101  0.758000
0.033208  0.023101  0.758000
0.034743  0.023162  0.760000
0.036238  0.023192  0.761000
0.037787  0.023253  0.763000
0.039240  0.023253  0.763000
0.040800  0.023314  0.765000
0.042257  0.023314  0.765000
0.043829  0.023375  0.767000
0.045349  0.023406  0.768000
0.046811  0.023406  0.768000
0.048274  0.023406  0.768000
0.049867  0.023467  0.770000
0.051333  0.023467  0.770000
0.052800  0.023467  0.770000
0.054408  0.023528  0.772000
0.055878  0.023528  0.772000
0.057423  0.023558  0.773000
0.059048  0.023619  0.775000
0.060680  0.023680  0.777000
0.062160  0.023680  0.777000
0.063640  0.023680  0.777000
0.065120  0.023680  0.777000
0.066771  0.023741  0.779000
0.068343  0.023771  0.780000
0.070008  0.023832  0.782000
0.071497  0.023832  0.782000
0.073173  0.023893  0.784000
0.074857  0.023954  0.786000
0.076549  0.024015  0.788000
0.078050  0.024015  0.788000
0.079651  0.024046  0.789000
0.081154  0.024046  0.789000
0.082657  0.024046  0.789000
0.084373  0.024107  0.791000
0.086097  0.024168  0.793000
0.087829  0.024229  0.795000
0.089343  0.024229  0.795000
0.091086  0.024290  0.797000
0.092604  0.024290  0.797000
0.094240  0.024320  0.798000
0.095760  0.024320  0.798000
0.097524  0.024381  0.800000
0.099048  0.024381  0.800000
0.100571  0.024381  0.800000
0.102350  0.024442  0.802000
0.103878  0.024442  0.802000
-0.284297  0.019743  0.691000
-0.282981  0.019743  0.691000
-0.281665  0.019743  0.691000
-0.280349  0.019743  0.691000
-0.279032  0.019743  0.691000
-0.277716  0.019743  0.691000
-0.277200  0.019800  0.693000
-0.276278  0.019829  0.694000
-0.275352  0.019857  0.695000
-0.274029  0.019857  0.695000
-0.273490  0.019914  0.697000
-0.272162  0.019914  0.697000
-0.271223  0.019943  0.698000
-0.270667  0.020000  0.700000
-0.269718  0.020029  0.701000
-0.268383  0.020029  0.701000
-0.267810  0.020086  0.703000
-0.266470  0.020086  0.703000
-0.265509  0.020114  0.704000
-0.264543  0.020143  0.705000
-0.263200  0.020143  0.705000
-0.262600  0.020200  0.707000
-0.261623  0.020229  0.708000
-0.260274  0.020229  0.708000
-0.258926  0.020229  0.708000
-0.258305  0.020286  0.710000
-0.257314  0.020314  0.711000
-0.256680  0.020371  0.713000
-0.255322  0.020371  0.713000
-0.254320  0.020400  0.714000
-0.252960  0.020400  0.714000
-0.251600  0.020400  0.714000
-0.250240  0.020400  0.714000
-0.249577  0.020457  0.716000
-0.249253  0.020543  0.719000
-0.247884  0.020543  0.719000
-0.246857  0.020571  0.720000
-0.245486  0.020571  0.720000
-0.244792  0.020629  0.722000
-0.243417  0.020629  0.722000
-0.242042  0.020629  0.722000
-0.241000  0.020657  0.723000
-0.239623  0.020657  0.723000
-0.238905  0.020714  0.725000
-0.237851  0.020743  0.726000
-0.236469  0.020743  0.726000
-0.235733  0.020800  0.728000
-0.234669  0.020829  0.729000
-0.233920  0.020886  0.731000
-0.232528  0.020886  0.731000
-0.231135  0.020886  0.731000
-0.229743  0.020886  0.731000
-0.228350  0.020886  0.731000
-0.227269  0.020914  0.732000
-0.226491  0.020971  0.734000
-0.225093  0.020971  0.734000
-0.224305  0.021029  0.736000
-0.223811  0.021114  0.739000
-0.222404  0.021114  0.739000
-0.220996  0.021114  0.739000
-0.219886  0.021143  0.740000
-0.219067  0.021200  0.742000
-0.217653  0.021200  0.742000
-0.216531  0.021229  0.743000
-0.215116  0.021229  0.743000
-0.213701  0.021229  0.743000
-0.212857  0.021286  0.745000
-0.211438  0.021286  0.745000
-0.210583  0.021343  0.747000
-0.209440  0.021371  0.748000
-0.208571  0.021429  0.750000
-0.207143  0.021429  0.750000
-0.206263  0.021486  0.752000
-0.204830  0.021486  0.752000
-0.203669  0.021514  0.753000
-0.202234  0.021514  0.753000
-0.201333  0.021571  0.755000
-0.199895  0.021571  0.755000
-0.198720  0.021600  0.756000
-0.197280  0.021600  0.756000
-0.196358  0.021657  0.758000
-0.194914  0.021657  0.758000
-0.193470  0.021657  0.758000
-0.192533  0.021714  0.760000
-0.191086  0.021714  0.760000
-0.189888  0.021743  0.761000
-0.188933  0.021800  0.763000
-0.187971  0.021857  0.765000
-0.186514  0.021857  0.765000
-0.185541  0.021914  0.767000
-0.184320  0.021943  0.768000
-0.182857  0.021943  0.768000
-0.181867  0.022000  0.770000
-0.180400  0.022000  0.770000
-0.179398  0.022057  0.772000
-0.177928  0.022057  0.772000
-0.176686  0.022086  0.773000
-0.023509  0.020743  0.726000
-0.022126  0.020743  0.726000
-0.020800  0.020800  0.728000
-0.019413  0.020800  0.728000
-0.018027  0.020800  0.728000
-0.016663  0.020829  0.729000
-0.015316  0.020886  0.731000
-0.013924  0.020886  0.731000
-0.012531  0.020886  0.731000
-0.011154  0.020914  0.732000
-0.009760  0.020914  0.732000
-0.008366  0.020914  0.732000
-0.006971  0.020914  0.732000
-0.005592  0.020971  0.734000
-0.004206  0.021029  0.736000
-0.002804  0.021029  0.736000
-0.001404  0.021057  0.737000
0.000000  0.021057  0.737000
0.001404  0.021057  0.737000
0.002815  0.021114  0.739000
0.004223  0.021114  0.739000
0.005638  0.021143  0.740000
0.007067  0.021200  0.742000
0.008480  0.021200  0.742000
0.009893  0.021200  0.742000
0.011322  0.021229  0.743000
0.012737  0.021229  0.743000
0.014152  0.021229  0.743000
0.015568  0.021229  0.743000
0.017029  0.021286  0.745000
0.018448  0.021286  0.745000
0.019920  0.021343  0.747000
0.021371  0.021371  0.748000
0.022857  0.021429  0.750000
0.024350  0.021486  0.752000
0.025817  0.021514  0.753000
0.027324  0.021571  0.755000
0.028800  0.021600  0.756000
0.030240  0.021600  0.756000
0.031680  0.021600  0.756000
0.033208  0.021657  0.758000
0.034651  0.021657  0.758000
0.036238  0.021743  0.761000
0.037688  0.021743  0.761000
0.039137  0.021743  0.761000
0.040800  0.021857  0.765000
0.042257  0.021857  0.765000
0.043829  0.021914  0.767000
0.045290  0.021914  0.767000
0.046811  0.021943  0.768000
0.048274  0.021943  0.768000
0.049737  0.021943  0.768000
0.051333  0.022000  0.770000
0.052800  0.022000  0.770000
0.054267  0.022000  0.770000
0.055733  0.022000  0.770000
0.057349  0.022057  0.772000
0.058895  0.022086  0.773000
0.060524  0.022143  0.775000
0.062160  0.022200  0.777000
0.063640  0.022200  0.777000
0.065120  0.022200  0.777000
0.066771  0.022257  0.779000
0.068343  0.022286  0.780000
0.070008  0.022343  0.782000
0.071497  0.022343  0.782000
0.073173  0.022400  0.784000
0.074857  0.022457  0.786000
0.076549  0.022514  0.788000
0.078050  0.022514  0.788000
0.079651  0.022543  0.789000
0.081154  0.022543  0.789000
0.082657  0.022543  0.789000
0.084373  0.022600  0.791000
0.086097  0.022657  0.793000
0.087829  0.022714  0.795000
0.089343  0.022714  0.795000
0.091086  0.022771  0.797000
0.092604  0.022771  0.797000
0.094240  0.022800  0.798000
0.096000  0.022857  0.800000
0.097524  0.022857  0.800000
0.099048  0.022857  0.800000
0.100571  0.022857  0.800000
0.102350  0.022914  0.802000
-0.282981  0.018427  0.691000
-0.281665  0.018427  0.691000
-0.280349  0.018427  0.691000
-0.279032  0.018427  0.691000
-0.277716  0.018427  0.691000
-0.277200  0.018480  0.693000
-0.276278  0.018507  0.694000
-0.275352  0.018533  0.695000
-0.274029  0.018533  0.695000
-0.273490  0.018587  0.697000
-0.272162  0.018587  0.697000
-0.271223  0.018613  0.698000
-0.270667  0.018667  0.700000
-0.269718  0.018693  0.701000
-0.268383  0.018693  0.701000
-0.267048  0.018693  0.701000
-0.266470  0.018747  0.703000
-0.265509  0.018773  0.704000
-0.264543  0.018800  0.705000
-0.263200  0.018800  0.705000
-0.262600  0.018853  0.707000
-0.261253  0.018853  0.707000
-0.260274  0.018880  0.708000
-0.258926  0.018880  0.708000
-0.257577  0.018880  0.708000
-0.257314  0.018960  0.711000
-0.256680  0.019013  0.713000
-0.255322  0.019013  0.713000
-0.253964  0.019013  0.713000
-0.252960  0.019040  0.714000
-0.251600  0.019040  0.714000
-0.250240  0.019040  0.714000
-0.249577  0.019093  0.716000
-0.249253  0.019173  0.719000
-0.248229  0.019200  0.720000
-0.246857  0.019200  0.720000
-0.246168  0.019253  0.722000
-0.244792  0.019253  0.722000
-0.243754  0.019280  0.723000
-0.242377  0.019280  0.723000
-0.241000  0.019280  0.723000
-0.240286  0.019333  0.725000
-0.238905  0.019333  0.725000
-0.237851  0.019360  0.726000
-0.236469  0.019360  0.726000
-0.235733  0.019413  0.728000
-0.234669  0.019440  0.729000
-0.233920  0.019493  0.731000
-0.232528  0.019493  0.731000
-0.231135  0.019493  0.731000
-0.229743  0.019493  0.731000
-0.228350  0.019493  0.731000
-0.227269  0.019520  0.732000
-0.226491  0.019573  0.734000
-0.225093  0.019573  0.734000
-0.224305  0.019627  0.736000
-0.223811  0.019707  0.739000
-0.222404  0.019707  0.739000
-0.221295  0.019733  0.740000
-0.219886  0.019733  0.740000
-0.219067  0.019787  0.742000
-0.217653  0.019787  0.742000
-0.216531  0.019813  0.743000
-0.215116  0.019813  0.743000
-0.213701  0.019813  0.743000
-0.212857  0.019867  0.745000
-0.211438  0.019867  0.745000
-0.210583  0.019920  0.747000
-0.209440  0.019947  0.748000
-0.208571  0.020000  0.750000
-0.207143  0.020000  0.750000
-0.206263  0.020053  0.752000
-0.204830  0.020053  0.752000
-0.203398  0.020053  0.752000
-0.202234  0.020080  0.753000
-0.201333  0.020133  0.755000
-0.199895  0.020133  0.755000
-0.198720  0.020160  0.756000
-0.197280  0.020160  0.756000
-0.196358  0.020213  0.758000
-0.194914  0.020213  0.758000
-0.193470  0.020213  0.758000
-0.192533  0.020267  0.760000
-0.191840  0.020347  0.763000
-0.190387  0.020347  0.763000
-0.189429  0.020400  0.765000
-0.187971  0.020400  0.765000
-0.187002  0.020453  0.767000
-0.185541  0.020453  0.767000
-0.184320  0.020480  0.768000
-0.183333  0.020533  0.770000
-0.181867  0.020533  0.770000
-0.180869  0.020587  0.772000
-0.179398  0.020587  0.772000
-0.178158  0.020613  0.773000
-0.176686  0.020613  0.773000
-0.023509  0.019360  0.726000
-0.022126  0.019360  0.726000
-0.020743  0.019360  0.726000
-0.019413  0.019413  0.728000
-0.018027  0.019413  0.728000
-0.016640  0.019413  0.728000
-0.015274  0.019440  0.729000
-0.013924  0.019493  0.731000
-0.012531  0.019493  0.731000
-0.011154  0.019520  0.732000
-0.009760  0.019520  0.732000
-0.008366  0.019520  0.732000
-0.006971  0.019520  0.732000
-0.005577  0.019520  0.732000
-0.004194  0.019573  0.734000
-0.002796  0.019573  0.734000
-0.001402  0.019627  0.736000
0.000000  0.019627  0.736000
0.001402  0.019627  0.736000
0.002808  0.019653  0.737000
0.004211  0.019653  0.737000
0.005630  0.019707  0.739000
0.007048  0.019733  0.740000
0.008480  0.019787  0.742000
0.009893  0.019787  0.742000
0.011307  0.019787  0.742000
0.012737  0.019813  0.743000
0.014152  0.019813  0.743000
0.015568  0.019813  0.743000
0.017029  0.019867  0.745000
0.018448  0.019867  0.745000
0.019920  0.019920  0.747000
0.021371  0.019947  0.748000
0.022857  0.020000  0.750000
0.024350  0.020053  0.752000
0.025783  0.020053  0.752000
0.027324  0.020133  0.755000
0.028762  0.020133  0.755000
0.030240  0.020160  0.756000
0.031680  0.020160  0.756000
0.033208  0.020213  0.758000
0.034651  0.020213  0.758000
0.036190  0.020267  0.760000
0.037688  0.020293  0.761000
0.039137  0.020293  0.761000
0.040693  0.020347  0.763000
0.042257  0.020400  0.765000
0.043714  0.020400  0.765000
0.045290  0.020453  0.767000
0.046750  0.020453  0.767000
0.048211  0.020453  0.767000
0.049737  0.020480  0.768000
0.051200  0.020480  0.768000
0.052663  0.020480  0.768000
0.054267  0.020533  0.770000
0.055733  0.020533  0.770000
0.057349  0.020587  0.772000
0.058819  0.020587  0.772000
0.060524  0.020667  0.775000
0.062000  0.020667  0.775000
0.063640  0.020720  0.777000
0.065120  0.020720  0.777000
0.066771  0.020773  0.779000
0.068343  0.020800  0.780000
0.070008  0.020853  0.782000
0.071497  0.020853  0.782000
0.073173  0.020907  0.784000
0.074857  0.020960  0.786000
0.076549  0.021013  0.788000
0.078149  0.021040  0.789000
0.079651  0.021040  0.789000
0.081154  0.021040  0.789000
0.082867  0.021093  0.791000
0.084373  0.021093  0.791000
0.086097  0.021147  0.793000
0.087829  0.021200  0.795000
0.089343  0.021200  0.795000
0.091086  0.021253  0.797000
0.092720  0.021280  0.798000
0.094240  0.021280  0.798000
0.096000  0.021333  0.800000
0.097768  0.021387  0.802000
0.099048  0.021333  0.800000
0.100571  0.021333  0.800000
0.102350  0.021387  0.802000
-0.282571  0.017086  0.690000
-0.281257  0.017086  0.690000
-0.280349  0.017110  0.691000
-0.279032  0.017110  0.691000
-0.277716  0.017110  0.691000
-0.277200  0.017160  0.693000
-0.276278  0.017185  0.694000
-0.275352  0.017210  0.695000
-0.274029  0.017210  0.695000
-0.273490  0.017259  0.697000
-0.272162  0.017259  0.697000
-0.271223  0.017284  0.698000
-0.270667  0.017333  0.700000
-0.269718  0.017358  0.701000
-0.268383  0.017358  0.701000
-0.267048  0.017358  0.701000
-0.266470  0.017408  0.703000
-0.265509  0.017432  0.704000
-0.264543  0.017457  0.705000
-0.263200  0.017457  0.705000
-0.262600  0.017507  0.707000
-0.261253  0.017507  0.707000
-0.260274  0.017531  0.708000
-0.258926  0.017531  0.708000
-0.257577  0.017531  0.708000
-0.257314  0.017606  0.711000
-0.256680  0.017655  0.713000
-0.255322  0.017655  0.713000
-0.253964  0.017655  0.713000
-0.252960  0.017680  0.714000
-0.251600  0.017680  0.714000
-0.250240  0.017680  0.714000
-0.249926  0.017754  0.717000
-0.249253  0.017804  0.719000
-0.248229  0.017829  0.720000
-0.246857  0.017829  0.720000
-0.246168  0.017878  0.722000
-0.245131  0.017903  0.723000
-0.243754  0.017903  0.723000
-0.243048  0.017952  0.725000
-0.241667  0.017952  0.725000
-0.240286  0.017952  0.725000
-0.239234  0.017977  0.726000
-0.237851  0.017977  0.726000
-0.236469  0.017977  0.726000
-0.235733  0.018027  0.728000
-0.234669  0.018051  0.729000
-0.233920  0.018101  0.731000
-0.232528  0.018101  0.731000
-0.231135  0.018101  0.731000
-0.230057  0.018126  0.732000
-0.228663  0.018126  0.732000
-0.227269  0.018126  0.732000
-0.226491  0.018175  0.734000
-0.225093  0.018175  0.734000
-0.224305  0.018225  0.736000
-0.223811  0.018299  0.739000
-0.222404  0.018299  0.739000
-0.221295  0.018324  0.740000
-0.219886  0.018324  0.740000
-0.219067  0.018373  0.742000
-0.217653  0.018373  0.742000
-0.216531  0.018398  0.743000
-0.215116  0.018398  0.743000
-0.213701  0.018398  0.743000
-0.212857  0.018448  0.745000
-0.211438  0.018448  0.745000
-0.210583  0.018497  0.747000
-0.210000  0.018571  0.750000
-0.208571  0.018571  0.750000
-0.207143  0.018571  0.750000
-0.206263  0.018621  0.752000
-0.204830  0.018621  0.752000
-0.203398  0.018621  0.752000
-0.202234  0.018646  0.753000
-0.201333  0.018695  0.755000
-0.199895  0.018695  0.755000
-0.198720  0.018720  0.756000
-0.197280  0.018720  0.756000
-0.196358  0.018770  0.758000
-0.194914  0.018770  0.758000
-0.193981  0.018819  0.760000
-0.192787  0.018844  0.761000
-0.191840  0.018893  0.763000
-0.190387  0.018893  0.763000
-0.189429  0.018943  0.765000
-0.187971  0.018943  0.765000
-0.187002  0.018992  0.767000
-0.185783  0.019017  0.768000
-0.184800  0.019067  0.770000
-0.183333  0.019067  0.770000
-0.182339  0.019116  0.772000
-0.180869  0.019116  0.772000
-0.179398  0.019116  0.772000
-0.178158  0.019141  0.773000
-0.176686  0.019141  0.773000
-0.022126  0.017977  0.726000
-0.020743  0.017977  0.726000
-0.019413  0.018027  0.728000
-0.018027  0.018027  0.728000
-0.016640  0.018027  0.728000
-0.015274  0.018051  0.729000
-0.013924  0.018101  0.731000
-0.012531  0.018101  0.731000
-0.011139  0.018101  0.731000
-0.009760  0.018126  0.732000
-0.008354  0.018101  0.731000
-0.006962  0.018101  0.731000
-0.005577  0.018126  0.732000
-0.004183  0.018126  0.732000
-0.002796  0.018175  0.734000
-0.001402  0.018225  0.736000
0.000000  0.018225  0.736000
0.001402  0.018225  0.736000
0.002808  0.018250  0.737000
0.004211  0.018250  0.737000
0.005630  0.018299  0.739000
0.007048  0.018324  0.740000
0.008480  0.018373  0.742000
0.009893  0.018373  0.742000
0.011307  0.018373  0.742000
0.012737  0.018398  0.743000
0.014152  0.018398  0.743000
0.015568  0.018398  0.743000
0.017029  0.018448  0.745000
0.018448  0.018448  0.745000
0.019867  0.018448  0.745000
0.021371  0.018522  0.748000
0.022796  0.018522  0.748000
0.024286  0.018571  0.750000
0.025783  0.018621  0.752000
0.027251  0.018646  0.753000
0.028762  0.018695  0.755000
0.030240  0.018720  0.756000
0.031680  0.018720  0.756000
0.033120  0.018720  0.756000
0.034651  0.018770  0.758000
0.036095  0.018770  0.758000
0.037688  0.018844  0.761000
0.039137  0.018844  0.761000
0.040693  0.018893  0.763000
0.042257  0.018943  0.765000
0.043714  0.018943  0.765000
0.045290  0.018992  0.767000
0.046750  0.018992  0.767000
0.048211  0.018992  0.767000
0.049737  0.019017  0.768000
0.051200  0.019017  0.768000
0.052663  0.019017  0.768000
0.054267  0.019067  0.770000
0.055733  0.019067  0.770000
0.057349  0.019116  0.772000
0.058819  0.019116  0.772000
0.060368  0.019141  0.773000
0.062000  0.019190  0.775000
0.063640  0.019240  0.777000
0.065120  0.019240  0.777000
0.066771  0.019290  0.779000
0.068343  0.019314  0.780000
0.070008  0.019364  0.782000
0.071680  0.019413  0.784000
0.073360  0.019463  0.786000
0.075048  0.019512  0.788000
0.076549  0.019512  0.788000
0.078149  0.019537  0.789000
0.079651  0.019537  0.789000
0.081360  0.019587  0.791000
0.082867  0.019587  0.791000
0.084373  0.019587  0.791000
0.086097  0.019636  0.793000
0.087829  0.019686  0.795000
0.089568  0.019735  0.797000
0.091086  0.019735  0.797000
0.092720  0.019760  0.798000
0.094476  0.019810  0.800000
0.096000  0.019810  0.800000
0.097768  0.019859  0.802000
0.099295  0.019859  0.802000
0.100823  0.019859  0.802000
0.102350  0.019859  0.802000
-0.282571  0.015771  0.690000
-0.281257  0.015771  0.690000
-0.280349  0.015794  0.691000
-0.279032  0.015794  0.691000
-0.277716  0.015794  0.691000
-0.277200  0.015840  0.693000
-0.276278  0.015863  0.694000
-0.275352  0.015886  0.695000
-0.274029  0.015886  0.695000
-0.273490  0.015931  0.697000
-0.272162  0.015931  0.697000
-0.271223  0.015954  0.698000
-0.270667  0.016000  0.700000
-0.269718  0.016023  0.701000
-0.268383  0.016023  0.701000
-0.267048  0.016023  0.701000
-0.266470  0.016069  0.703000
-0.265509  0.016091  0.704000
-0.264543  0.016114  0.705000
-0.263200  0.016114  0.705000
-0.262600  0.016160  0.707000
-0.261253  0.016160  0.707000
-0.260274  0.016183  0.708000
-0.258926  0.016183  0.708000
-0.257577  0.016183  0.708000
-0.257314  0.016251  0.711000
-0.256680  0.016297  0.713000
-0.255322  0.016297  0.713000
-0.253964  0.016297  0.713000
-0.252606  0.016297  0.713000
-0.251600  0.016320  0.714000
-0.250240  0.016320  0.714000
-0.249926  0.016389  0.717000
-0.249253  0.016434  0.719000
-0.248229  0.016457  0.720000
-0.246857  0.016457  0.720000
-0.246168  0.016503  0.722000
-0.244792  0.016503  0.722000
-0.243754  0.016526  0.723000
-0.243048  0.016571  0.725000
-0.241667  0.016571  0.725000
-0.240617  0.016594  0.726000
-0.239234  0.016594  0.726000
-0.238507  0.016640  0.728000
-0.237120  0.016640  0.728000
-0.235733  0.016640  0.728000
-0.234669  0.016663  0.729000
-0.233920  0.016709  0.731000
-0.232528  0.016709  0.731000
-0.231135  0.016709  0.731000
-0.230057  0.016731  0.732000
-0.228663  0.016731  0.732000
-0.227269  0.016731  0.732000
-0.226491  0.016777  0.734000
-0.225093  0.016777  0.734000
-0.224610  0.016846  0.737000
-0.223811  0.016891  0.739000
-0.222404  0.016891  0.739000
-0.221295  0.016914  0.740000
-0.219886  0.016914  0.740000
-0.219067  0.016960  0.742000
-0.217653  0.016960  0.742000
-0.216531  0.016983  0.743000
-0.215116  0.016983  0.743000
-0.213701  0.016983  0.743000
-0.212857  0.017029  0.745000
-0.211438  0.017029  0.745000
-0.210865  0.017097  0.748000
-0.210000  0.017143  0.750000
-0.208571  0.017143  0.750000
-0.207143  0.017143  0.750000
-0.206263  0.017189  0.752000
-0.204830  0.017189  0.752000
-0.203398  0.017189  0.752000
-0.202234  0.017211  0.753000
-0.201333  0.017257  0.755000
-0.199895  0.017257  0.755000
-0.198720  0.017280  0.756000
-0.197802  0.017326  0.758000
-0.196358  0.017326  0.758000
-0.195429  0.017371  0.760000
-0.193981  0.017371  0.760000
-0.192787  0.017394  0.761000
-0.191840  0.017440  0.763000
-0.190387  0.017440  0.763000
-0.189429  0.017486  0.765000
-0.187971  0.017486  0.765000
-0.187002  0.017531  0.767000
-0.185783  0.017554  0.768000
-0.184800  0.017600  0.770000
-0.183333  0.017600  0.770000
-0.182339  0.017646  0.772000
-0.180869  0.017646  0.772000
-0.179630  0.017669  0.773000
-0.178158  0.017669  0.773000
-0.176686  0.017669  0.773000
-0.022126  0.016594  0.726000
-0.020743  0.016594  0.726000
-0.019413  0.016640  0.728000
-0.018027  0.016640  0.728000
-0.016640  0.016640  0.728000
-0.015253  0.016640  0.728000
-0.013886  0.016663  0.729000
-0.012497  0.016663  0.729000
-0.011139  0.016709  0.731000
-0.009747  0.016709  0.731000
-0.008354  0.016709  0.731000
-0.006962  0.016709  0.731000
-0.005570  0.016709  0.731000
-0.004183  0.016731  0.732000
-0.002789  0.016731  0.732000
-0.001398  0.016777  0.734000
0.000000  0.016823  0.736000
0.001402  0.016823  0.736000
0.002804  0.016823  0.736000
0.004211  0.016846  0.737000
0.005630  0.016891  0.739000
0.007038  0.016891  0.739000
0.008457  0.016914  0.740000
0.009893  0.016960  0.742000
0.011307  0.016960  0.742000
0.012737  0.016983  0.743000
0.014152  0.016983  0.743000
0.015568  0.016983  0.743000
0.017029  0.017029  0.745000
0.018448  0.017029  0.745000
0.019867  0.017029  0.745000
0.021343  0.017074  0.747000
0.022796  0.017097  0.748000
0.024286  0.017143  0.750000
0.025783  0.017189  0.752000
0.027251  0.017211  0.753000
0.028762  0.017257  0.755000
0.030240  0.017280  0.756000
0.031680  0.017280  0.756000
0.033120  0.017280  0.756000
0.034651  0.017326  0.758000
0.036095  0.017326  0.758000
0.037638  0.017371  0.760000
0.039137  0.017394  0.761000
0.040693  0.017440  0.763000
0.042257  0.017486  0.765000
0.043714  0.017486  0.765000
0.045290  0.017531  0.767000
0.046750  0.017531  0.767000
0.048211  0.017531  0.767000
0.049737  0.017554  0.768000
0.051333  0.017600  0.770000
0.052800  0.017600  0.770000
0.054267  0.017600  0.770000
0.055733  0.017600  0.770000
0.057349  0.017646  0.772000
0.058819  0.017646  0.772000
0.060368  0.017669  0.773000
0.062000  0.017714  0.775000
0.063640  0.017760  0.777000
0.065120  0.017760  0.777000
0.066857  0.017829  0.780000
0.068518  0.017874  0.782000
0.070008  0.017874  0.782000
0.071680  0.017920  0.784000
0.073360  0.017966  0.786000
0.075048  0.018011  0.788000
0.076646  0.018034  0.789000
0.078149  0.018034  0.789000
0.079853  0.018080  0.791000
0.081360  0.018080  0.791000
0.082867  0.018080  0.791000
0.084587  0.018126  0.793000
0.086097  0.018126  0.793000
0.088050  0.018217  0.797000
0.089568  0.018217  0.797000
0.091200  0.018240  0.798000
0.092952  0.018286  0.800000
0.094476  0.018286  0.800000
0.096240  0.018331  0.802000
0.097768  0.018331  0.802000
0.099543  0.018377  0.804000
0.101074  0.018377  0.804000
0.102606  0.018377  0.804000
0.159691  0.021531  0.942000
0.161486  0.021531  0.942000
0.163800  0.021600  0.945000
0.166126  0.021669  0.948000
0.167931  0.021669  0.948000
0.170095  0.021714  0.950000
0.172448  0.021783  0.953000
0.174629  0.021829  0.955000
0.176448  0.021829  0.955000
0.178267  0.021829  0.955000
-0.282981  0.014478  0.691000
-0.281665  0.014478  0.691000
-0.280349  0.014478  0.691000
-0.279032  0.014478  0.691000
-0.277716  0.014478  0.691000
-0.276400  0.014478  0.691000
-0.275880  0.014520  0.693000
-0.275352  0.014562  0.695000
-0.274029  0.014562  0.695000
-0.273490  0.014604  0.697000
-0.272162  0.014604  0.697000
-0.271223  0.014625  0.698000
-0.270667  0.014667  0.700000
-0.269718  0.014688  0.701000
-0.268383  0.014688  0.701000
-0.267048  0.014688  0.701000
-0.266470  0.014730  0.703000
-0.265131  0.014730  0.703000
-0.264168  0.014750  0.704000
-0.263200  0.014771  0.705000
-0.262600  0.014813  0.707000
-0.261253  0.014813  0.707000
-0.260274  0.014834  0.708000
-0.258926  0.014834  0.708000
-0.258305  0.014876  0.710000
-0.257314  0.014897  0.711000
-0.255960  0.014897  0.711000
-0.255322  0.014939  0.713000
-0.253964  0.014939  0.713000
-0.252606  0.014939  0.713000
-0.251248  0.014939  0.713000
-0.250240  0.014960  0.714000
-0.249926  0.015023  0.717000
-0.249253  0.015065  0.719000
-0.248229  0.015086  0.720000
-0.246857  0.015086  0.720000
-0.246168  0.015128  0.722000
-0.244792  0.015128  0.722000
-0.243754  0.015149  0.723000
-0.243048  0.015190  0.725000
-0.241667  0.015190  0.725000
-0.240617  0.015211  0.726000
-0.239234  0.015211  0.726000
-0.237851  0.015211  0.726000
-0.236469  0.015211  0.726000
-0.235733  0.015253  0.728000
-0.234669  0.015274  0.729000
-0.233920  0.015316  0.731000
-0.232528  0.015316  0.731000
-0.231135  0.015316  0.731000
-0.230057  0.015337  0.732000
-0.228663  0.015337  0.732000
-0.227890  0.015379  0.734000
-0.226491  0.015379  0.734000
-0.225707  0.015421  0.736000
-0.224610  0.015442  0.737000
-0.223811  0.015484  0.739000
-0.222404  0.015484  0.739000
-0.221295  0.015505  0.740000
-0.219886  0.015505  0.740000
-0.219067  0.015547  0.742000
-0.217653  0.015547  0.742000
-0.216531  0.015568  0.743000
-0.215116  0.015568  0.743000
-0.214276  0.015610  0.745000
-0.212857  0.015610  0.745000
-0.212006  0.015651  0.747000
-0.210865  0.015672  0.748000
-0.210000  0.015714  0.750000
-0.208571  0.015714  0.750000
-0.207143  0.015714  0.750000
-0.206263  0.015756  0.752000
-0.204830  0.015756  0.752000
-0.203398  0.015756  0.752000
-0.202234  0.015777  0.753000
-0.201333  0.015819  0.755000
-0.199895  0.015819  0.755000
-0.198720  0.015840  0.756000
-0.197802  0.015882  0.758000
-0.196876  0.015924  0.760000
-0.195686  0.015945  0.761000
-0.194236  0.015945  0.761000
-0.193293  0.015987  0.763000
-0.191840  0.015987  0.763000
-0.190886  0.016029  0.765000
-0.189429  0.016029  0.765000
-0.188463  0.016070  0.767000
-0.187246  0.016091  0.768000
-0.186267  0.016133  0.770000
-0.185280  0.016175  0.772000
-0.183810  0.016175  0.772000
-0.182339  0.016175  0.772000
-0.181103  0.016196  0.773000
-0.180095  0.016238  0.775000
-0.179080  0.016280  0.777000
-0.177600  0.016280  0.777000
-0.176120  0.016280  0.777000
-0.022126  0.015211  0.726000
-0.020743  0.015211  0.726000
-0.019360  0.015211  0.726000
-0.017977  0.015211  0.726000
-0.016594  0.015211  0.726000
-0.015253  0.015253  0.728000
-0.013867  0.015253  0.728000
-0.012480  0.015253  0.728000
-0.011109  0.015274  0.729000
-0.009747  0.015316  0.731000
-0.008331  0.015274  0.729000
-0.006943  0.015274  0.729000
-0.005570  0.015316  0.731000
-0.004177  0.015316  0.731000
-0.002789  0.015337  0.732000
-0.001394  0.015337  0.732000
0.000000  0.015421  0.736000
0.001402  0.015421  0.736000
0.002804  0.015421  0.736000
0.004211  0.015442  0.737000
0.005630  0.015484  0.739000
0.007038  0.015484  0.739000
0.008457  0.015505  0.740000
0.009893  0.015547  0.742000
0.011307  0.015547  0.742000
0.012720  0.015547  0.742000
0.014152  0.015568  0.743000
0.015568  0.015568  0.743000
0.016983  0.015568  0.743000
0.018448  0.015610  0.745000
0.019867  0.015610  0.745000
0.021343  0.015651  0.747000
0.022796  0.015672  0.748000
0.024350  0.015756  0.752000
0.025783  0.015756  0.752000
0.027251  0.015777  0.753000
0.028762  0.015819  0.755000
0.030200  0.015819  0.755000
0.031680  0.015840  0.756000
0.033120  0.015840  0.756000
0.034651  0.015882  0.758000
0.036095  0.015882  0.758000
0.037638  0.015924  0.760000
0.039137  0.015945  0.761000
0.040693  0.015987  0.763000
0.042257  0.016029  0.765000
0.043829  0.016070  0.767000
0.045290  0.016070  0.767000
0.046811  0.016091  0.768000
0.048274  0.016091  0.768000
0.049867  0.016133  0.770000
0.051333  0.016133  0.770000
0.052800  0.016133  0.770000
0.054267  0.016133  0.770000
0.055878  0.016175  0.772000
0.057349  0.016175  0.772000
0.058819  0.016175  0.772000
0.060524  0.016238  0.775000
0.062160  0.016280  0.777000
0.063640  0.016280  0.777000
0.065288  0.016322  0.779000
0.066857  0.016343  0.780000
0.068518  0.016385  0.782000
0.070187  0.016427  0.784000
0.071680  0.016427  0.784000
0.073360  0.016469  0.786000
0.075048  0.016510  0.788000
0.076646  0.016531  0.789000
0.078149  0.016531  0.789000
0.079853  0.016573  0.791000
0.081360  0.016573  0.791000
0.082867  0.016573  0.791000
0.084587  0.016615  0.793000
0.086314  0.016657  0.795000
0.088050  0.016699  0.797000
0.089568  0.016699  0.797000
0.091200  0.016720  0.798000
0.092952  0.016762  0.800000
0.094712  0.016804  0.802000
0.096240  0.016804  0.802000
0.098011  0.016846  0.804000
0.099543  0.016846  0.804000
0.101074  0.016846  0.804000
0.102606  0.016846  0.804000
0.157059  0.019632  0.937000
0.158844  0.019632  0.937000
0.161143  0.019695  0.940000
0.163280  0.019737  0.942000
0.165600  0.019800  0.945000
0.167400  0.019800  0.945000
0.169737  0.019863  0.948000
0.171905  0.019905  0.950000
0.174263  0.019968  0.953000
0.176078  0.019968  0.953000
0.176400  0.019800  0.945000
0.178200  0.019800  0.945000
-0.282981  0.013162  0.691000
-0.281665  0.013162  0.691000
-0.280349  0.013162  0.691000
-0.279032  0.013162  0.691000
-0.277716  0.013162  0.691000
-0.276400  0.013162  0.691000
-0.275880  0.013200  0.693000
-0.274956  0.013219  0.694000
-0.273634  0.013219  0.694000
-0.272705  0.013238  0.695000
-0.272162  0.013276  0.697000
-0.271223  0.013295  0.698000
-0.269893  0.013295  0.698000
-0.269333  0.013333  0.700000
-0.268383  0.013352  0.701000
-0.267048  0.013352  0.701000
-0.266470  0.013390  0.703000
-0.265131  0.013390  0.703000
-0.264168  0.013410  0.704000
-0.263200  0.013429  0.705000
-0.262600  0.013467  0.707000
-0.261253  0.013467  0.707000
-0.260274  0.013486  0.708000
-0.258926  0.013486  0.708000
-0.257577  0.013486  0.708000
-0.256952  0.013524  0.710000
-0.255960  0.013543  0.711000
-0.255322  0.013581  0.713000
-0.253964  0.013581  0.713000
-0.252606  0.013581  0.713000
-0.251248  0.013581  0.713000
-0.251291  0.013657  0.717000
-0.249926  0.013657  0.717000
-0.249253  0.013695  0.719000
-0.248229  0.013714  0.720000
-0.246857  0.013714  0.720000
-0.245486  0.013714  0.720000
-0.244792  0.013752  0.722000
-0.243754  0.013771  0.723000
-0.243048  0.013810  0.725000
-0.241667  0.013810  0.725000
-0.240617  0.013829  0.726000
-0.239234  0.013829  0.726000
-0.237851  0.013829  0.726000
-0.236469  0.013829  0.726000
-0.235733  0.013867  0.728000
-0.234669  0.013886  0.729000
-0.233920  0.013924  0.731000
-0.232528  0.013924  0.731000
-0.231135  0.013924  0.731000
-0.230057  0.013943  0.732000
-0.228663  0.013943  0.732000
-0.227890  0.013981  0.734000
-0.226491  0.013981  0.734000
-0.225707  0.014019  0.736000
-0.224610  0.014038  0.737000
-0.223811  0.014076  0.739000
-0.222404  0.014076  0.739000
-0.221295  0.014095  0.740000
-0.219886  0.014095  0.740000
-0.219067  0.014133  0.742000
-0.217947  0.014152  0.743000
-0.216531  0.014152  0.743000
-0.215695  0.014190  0.745000
-0.214276  0.014190  0.745000
-0.213429  0.014229  0.747000
-0.212006  0.014229  0.747000
-0.210865  0.014248  0.748000
-0.210000  0.014286  0.750000
-0.208571  0.014286  0.750000
-0.207143  0.014286  0.750000
-0.206263  0.014324  0.752000
-0.204830  0.014324  0.752000
-0.203669  0.014343  0.753000
-0.202771  0.014381  0.755000
-0.201333  0.014381  0.755000
-0.200160  0.014400  0.756000
-0.199246  0.014438  0.758000
-0.197802  0.014438  0.758000
-0.196876  0.014476  0.760000
-0.195686  0.014495  0.761000
-0.194747  0.014533  0.763000
-0.193293  0.014533  0.763000
-0.191840  0.014533  0.763000
-0.190886  0.014571  0.765000
-0.189429  0.014571  0.765000
-0.188463  0.014610  0.767000
-0.187246  0.014629  0.768000
-0.186267  0.014667  0.770000
-0.185280  0.014705  0.772000
-0.183810  0.014705  0.772000
-0.182575  0.014724  0.773000
-0.181571  0.014762  0.775000
-0.180560  0.014800  0.777000
-0.179080  0.014800  0.777000
-0.177600  0.014800  0.777000
-0.176120  0.014800  0.777000
-0.020743  0.013829  0.726000
-0.019360  0.013829  0.726000
-0.017977  0.013829  0.726000
-0.016594  0.013829  0.726000
-0.015211  0.013829  0.726000
-0.013867  0.013867  0.728000
-0.012480  0.013867  0.728000
-0.011109  0.013886  0.729000
-0.009747  0.013924  0.731000
-0.008331  0.013886  0.729000
-0.006943  0.013886  0.729000
-0.005570  0.013924  0.731000
-0.004177  0.013924  0.731000
-0.002785  0.013924  0.731000
-0.001394  0.013943  0.732000
0.000000  0.013981  0.734000
0.001402  0.014019  0.736000
0.002804  0.014019  0.736000
0.004211  0.014038  0.737000
0.005630  0.014076  0.739000
0.007038  0.014076  0.739000
0.008457  0.014095  0.740000
0.009893  0.014133  0.742000
0.011307  0.014133  0.742000
0.012720  0.014133  0.742000
0.014152  0.014152  0.743000
0.015568  0.014152  0.743000
0.016983  0.014152  0.743000
0.018448  0.014190  0.745000
0.019867  0.014190  0.745000
0.021343  0.014229  0.747000
0.022796  0.014248  0.748000
0.024350  0.014324  0.752000
0.025783  0.014324  0.752000
0.027251  0.014343  0.753000
0.028762  0.014381  0.755000
0.030200  0.014381  0.755000
0.031680  0.014400  0.756000
0.033120  0.014400  0.756000
0.034651  0.014438  0.758000
0.036095  0.014438  0.758000
0.037688  0.014495  0.761000
0.039137  0.014495  0.761000
0.040693  0.014533  0.763000
0.042257  0.014571  0.765000
0.043829  0.014610  0.767000
0.045290  0.014610  0.767000
0.046811  0.014629  0.768000
0.048274  0.014629  0.768000
0.049867  0.014667  0.770000
0.051333  0.014667  0.770000
0.052800  0.014667  0.770000
0.054408  0.014705  0.772000
0.055878  0.014705  0.772000
0.057349  0.014705  0.772000
0.058895  0.014724  0.773000
0.060524  0.014762  0.775000
0.062160  0.014800  0.777000
0.063804  0.014838  0.779000
0.065371  0.014857  0.780000
0.067029  0.014895  0.782000
