# .PCD v.5 - Point Cloud Data file format
FIELDS x y z 
SIZE 4 4 4
TYPE F F F
COUNT 1 1 1
WIDTH 1565
HEIGHT 1
POINTS 1565
DATA ascii
0.019280  -0.123943  0.723000
0.020657  -0.123943  0.723000
0.022034  -0.123943  0.723000
0.023411  -0.123943  0.723000
0.024857  -0.124286  0.725000
0.026238  -0.124286  0.725000
0.027619  -0.124286  0.725000
0.029000  -0.124286  0.725000
0.030381  -0.124286  0.725000
0.031762  -0.124286  0.725000
0.034286  -0.128571  0.750000
0.035714  -0.128571  0.750000
0.037143  -0.128571  0.750000
0.038571  -0.128571  0.750000
0.040000  -0.128571  0.750000
0.041042  -0.127371  0.743000
0.042457  -0.127371  0.743000
0.043813  -0.127200  0.742000
0.045105  -0.126857  0.740000
0.046326  -0.126343  0.737000
0.047665  -0.126171  0.736000
0.049067  -0.126171  0.736000
0.050469  -0.126171  0.736000
0.051730  -0.125829  0.734000
0.053128  -0.125829  0.734000
0.054749  -0.126343  0.737000
0.056152  -0.126343  0.737000
0.057556  -0.126343  0.737000
0.059120  -0.126686  0.739000
0.060610  -0.126857  0.740000
0.061768  -0.126343  0.737000
0.063171  -0.126343  0.737000
0.065276  -0.127714  0.745000
0.069029  -0.129429  0.755000
0.070467  -0.129429  0.755000
0.071905  -0.129429  0.755000
0.074286  -0.128571  0.750000
0.075714  -0.128571  0.750000
0.077143  -0.128571  0.750000
0.078571  -0.128571  0.750000
0.079787  -0.128229  0.748000
0.081211  -0.128229  0.748000
0.082636  -0.128229  0.748000
0.084286  -0.128571  0.750000
0.085714  -0.128571  0.750000
0.090000  -0.128571  0.750000
0.090819  -0.127714  0.745000
0.092238  -0.127714  0.745000
0.093657  -0.127714  0.745000
0.095076  -0.127714  0.745000
0.096495  -0.127714  0.745000
0.097914  -0.127714  0.745000
0.099333  -0.127714  0.745000
0.100752  -0.127714  0.745000
0.102171  -0.127714  0.745000
0.103312  -0.127371  0.743000
0.104728  -0.127371  0.743000
0.104857  -0.125829  0.734000
0.106255  -0.125829  0.734000
0.107653  -0.125829  0.734000
0.108754  -0.125486  0.732000
0.110149  -0.125486  0.732000
0.112152  -0.126171  0.736000
0.113554  -0.126171  0.736000
0.114956  -0.126171  0.736000
0.116516  -0.126343  0.737000
0.117440  -0.125829  0.734000
0.118514  -0.125486  0.732000
0.119909  -0.125486  0.732000
0.121137  -0.125314  0.731000
0.122530  -0.125314  0.731000
0.123922  -0.125314  0.731000
0.124800  -0.124800  0.728000
0.126187  -0.124800  0.728000
0.127573  -0.124800  0.728000
0.129137  -0.124971  0.729000
0.130526  -0.124971  0.729000
0.133181  -0.126171  0.736000
0.134583  -0.126171  0.736000
0.136170  -0.126343  0.737000
0.137387  -0.126171  0.736000
0.138789  -0.126171  0.736000
0.142857  -0.128571  0.750000
0.144286  -0.128571  0.750000
0.146103  -0.128914  0.752000
0.146750  -0.128229  0.748000
0.146590  -0.126857  0.740000
0.147400  -0.126343  0.737000
0.148804  -0.126343  0.737000
0.150208  -0.126343  0.737000
0.152023  -0.126686  0.739000
0.153430  -0.126686  0.739000
0.155048  -0.126857  0.740000
0.156457  -0.126857  0.740000
0.157867  -0.126857  0.740000
0.159276  -0.126857  0.740000
0.161337  -0.127371  0.743000
0.162752  -0.127371  0.743000
0.165714  -0.128571  0.750000
0.167589  -0.128914  0.752000
0.168122  -0.128229  0.748000
0.169547  -0.128229  0.748000
0.170971  -0.128229  0.748000
0.172396  -0.128229  0.748000
0.173821  -0.128229  0.748000
0.173840  -0.127200  0.742000
0.175253  -0.127200  0.742000
0.176667  -0.127200  0.742000
0.178080  -0.127200  0.742000
0.179493  -0.127200  0.742000
0.180907  -0.127200  0.742000
0.182320  -0.127200  0.742000
0.183733  -0.127200  0.742000
0.185147  -0.127200  0.742000
0.186560  -0.127200  0.742000
0.187973  -0.127200  0.742000
0.189387  -0.127200  0.742000
0.190800  -0.127200  0.742000
0.197177  -0.124971  0.729000
0.198566  -0.124971  0.729000
0.199954  -0.124971  0.729000
0.201343  -0.124971  0.729000
0.202731  -0.124971  0.729000
0.204120  -0.124971  0.729000
0.205509  -0.124971  0.729000
0.208884  -0.126171  0.736000
0.210286  -0.126171  0.736000
0.213413  -0.127200  0.742000
0.214827  -0.127200  0.742000
0.216531  -0.127371  0.743000
0.217653  -0.127200  0.742000
0.219067  -0.127200  0.742000
0.220480  -0.127200  0.742000
0.221893  -0.127200  0.742000
0.223608  -0.127371  0.743000
0.225629  -0.127714  0.745000
0.227048  -0.127714  0.745000
0.228467  -0.127714  0.745000
0.229886  -0.127714  0.745000
0.231305  -0.127714  0.745000
0.232724  -0.127714  0.745000
0.235714  -0.128571  0.750000
0.233981  -0.126857  0.740000
0.235390  -0.126857  0.740000
0.236800  -0.126857  0.740000
0.238210  -0.126857  0.740000
0.239619  -0.126857  0.740000
-0.432238  -0.125667  0.725000
-0.430857  -0.125667  0.725000
-0.430069  -0.125840  0.726000
-0.428686  -0.125840  0.726000
-0.427303  -0.125840  0.726000
-0.423573  -0.125147  0.722000
-0.422198  -0.125147  0.722000
-0.420823  -0.125147  0.722000
-0.419448  -0.125147  0.722000
-0.416335  -0.124627  0.719000
-0.414966  -0.124627  0.719000
-0.413596  -0.124627  0.719000
-0.412227  -0.124627  0.719000
-0.408000  -0.123760  0.714000
-0.406070  -0.123587  0.713000
-0.403010  -0.123067  0.710000
-0.400526  -0.122720  0.708000
-0.399177  -0.122720  0.708000
-0.397829  -0.122720  0.708000
-0.396480  -0.122720  0.708000
-0.396248  -0.123067  0.710000
-0.395451  -0.123240  0.711000
-0.395206  -0.123587  0.713000
-0.394400  -0.123760  0.714000
-0.394691  -0.124280  0.717000
-0.394423  -0.124627  0.719000
-0.393053  -0.124627  0.719000
-0.391684  -0.124627  0.719000
-0.390314  -0.124627  0.719000
-0.388945  -0.124627  0.719000
-0.388114  -0.124800  0.720000
-0.384594  -0.124107  0.716000
-0.383230  -0.124107  0.716000
-0.382400  -0.124280  0.717000
-0.380503  -0.124107  0.716000
-0.378080  -0.123760  0.714000
-0.376720  -0.123760  0.714000
-0.376411  -0.124107  0.716000
-0.374000  -0.123760  0.714000
-0.372640  -0.123760  0.714000
-0.369720  -0.123240  0.711000
-0.368366  -0.123240  0.711000
-0.366495  -0.123067  0.710000
-0.365143  -0.123067  0.710000
-0.363790  -0.123067  0.710000
-0.361417  -0.122720  0.708000
-0.360069  -0.122720  0.708000
-0.358720  -0.122720  0.708000
-0.357371  -0.122720  0.708000
-0.356023  -0.122720  0.708000
-0.354674  -0.122720  0.708000
-0.353326  -0.122720  0.708000
-0.352971  -0.123067  0.710000
-0.351619  -0.123067  0.710000
-0.350267  -0.123067  0.710000
-0.347931  -0.122720  0.708000
-0.346583  -0.122720  0.708000
-0.346210  -0.123067  0.710000
-0.335863  -0.123240  0.711000
-0.334509  -0.123240  0.711000
-0.333154  -0.123240  0.711000
-0.330400  -0.122720  0.708000
-0.335558  -0.125147  0.722000
-0.334183  -0.125147  0.722000
-0.331886  -0.124800  0.720000
-0.330514  -0.124800  0.720000
-0.329143  -0.124800  0.720000
-0.327316  -0.124627  0.719000
-0.325040  -0.124280  0.717000
-0.323674  -0.124280  0.717000
-0.323208  -0.124627  0.719000
-0.321838  -0.124627  0.719000
-0.310882  -0.124627  0.719000
-0.309512  -0.124627  0.719000
-0.308143  -0.124627  0.719000
-0.314027  -0.127573  0.736000
-0.312625  -0.127573  0.736000
-0.311223  -0.127573  0.736000
-0.309821  -0.127573  0.736000
-0.295429  -0.122200  0.705000
-0.294086  -0.122200  0.705000
-0.292743  -0.122200  0.705000
-0.300080  -0.125840  0.726000
-0.298697  -0.125840  0.726000
-0.297314  -0.125840  0.726000
-0.295931  -0.125840  0.726000
-0.294549  -0.125840  0.726000
-0.293166  -0.125840  0.726000
-0.291381  -0.125667  0.725000
-0.290000  -0.125667  0.725000
-0.288619  -0.125667  0.725000
-0.287238  -0.125667  0.725000
-0.285857  -0.125667  0.725000
-0.260280  -0.125320  0.723000
-0.258903  -0.125320  0.723000
-0.256457  -0.124800  0.720000
-0.255086  -0.124800  0.720000
-0.253362  -0.124627  0.719000
-0.251992  -0.124627  0.719000
-0.250623  -0.124627  0.719000
-0.249253  -0.124627  0.719000
-0.247884  -0.124627  0.719000
-0.246514  -0.124627  0.719000
-0.244463  -0.124280  0.717000
-0.243097  -0.124280  0.717000
-0.241731  -0.124280  0.717000
-0.240030  -0.124107  0.716000
-0.238667  -0.124107  0.716000
-0.236640  -0.123760  0.714000
-0.235280  -0.123760  0.714000
-0.233920  -0.123760  0.714000
-0.232560  -0.123760  0.714000
-0.231200  -0.123760  0.714000
-0.229840  -0.123760  0.714000
-0.228480  -0.123760  0.714000
-0.227120  -0.123760  0.714000
-0.225760  -0.123760  0.714000
-0.224400  -0.123760  0.714000
-0.223040  -0.123760  0.714000
-0.221680  -0.123760  0.714000
-0.220320  -0.123760  0.714000
-0.219573  -0.124107  0.716000
-0.218210  -0.124107  0.716000
-0.217149  -0.124280  0.717000
-0.216385  -0.124627  0.719000
-0.215015  -0.124627  0.719000
-0.213646  -0.124627  0.719000
-0.212276  -0.124627  0.719000
-0.211200  -0.124800  0.720000
-0.209829  -0.124800  0.720000
-0.208457  -0.124800  0.720000
-0.207086  -0.124800  0.720000
-0.205714  -0.124800  0.720000
-0.204343  -0.124800  0.720000
-0.202971  -0.124800  0.720000
-0.202160  -0.125147  0.722000
-0.200785  -0.125147  0.722000
-0.199410  -0.125147  0.722000
-0.198309  -0.125320  0.723000
-0.198566  -0.126360  0.729000
-0.197718  -0.126707  0.731000
-0.196326  -0.126707  0.731000
-0.194933  -0.126707  0.731000
-0.193541  -0.126707  0.731000
-0.192411  -0.126880  0.732000
-0.191017  -0.126880  0.732000
-0.180274  -0.124280  0.717000
-0.184398  -0.128093  0.739000
-0.182990  -0.128093  0.739000
-0.178143  -0.125667  0.725000
-0.176762  -0.125667  0.725000
-0.176832  -0.126707  0.731000
-0.175440  -0.126707  0.731000
-0.174048  -0.126707  0.731000
-0.172655  -0.126707  0.731000
-0.171263  -0.126707  0.731000
-0.169870  -0.126707  0.731000
-0.169170  -0.127227  0.734000
-0.167771  -0.127227  0.734000
-0.166827  -0.127573  0.736000
-0.165425  -0.127573  0.736000
-0.164023  -0.127573  0.736000
-0.162621  -0.127573  0.736000
-0.161219  -0.127573  0.736000
-0.160034  -0.127747  0.737000
-0.158630  -0.127747  0.737000
-0.157227  -0.127747  0.737000
-0.155823  -0.127747  0.737000
-0.155048  -0.128267  0.740000
-0.148985  -0.126707  0.731000
-0.147592  -0.126707  0.731000
-0.145600  -0.126187  0.728000
-0.144213  -0.126187  0.728000
-0.142434  -0.125840  0.726000
-0.141051  -0.125840  0.726000
-0.140053  -0.126187  0.728000
-0.138857  -0.126360  0.729000
-0.137469  -0.126360  0.729000
-0.136080  -0.126360  0.729000
-0.134691  -0.126360  0.729000
-0.134217  -0.127227  0.734000
-0.123922  -0.126707  0.731000
-0.122530  -0.126707  0.731000
-0.121137  -0.126707  0.731000
-0.119909  -0.126880  0.732000
-0.118514  -0.126880  0.732000
-0.117120  -0.126880  0.732000
-0.116042  -0.127227  0.734000
-0.114644  -0.127227  0.734000
-0.113554  -0.127573  0.736000
-0.112305  -0.127747  0.737000
-0.099429  -0.125667  0.725000
-0.098048  -0.125667  0.725000
-0.096667  -0.125667  0.725000
-0.095286  -0.125667  0.725000
-0.093905  -0.125667  0.725000
-0.092524  -0.125667  0.725000
-0.091143  -0.125667  0.725000
-0.089762  -0.125667  0.725000
-0.088503  -0.125840  0.726000
-0.087120  -0.125840  0.726000
-0.085737  -0.125840  0.726000
-0.084354  -0.125840  0.726000
-0.082971  -0.125840  0.726000
-0.082488  -0.127227  0.734000
-0.080869  -0.126880  0.732000
-0.079474  -0.126880  0.732000
-0.078080  -0.126880  0.732000
-0.076686  -0.126880  0.732000
-0.075291  -0.126880  0.732000
-0.067383  -0.127747  0.737000
-0.065979  -0.127747  0.737000
-0.064575  -0.127747  0.737000
-0.063343  -0.128093  0.739000
-0.061935  -0.128093  0.739000
-0.060528  -0.128093  0.739000
-0.059120  -0.128093  0.739000
-0.048133  -0.125147  0.722000
-0.046758  -0.125147  0.722000
-0.045571  -0.125667  0.725000
-0.044190  -0.125667  0.725000
-0.042869  -0.125840  0.726000
-0.041486  -0.125840  0.726000
-0.040103  -0.125840  0.726000
-0.038720  -0.125840  0.726000
-0.037337  -0.125840  0.726000
-0.035806  -0.125320  0.723000
-0.034429  -0.125320  0.723000
-0.032914  -0.124800  0.720000
-0.031543  -0.124800  0.720000
-0.030171  -0.124800  0.720000
-0.028800  -0.124800  0.720000
-0.027390  -0.124627  0.719000
-0.026021  -0.124627  0.719000
-0.024651  -0.124627  0.719000
-0.023282  -0.124627  0.719000
-0.021912  -0.124627  0.719000
-0.020543  -0.124627  0.719000
-0.015421  -0.127573  0.736000
-0.014019  -0.127573  0.736000
-0.012617  -0.127573  0.736000
-0.011215  -0.127573  0.736000
-0.009813  -0.127573  0.736000
-0.008411  -0.127573  0.736000
-0.007010  -0.127573  0.736000
-0.005608  -0.127573  0.736000
-0.004211  -0.127747  0.737000
-0.002815  -0.128093  0.739000
-0.001408  -0.128093  0.739000
0.000000  -0.128093  0.739000
0.001408  -0.128093  0.739000
0.002686  -0.122200  0.705000
0.015065  -0.124627  0.719000
0.016434  -0.124627  0.719000
0.017804  -0.124627  0.719000
0.019173  -0.124627  0.719000
0.020657  -0.125320  0.723000
0.022034  -0.125320  0.723000
0.023411  -0.125320  0.723000
0.024857  -0.125667  0.725000
0.026238  -0.125667  0.725000
0.027619  -0.125667  0.725000
0.029000  -0.125667  0.725000
0.035714  -0.130000  0.750000
0.037143  -0.130000  0.750000
0.038571  -0.130000  0.750000
0.040000  -0.130000  0.750000
0.040987  -0.128613  0.742000
0.042400  -0.128613  0.742000
0.043695  -0.128267  0.740000
0.045105  -0.128267  0.740000
0.046326  -0.127747  0.737000
0.047665  -0.127573  0.736000
0.049067  -0.127573  0.736000
0.050469  -0.127573  0.736000
0.051730  -0.127227  0.734000
0.053128  -0.127227  0.734000
0.054526  -0.127227  0.734000
0.056076  -0.127573  0.736000
0.057478  -0.127573  0.736000
0.058960  -0.127747  0.737000
0.060610  -0.128267  0.740000
0.061265  -0.126707  0.731000
0.062657  -0.126707  0.731000
0.064050  -0.126707  0.731000
0.081211  -0.129653  0.748000
0.082636  -0.129653  0.748000
0.091990  -0.128787  0.743000
0.093406  -0.128787  0.743000
0.094821  -0.128787  0.743000
0.096236  -0.128787  0.743000
0.097651  -0.128787  0.743000
0.099067  -0.128787  0.743000
0.100482  -0.128787  0.743000
0.101760  -0.128613  0.742000
0.103173  -0.128613  0.742000
0.103036  -0.126707  0.731000
0.104429  -0.126707  0.731000
0.105966  -0.126880  0.732000
0.107360  -0.126880  0.732000
0.108754  -0.126880  0.732000
0.110149  -0.126880  0.732000
0.111543  -0.126880  0.732000
0.112937  -0.126880  0.732000
0.114331  -0.126880  0.732000
0.115726  -0.126880  0.732000
0.116960  -0.126707  0.731000
0.118352  -0.126707  0.731000
0.119745  -0.126707  0.731000
0.121137  -0.126707  0.731000
0.122530  -0.126707  0.731000
0.123922  -0.126707  0.731000
0.124971  -0.126360  0.729000
0.126187  -0.126187  0.728000
0.127573  -0.126187  0.728000
0.129137  -0.126360  0.729000
0.130526  -0.126360  0.729000
0.132819  -0.127227  0.734000
0.133851  -0.126880  0.732000
0.134137  -0.125840  0.726000
0.135520  -0.125840  0.726000
0.137469  -0.126360  0.729000
0.138857  -0.126360  0.729000
0.140630  -0.126707  0.731000
0.142023  -0.126707  0.731000
0.145181  -0.128267  0.740000
0.146590  -0.128267  0.740000
0.147400  -0.127747  0.737000
0.148804  -0.127747  0.737000
0.150208  -0.127747  0.737000
0.151611  -0.127747  0.737000
0.153430  -0.128093  0.739000
0.154838  -0.128093  0.739000
0.156457  -0.128267  0.740000
0.157227  -0.127747  0.737000
0.158630  -0.127747  0.737000
0.160686  -0.128267  0.740000
0.162533  -0.128613  0.742000
0.163947  -0.128613  0.742000
0.166697  -0.129653  0.748000
0.168122  -0.129653  0.748000
0.167733  -0.128267  0.740000
0.168914  -0.128093  0.739000
0.170322  -0.128093  0.739000
0.171730  -0.128093  0.739000
0.173371  -0.128267  0.740000
0.174545  -0.128093  0.739000
0.175952  -0.128093  0.739000
0.177600  -0.128267  0.740000
0.179010  -0.128267  0.740000
0.180419  -0.128267  0.740000
0.181829  -0.128267  0.740000
0.183238  -0.128267  0.740000
0.184648  -0.128267  0.740000
0.186560  -0.128613  0.742000
0.187973  -0.128613  0.742000
0.188876  -0.128267  0.740000
0.190286  -0.128267  0.740000
0.198566  -0.126360  0.729000
0.199954  -0.126360  0.729000
0.201895  -0.126707  0.731000
0.202731  -0.126360  0.729000
0.204120  -0.126360  0.729000
0.206072  -0.126707  0.731000
0.207749  -0.126880  0.732000
0.210286  -0.127573  0.736000
0.211975  -0.127747  0.737000
0.213379  -0.127747  0.737000
0.215366  -0.128093  0.739000
0.216773  -0.128093  0.739000
0.218181  -0.128093  0.739000
0.219589  -0.128093  0.739000
0.221295  -0.128267  0.740000
0.223608  -0.128787  0.743000
0.225023  -0.128787  0.743000
0.226133  -0.128613  0.742000
0.227547  -0.128613  0.742000
0.228960  -0.128613  0.742000
0.230373  -0.128613  0.742000
0.232099  -0.128787  0.743000
0.232257  -0.128093  0.739000
0.233665  -0.128093  0.739000
0.235072  -0.128093  0.739000
0.236800  -0.128267  0.740000
0.238210  -0.128267  0.740000
0.239619  -0.128267  0.740000
-0.413482  -0.122316  0.698000
-0.412152  -0.122316  0.698000
-0.410823  -0.122316  0.698000
-0.409493  -0.122316  0.698000
-0.409918  -0.122842  0.701000
-0.408583  -0.122842  0.701000
-0.408410  -0.123192  0.703000
-0.416335  -0.125996  0.719000
-0.414966  -0.125996  0.719000
-0.410145  -0.124945  0.713000
-0.408787  -0.124945  0.713000
-0.402286  -0.123368  0.704000
-0.400945  -0.123368  0.704000
-0.399604  -0.123368  0.704000
-0.399960  -0.123893  0.707000
-0.399177  -0.124069  0.708000
-0.397829  -0.124069  0.708000
-0.396480  -0.124069  0.708000
-0.396248  -0.124419  0.710000
-0.394895  -0.124419  0.710000
-0.394097  -0.124594  0.711000
-0.394400  -0.125120  0.714000
-0.394141  -0.125470  0.716000
-0.393326  -0.125646  0.717000
-0.391960  -0.125646  0.717000
-0.390594  -0.125646  0.717000
-0.388686  -0.125470  0.716000
-0.387322  -0.125470  0.716000
-0.384880  -0.125120  0.714000
-0.383520  -0.125120  0.714000
-0.383230  -0.125470  0.716000
-0.380800  -0.125120  0.714000
-0.379440  -0.125120  0.714000
-0.378080  -0.125120  0.714000
-0.376720  -0.125120  0.714000
-0.375360  -0.125120  0.714000
-0.373476  -0.124945  0.713000
-0.372118  -0.124945  0.713000
-0.369720  -0.124594  0.711000
-0.368366  -0.124594  0.711000
-0.366495  -0.124419  0.710000
-0.365143  -0.124419  0.710000
-0.363790  -0.124419  0.710000
-0.361417  -0.124069  0.708000
-0.360069  -0.124069  0.708000
-0.358720  -0.124069  0.708000
-0.357371  -0.124069  0.708000
-0.354011  -0.123368  0.704000
-0.352670  -0.123368  0.704000
-0.353326  -0.124069  0.708000
-0.351977  -0.124069  0.708000
-0.350629  -0.124069  0.708000
-0.348787  -0.123893  0.707000
-0.347440  -0.123893  0.707000
-0.346583  -0.124069  0.708000
-0.345234  -0.124069  0.708000
-0.344857  -0.124419  0.710000
-0.342152  -0.124419  0.710000
-0.340800  -0.124419  0.710000
-0.339448  -0.124419  0.710000
-0.338571  -0.124594  0.711000
-0.336743  -0.124419  0.710000
-0.335390  -0.124419  0.710000
-0.334038  -0.124419  0.710000
-0.331749  -0.124069  0.708000
-0.330400  -0.124069  0.708000
-0.327192  -0.123368  0.704000
-0.325851  -0.123368  0.704000
-0.325893  -0.123893  0.707000
-0.325006  -0.124069  0.708000
-0.328686  -0.125996  0.719000
-0.326406  -0.125646  0.717000
-0.325040  -0.125646  0.717000
-0.323674  -0.125646  0.717000
-0.323208  -0.125996  0.719000
-0.321838  -0.125996  0.719000
-0.296771  -0.123543  0.705000
-0.295429  -0.123543  0.705000
-0.294086  -0.123543  0.705000
-0.292743  -0.123543  0.705000
-0.292640  -0.124069  0.708000
-0.290880  -0.123893  0.707000
-0.289533  -0.123893  0.707000
-0.288187  -0.123893  0.707000
-0.294549  -0.127223  0.726000
-0.293166  -0.127223  0.726000
-0.291381  -0.127048  0.725000
-0.290000  -0.127048  0.725000
-0.288619  -0.127048  0.725000
-0.287238  -0.127048  0.725000
-0.285857  -0.127048  0.725000
-0.269819  -0.121090  0.691000
-0.256457  -0.126171  0.720000
-0.255086  -0.126171  0.720000
-0.253362  -0.125996  0.719000
-0.251992  -0.125996  0.719000
-0.250623  -0.125996  0.719000
-0.249253  -0.125996  0.719000
-0.247194  -0.125646  0.717000
-0.245829  -0.125646  0.717000
-0.244463  -0.125646  0.717000
-0.243097  -0.125646  0.717000
-0.241394  -0.125470  0.716000
-0.240030  -0.125470  0.716000
-0.238667  -0.125470  0.716000
-0.237303  -0.125470  0.716000
-0.235939  -0.125470  0.716000
-0.234575  -0.125470  0.716000
-0.232560  -0.125120  0.714000
-0.231200  -0.125120  0.714000
-0.229840  -0.125120  0.714000
-0.228480  -0.125120  0.714000
-0.227120  -0.125120  0.714000
-0.225760  -0.125120  0.714000
-0.224400  -0.125120  0.714000
-0.223040  -0.125120  0.714000
-0.221680  -0.125120  0.714000
-0.220320  -0.125120  0.714000
-0.219573  -0.125470  0.716000
-0.218210  -0.125470  0.716000
-0.217149  -0.125646  0.717000
-0.215783  -0.125646  0.717000
-0.215015  -0.125996  0.719000
-0.213646  -0.125996  0.719000
-0.212276  -0.125996  0.719000
-0.210907  -0.125996  0.719000
-0.209829  -0.126171  0.720000
-0.208457  -0.126171  0.720000
-0.206798  -0.125996  0.719000
-0.205429  -0.125996  0.719000
-0.204059  -0.125996  0.719000
-0.202690  -0.125996  0.719000
-0.201320  -0.125996  0.719000
-0.200785  -0.126522  0.722000
-0.199410  -0.126522  0.722000
-0.198309  -0.126697  0.723000
-0.196326  -0.128099  0.731000
-0.194933  -0.128099  0.731000
-0.193541  -0.128099  0.731000
-0.180274  -0.125646  0.717000
-0.178909  -0.125646  0.717000
-0.177543  -0.125646  0.717000
-0.176177  -0.125646  0.717000
-0.176762  -0.127048  0.725000
-0.176832  -0.128099  0.731000
-0.175440  -0.128099  0.731000
-0.174048  -0.128099  0.731000
-0.172655  -0.128099  0.731000
-0.171263  -0.128099  0.731000
-0.169170  -0.128625  0.734000
-0.167771  -0.128625  0.734000
-0.166827  -0.128975  0.736000
-0.165425  -0.128975  0.736000
-0.164023  -0.128975  0.736000
-0.162621  -0.128975  0.736000
-0.161219  -0.128975  0.736000
-0.160034  -0.129150  0.737000
-0.158630  -0.129150  0.737000
-0.157227  -0.129150  0.737000
-0.155823  -0.129150  0.737000
-0.145600  -0.127573  0.728000
-0.143817  -0.127223  0.726000
-0.142434  -0.127223  0.726000
-0.141440  -0.127573  0.728000
-0.140246  -0.127749  0.729000
-0.138857  -0.127749  0.729000
-0.137469  -0.127749  0.729000
-0.136080  -0.127749  0.729000
-0.134691  -0.127749  0.729000
-0.122194  -0.127749  0.729000
-0.120806  -0.127749  0.729000
-0.119745  -0.128099  0.731000
-0.118352  -0.128099  0.731000
-0.117120  -0.128274  0.732000
-0.099429  -0.127048  0.725000
-0.098048  -0.127048  0.725000
-0.096667  -0.127048  0.725000
-0.095286  -0.127048  0.725000
-0.093905  -0.127048  0.725000
-0.092524  -0.127048  0.725000
-0.091143  -0.127048  0.725000
-0.089762  -0.127048  0.725000
-0.088381  -0.127048  0.725000
-0.087000  -0.127048  0.725000
-0.085737  -0.127223  0.726000
-0.084354  -0.127223  0.726000
-0.082857  -0.127048  0.725000
-0.081251  -0.126697  0.723000
-0.079874  -0.126697  0.723000
-0.078714  -0.127048  0.725000
-0.078080  -0.128274  0.732000
-0.067383  -0.129150  0.737000
-0.065979  -0.129150  0.737000
-0.064575  -0.129150  0.737000
-0.063171  -0.129150  0.737000
-0.061768  -0.129150  0.737000
-0.060364  -0.129150  0.737000
-0.058960  -0.129150  0.737000
-0.057556  -0.129150  0.737000
-0.049509  -0.126522  0.722000
-0.048133  -0.126522  0.722000
-0.046758  -0.126522  0.722000
-0.045571  -0.127048  0.725000
-0.044190  -0.127048  0.725000
-0.042869  -0.127223  0.726000
-0.041486  -0.127223  0.726000
-0.040103  -0.127223  0.726000
-0.038720  -0.127223  0.726000
-0.035806  -0.126697  0.723000
-0.034429  -0.126697  0.723000
-0.033006  -0.126522  0.722000
-0.031543  -0.126171  0.720000
-0.030171  -0.126171  0.720000
-0.028800  -0.126171  0.720000
-0.027390  -0.125996  0.719000
-0.026021  -0.125996  0.719000
-0.024686  -0.126171  0.720000
-0.023282  -0.125996  0.719000
-0.021912  -0.125996  0.719000
-0.014019  -0.128975  0.736000
-0.012617  -0.128975  0.736000
-0.011154  -0.128274  0.732000
-0.009760  -0.128274  0.732000
-0.008366  -0.128274  0.732000
-0.006971  -0.128274  0.732000
-0.005577  -0.128274  0.732000
-0.004211  -0.129150  0.737000
-0.002815  -0.129501  0.739000
-0.001408  -0.129501  0.739000
0.016434  -0.125996  0.719000
0.017804  -0.125996  0.719000
0.019173  -0.125996  0.719000
0.020657  -0.126697  0.723000
0.022034  -0.126697  0.723000
0.023411  -0.126697  0.723000
0.024789  -0.126697  0.723000
0.026166  -0.126697  0.723000
0.027543  -0.126697  0.723000
0.028920  -0.126697  0.723000
0.031280  -0.125120  0.714000
0.032640  -0.125120  0.714000
0.035714  -0.131429  0.750000
0.037143  -0.131429  0.750000
0.038571  -0.131429  0.750000
0.040000  -0.131429  0.750000
0.040987  -0.130027  0.742000
0.042400  -0.130027  0.742000
0.043695  -0.129676  0.740000
0.044922  -0.129150  0.737000
0.046263  -0.128975  0.736000
0.047665  -0.128975  0.736000
0.049067  -0.128975  0.736000
0.050331  -0.128625  0.734000
0.051589  -0.128274  0.732000
0.052910  -0.128099  0.731000
0.054303  -0.128099  0.731000
0.055695  -0.128099  0.731000
0.057088  -0.128099  0.731000
0.058560  -0.128274  0.732000
0.059954  -0.128274  0.732000
0.061265  -0.128099  0.731000
0.062657  -0.128099  0.731000
0.064050  -0.128099  0.731000
0.086400  -0.126171  0.720000
0.087771  -0.126171  0.720000
0.091990  -0.130202  0.743000
0.093406  -0.130202  0.743000
0.094821  -0.130202  0.743000
0.096107  -0.130027  0.742000
0.097520  -0.130027  0.742000
0.098933  -0.130027  0.742000
0.100347  -0.130027  0.742000
0.101486  -0.129676  0.740000
0.102895  -0.129676  0.740000
0.103036  -0.128099  0.731000
0.104429  -0.128099  0.731000
0.105821  -0.128099  0.731000
0.107213  -0.128099  0.731000
0.108606  -0.128099  0.731000
0.109998  -0.128099  0.731000
0.111390  -0.128099  0.731000
0.112783  -0.128099  0.731000
0.114175  -0.128099  0.731000
0.115568  -0.128099  0.731000
0.116960  -0.128099  0.731000
0.118352  -0.128099  0.731000
0.119745  -0.128099  0.731000
0.121137  -0.128099  0.731000
0.122530  -0.128099  0.731000
0.123922  -0.128099  0.731000
0.124971  -0.127749  0.729000
0.126187  -0.127573  0.728000
0.127573  -0.127573  0.728000
0.128960  -0.127573  0.728000
0.130347  -0.127573  0.728000
0.131371  -0.127223  0.726000
0.132754  -0.127223  0.726000
0.134137  -0.127223  0.726000
0.135520  -0.127223  0.726000
0.136903  -0.127223  0.726000
0.138667  -0.127573  0.728000
0.140630  -0.128099  0.731000
0.142023  -0.128099  0.731000
0.142434  -0.127223  0.726000
0.145798  -0.128975  0.736000
0.147200  -0.128975  0.736000
0.148602  -0.128975  0.736000
0.150004  -0.128975  0.736000
0.151611  -0.129150  0.737000
0.153015  -0.129150  0.737000
0.154419  -0.129150  0.737000
0.154131  -0.127749  0.729000
0.155520  -0.127749  0.729000
0.157339  -0.128099  0.731000
0.158731  -0.128099  0.731000
0.159686  -0.127749  0.729000
0.161074  -0.127749  0.729000
0.162463  -0.127749  0.729000
0.163851  -0.127749  0.729000
0.165693  -0.128099  0.731000
0.168914  -0.129501  0.739000
0.169861  -0.129150  0.737000
0.171265  -0.129150  0.737000
0.172669  -0.129150  0.737000
0.174545  -0.129501  0.739000
0.175952  -0.129501  0.739000
0.177600  -0.129676  0.740000
0.179010  -0.129676  0.740000
0.180419  -0.129676  0.740000
0.181829  -0.129676  0.740000
0.179771  -0.127223  0.726000
0.181154  -0.127223  0.726000
0.182537  -0.127223  0.726000
0.187467  -0.129676  0.740000
0.188876  -0.129676  0.740000
0.190286  -0.129676  0.740000
0.192322  -0.129150  0.737000
0.193726  -0.129150  0.737000
0.195659  -0.129501  0.739000
0.197718  -0.128099  0.731000
0.198566  -0.127749  0.729000
0.199954  -0.127749  0.729000
0.201895  -0.128099  0.731000
0.203288  -0.128099  0.731000
0.204680  -0.128099  0.731000
0.206072  -0.128099  0.731000
0.207465  -0.128099  0.731000
0.210286  -0.128975  0.736000
0.211975  -0.129150  0.737000
0.213379  -0.129150  0.737000
0.214783  -0.129150  0.737000
0.216187  -0.129150  0.737000
0.217590  -0.129150  0.737000
0.218994  -0.129150  0.737000
0.220996  -0.129501  0.739000
0.223307  -0.130027  0.742000
0.224114  -0.129676  0.740000
0.225219  -0.129501  0.739000
0.226627  -0.129501  0.739000
0.228034  -0.129501  0.739000
0.229752  -0.129676  0.740000
0.230850  -0.129501  0.739000
0.231629  -0.129150  0.737000
0.233032  -0.129150  0.737000
0.234436  -0.129150  0.737000
0.235840  -0.129150  0.737000
0.237244  -0.129150  0.737000
0.238648  -0.129150  0.737000
-0.414811  -0.123646  0.698000
-0.413482  -0.123646  0.698000
-0.412152  -0.123646  0.698000
-0.410823  -0.123646  0.698000
-0.409493  -0.123646  0.698000
-0.409333  -0.124000  0.700000
-0.408583  -0.124177  0.701000
-0.408410  -0.124531  0.703000
-0.407070  -0.124531  0.703000
-0.405731  -0.124531  0.703000
-0.404968  -0.124709  0.704000
-0.404200  -0.124886  0.705000
-0.402286  -0.124709  0.704000
-0.400945  -0.124709  0.704000
-0.399604  -0.124709  0.704000
-0.398829  -0.124886  0.705000
-0.398613  -0.125240  0.707000
-0.397829  -0.125417  0.708000
-0.396480  -0.125417  0.708000
-0.396248  -0.125771  0.710000
-0.394895  -0.125771  0.710000
-0.394097  -0.125949  0.711000
-0.393848  -0.126303  0.713000
-0.393040  -0.126480  0.714000
-0.391680  -0.126480  0.714000
-0.391960  -0.127011  0.717000
-0.390594  -0.127011  0.717000
-0.388686  -0.126834  0.716000
-0.384617  -0.125949  0.711000
-0.383263  -0.125949  0.711000
-0.381909  -0.125949  0.711000
-0.380554  -0.125949  0.711000
-0.379200  -0.125949  0.711000
-0.377846  -0.125949  0.711000
-0.374373  -0.125240  0.707000
-0.373027  -0.125240  0.707000
-0.372206  -0.125417  0.708000
-0.370857  -0.125417  0.708000
-0.369509  -0.125417  0.708000
-0.369200  -0.125771  0.710000
-0.367848  -0.125771  0.710000
-0.365463  -0.125417  0.708000
-0.364114  -0.125417  0.708000
-0.362766  -0.125417  0.708000
-0.361417  -0.125417  0.708000
-0.360069  -0.125417  0.708000
-0.358213  -0.125240  0.707000
-0.356867  -0.125240  0.707000
-0.354011  -0.124709  0.704000
-0.352670  -0.124709  0.704000
-0.351330  -0.124709  0.704000
-0.350486  -0.124886  0.705000
-0.348648  -0.124709  0.704000
-0.347307  -0.124709  0.704000
-0.346457  -0.124886  0.705000
-0.346093  -0.125240  0.707000
-0.344747  -0.125240  0.707000
-0.343400  -0.125240  0.707000
-0.342537  -0.125417  0.708000
-0.341189  -0.125417  0.708000
-0.339840  -0.125417  0.708000
-0.339448  -0.125771  0.710000
-0.335238  -0.124709  0.704000
-0.333897  -0.124709  0.704000
-0.333029  -0.124886  0.705000
-0.334038  -0.125771  0.710000
-0.331749  -0.125417  0.708000
-0.330400  -0.125417  0.708000
-0.326728  -0.124531  0.703000
-0.325389  -0.124531  0.703000
-0.324971  -0.124886  0.705000
-0.324547  -0.125240  0.707000
-0.327771  -0.127011  0.717000
-0.326406  -0.127011  0.717000
-0.325040  -0.127011  0.717000
-0.323674  -0.127011  0.717000
-0.323208  -0.127366  0.719000
-0.311990  -0.123469  0.697000
-0.310663  -0.123469  0.697000
-0.309335  -0.123469  0.697000
-0.308008  -0.123469  0.697000
-0.307120  -0.123646  0.698000
-0.297691  -0.124709  0.704000
-0.296350  -0.124709  0.704000
-0.295010  -0.124709  0.704000
-0.293669  -0.124709  0.704000
-0.292328  -0.124709  0.704000
-0.290987  -0.124709  0.704000
-0.289646  -0.124709  0.704000
-0.288305  -0.124709  0.704000
-0.286964  -0.124709  0.704000
-0.286029  -0.124886  0.705000
-0.282667  -0.124000  0.700000
-0.281333  -0.124000  0.700000
-0.290000  -0.128429  0.725000
-0.288619  -0.128429  0.725000
-0.287238  -0.128429  0.725000
-0.284476  -0.128429  0.725000
-0.269819  -0.122406  0.691000
-0.268503  -0.122406  0.691000
-0.267187  -0.122406  0.691000
-0.256457  -0.127543  0.720000
-0.255086  -0.127543  0.720000
-0.253362  -0.127366  0.719000
-0.251992  -0.127366  0.719000
-0.250623  -0.127366  0.719000
-0.249253  -0.127366  0.719000
-0.247194  -0.127011  0.717000
-0.245829  -0.127011  0.717000
-0.244463  -0.127011  0.717000
-0.243097  -0.127011  0.717000
-0.241394  -0.126834  0.716000
-0.240030  -0.126834  0.716000
-0.238000  -0.126480  0.714000
-0.236640  -0.126480  0.714000
-0.235939  -0.126834  0.716000
-0.234575  -0.126834  0.716000
-0.232560  -0.126480  0.714000
-0.231200  -0.126480  0.714000
-0.229840  -0.126480  0.714000
-0.228480  -0.126480  0.714000
-0.227120  -0.126480  0.714000
-0.225760  -0.126480  0.714000
-0.224400  -0.126480  0.714000
-0.223040  -0.126480  0.714000
-0.221680  -0.126480  0.714000
-0.220320  -0.126480  0.714000
-0.219573  -0.126834  0.716000
-0.218210  -0.126834  0.716000
-0.217149  -0.127011  0.717000
-0.215783  -0.127011  0.717000
-0.215015  -0.127366  0.719000
-0.213646  -0.127366  0.719000
-0.212276  -0.127366  0.719000
-0.210907  -0.127366  0.719000
-0.209537  -0.127366  0.719000
-0.208457  -0.127543  0.720000
-0.205072  -0.126303  0.713000
-0.203714  -0.126303  0.713000
-0.202640  -0.126480  0.714000
-0.201280  -0.126480  0.714000
-0.199920  -0.126480  0.714000
-0.198282  -0.126303  0.713000
-0.196924  -0.126303  0.713000
-0.195566  -0.126303  0.713000
-0.180274  -0.127011  0.717000
-0.178909  -0.127011  0.717000
-0.177543  -0.127011  0.717000
-0.176177  -0.127011  0.717000
-0.166827  -0.130377  0.736000
-0.165425  -0.130377  0.736000
-0.164023  -0.130377  0.736000
-0.162621  -0.130377  0.736000
-0.161219  -0.130377  0.736000
-0.160034  -0.130554  0.737000
-0.158630  -0.130554  0.737000
-0.157653  -0.130909  0.739000
-0.145600  -0.128960  0.728000
-0.143817  -0.128606  0.726000
-0.142434  -0.128606  0.726000
-0.141440  -0.128960  0.728000
-0.140246  -0.129137  0.729000
-0.139238  -0.129491  0.731000
-0.137469  -0.129137  0.729000
-0.136080  -0.129137  0.729000
-0.122194  -0.129137  0.729000
-0.120806  -0.129137  0.729000
-0.119745  -0.129491  0.731000
-0.118352  -0.129491  0.731000
-0.099429  -0.128429  0.725000
-0.097777  -0.128074  0.723000
-0.096400  -0.128074  0.723000
-0.095023  -0.128074  0.723000
-0.093905  -0.128429  0.725000
-0.092524  -0.128429  0.725000
-0.091143  -0.128429  0.725000
-0.089762  -0.128429  0.725000
-0.088381  -0.128429  0.725000
-0.087000  -0.128429  0.725000
-0.085737  -0.128606  0.726000
-0.084354  -0.128606  0.726000
-0.082286  -0.127543  0.720000
-0.080914  -0.127543  0.720000
-0.079874  -0.128074  0.723000
-0.078714  -0.128429  0.725000
-0.067383  -0.130554  0.737000
-0.065979  -0.130554  0.737000
-0.064575  -0.130554  0.737000
-0.063171  -0.130554  0.737000
-0.061768  -0.130554  0.737000
-0.060364  -0.130554  0.737000
-0.058960  -0.130554  0.737000
-0.048333  -0.128429  0.725000
-0.046952  -0.128429  0.725000
-0.045571  -0.128429  0.725000
-0.044190  -0.128429  0.725000
-0.042869  -0.128606  0.726000
-0.041486  -0.128606  0.726000
-0.040103  -0.128606  0.726000
-0.038720  -0.128606  0.726000
-0.037286  -0.128429  0.725000
-0.035806  -0.128074  0.723000
-0.034429  -0.128074  0.723000
-0.033006  -0.127897  0.722000
-0.031543  -0.127543  0.720000
-0.030171  -0.127543  0.720000
-0.028800  -0.127543  0.720000
-0.027429  -0.127543  0.720000
-0.026057  -0.127543  0.720000
-0.024651  -0.127366  0.719000
-0.023217  -0.127011  0.717000
-0.021851  -0.127011  0.717000
-0.020371  -0.126303  0.713000
-0.019013  -0.126303  0.713000
-0.017655  -0.126303  0.713000
-0.016434  -0.127366  0.719000
-0.015065  -0.127366  0.719000
-0.013695  -0.127366  0.719000
-0.012326  -0.127366  0.719000
-0.011002  -0.127897  0.722000
-0.009680  -0.128606  0.726000
-0.008331  -0.129137  0.729000
-0.006962  -0.129491  0.731000
-0.005570  -0.129491  0.731000
-0.004211  -0.130554  0.737000
-0.002808  -0.130554  0.737000
-0.001404  -0.130554  0.737000
0.008080  -0.125240  0.707000
0.009427  -0.125240  0.707000
0.010819  -0.125771  0.710000
0.012171  -0.125771  0.710000
0.013543  -0.125949  0.711000
0.014897  -0.125949  0.711000
0.016297  -0.126303  0.713000
0.017804  -0.127366  0.719000
0.019200  -0.127543  0.720000
0.020571  -0.127543  0.720000
0.021943  -0.127543  0.720000
0.023379  -0.127897  0.722000
0.024686  -0.127543  0.720000
0.026057  -0.127543  0.720000
0.027429  -0.127543  0.720000
0.028800  -0.127543  0.720000
0.029878  -0.126303  0.713000
0.031280  -0.126480  0.714000
0.032640  -0.126480  0.714000
0.034000  -0.126480  0.714000
0.035360  -0.126480  0.714000
0.038571  -0.132857  0.750000
0.040000  -0.132857  0.750000
0.039385  -0.126303  0.713000
0.040743  -0.126303  0.713000
0.043518  -0.130554  0.737000
0.044922  -0.130554  0.737000
0.046263  -0.130377  0.736000
0.047535  -0.130023  0.734000
0.048733  -0.129491  0.731000
0.050126  -0.129491  0.731000
0.051307  -0.128960  0.728000
0.052693  -0.128960  0.728000
0.054080  -0.128960  0.728000
0.055543  -0.129137  0.729000
0.056931  -0.129137  0.729000
0.058560  -0.129669  0.732000
0.059954  -0.129669  0.732000
0.061097  -0.129137  0.729000
0.062486  -0.129137  0.729000
0.064050  -0.129491  0.731000
0.084674  -0.127011  0.717000
0.086400  -0.127543  0.720000
0.087771  -0.127543  0.720000
0.089143  -0.127543  0.720000
0.090514  -0.127543  0.720000
0.091886  -0.127543  0.720000
0.096107  -0.131440  0.742000
0.097520  -0.131440  0.742000
0.098933  -0.131440  0.742000
0.100347  -0.131440  0.742000
0.101074  -0.130554  0.737000
0.102339  -0.130377  0.736000
0.103177  -0.129669  0.732000
0.104429  -0.129491  0.731000
0.105821  -0.129491  0.731000
0.106920  -0.129137  0.729000
0.108309  -0.129137  0.729000
0.109697  -0.129137  0.729000
0.111086  -0.129137  0.729000
0.112474  -0.129137  0.729000
0.113863  -0.129137  0.729000
0.115251  -0.129137  0.729000
0.116640  -0.129137  0.729000
0.118029  -0.129137  0.729000
0.119745  -0.129491  0.731000
0.121137  -0.129491  0.731000
0.122530  -0.129491  0.731000
0.123922  -0.129491  0.731000
0.125314  -0.129491  0.731000
0.126360  -0.129137  0.729000
0.127749  -0.129137  0.729000
0.128960  -0.128960  0.728000
0.130347  -0.128960  0.728000
0.131371  -0.128606  0.726000
0.132571  -0.128429  0.725000
0.133952  -0.128429  0.725000
0.135333  -0.128429  0.725000
0.136714  -0.128429  0.725000
0.138286  -0.128606  0.726000
0.139669  -0.128606  0.726000
0.141051  -0.128606  0.726000
0.142434  -0.128606  0.726000
0.143817  -0.128606  0.726000
0.147200  -0.130377  0.736000
0.148198  -0.130023  0.734000
0.149596  -0.130023  0.734000
0.151611  -0.130554  0.737000
0.153015  -0.130554  0.737000
0.152114  -0.128606  0.726000
0.153497  -0.128606  0.726000
0.155307  -0.128960  0.728000
0.156909  -0.129137  0.729000
0.157646  -0.128606  0.726000
0.159029  -0.128606  0.726000
0.160411  -0.128606  0.726000
0.162240  -0.128960  0.728000
0.163627  -0.128960  0.728000
0.165013  -0.128960  0.728000
0.166400  -0.128960  0.728000
0.167326  -0.128606  0.726000
0.168709  -0.128606  0.726000
0.172434  -0.130377  0.736000
0.171238  -0.128429  0.725000
0.171429  -0.127543  0.720000
0.172800  -0.127543  0.720000
0.174655  -0.127897  0.722000
0.176030  -0.127897  0.722000
0.178143  -0.128429  0.725000
0.179524  -0.128429  0.725000
0.181154  -0.128606  0.726000
0.183040  -0.128960  0.728000
0.185947  -0.130023  0.734000
0.187345  -0.130023  0.734000
0.188743  -0.130023  0.734000
0.192061  -0.130377  0.736000
0.193463  -0.130377  0.736000
0.195130  -0.130554  0.737000
0.195520  -0.128960  0.728000
0.196907  -0.128960  0.728000
0.198566  -0.129137  0.729000
0.199954  -0.129137  0.729000
0.201343  -0.129137  0.729000
0.202731  -0.129137  0.729000
0.204120  -0.129137  0.729000
0.206072  -0.129491  0.731000
0.207465  -0.129491  0.731000
0.210571  -0.130554  0.737000
0.211975  -0.130554  0.737000
0.213379  -0.130554  0.737000
0.214783  -0.130554  0.737000
0.216187  -0.130554  0.737000
0.217590  -0.130554  0.737000
0.218994  -0.130554  0.737000
0.220996  -0.130909  0.739000
0.222705  -0.131086  0.740000
0.223811  -0.130909  0.739000
0.224610  -0.130554  0.737000
0.226013  -0.130554  0.737000
0.227417  -0.130554  0.737000
0.229442  -0.130909  0.739000
0.230225  -0.130554  0.737000
0.231629  -0.130554  0.737000
0.233032  -0.130554  0.737000
0.234436  -0.130554  0.737000
0.235520  -0.130377  0.736000
0.235634  -0.129669  0.732000
0.236705  -0.129491  0.731000
0.238097  -0.129491  0.731000
0.239490  -0.129491  0.731000
-0.410651  -0.123722  0.691000
-0.409335  -0.123722  0.691000
-0.411562  -0.124796  0.697000
-0.410234  -0.124796  0.697000
-0.409493  -0.124975  0.698000
-0.409333  -0.125333  0.700000
-0.408583  -0.125512  0.701000
-0.408410  -0.125870  0.703000
-0.407070  -0.125870  0.703000
-0.405731  -0.125870  0.703000
-0.404968  -0.126050  0.704000
-0.403627  -0.126050  0.704000
-0.401714  -0.125870  0.703000
-0.400375  -0.125870  0.703000
-0.399604  -0.126050  0.704000
-0.398263  -0.126050  0.704000
-0.397486  -0.126229  0.705000
-0.397267  -0.126587  0.707000
-0.395920  -0.126587  0.707000
-0.395131  -0.126766  0.708000
-0.393783  -0.126766  0.708000
-0.393543  -0.127124  0.710000
-0.393848  -0.127661  0.713000
-0.392490  -0.127661  0.713000
-0.391680  -0.127840  0.714000
-0.384617  -0.127303  0.711000
-0.383263  -0.127303  0.711000
-0.381371  -0.127124  0.710000
-0.380019  -0.127124  0.710000
-0.378667  -0.127124  0.710000
-0.377846  -0.127303  0.711000
-0.374373  -0.126587  0.707000
-0.373027  -0.126587  0.707000
-0.372206  -0.126766  0.708000
-0.370857  -0.126766  0.708000
-0.369509  -0.126766  0.708000
-0.368160  -0.126766  0.708000
-0.366293  -0.126587  0.707000
-0.364947  -0.126587  0.707000
-0.363600  -0.126587  0.707000
-0.362253  -0.126587  0.707000
-0.361417  -0.126766  0.708000
-0.360069  -0.126766  0.708000
-0.358213  -0.126587  0.707000
-0.356867  -0.126587  0.707000
-0.354011  -0.126050  0.704000
-0.352670  -0.126050  0.704000
-0.351330  -0.126050  0.704000
-0.350486  -0.126229  0.705000
-0.348648  -0.126050  0.704000
-0.347307  -0.126050  0.704000
-0.346457  -0.126229  0.705000
-0.346093  -0.126587  0.707000
-0.344747  -0.126587  0.707000
-0.343400  -0.126587  0.707000
-0.342537  -0.126766  0.708000
-0.339261  -0.126050  0.704000
-0.337920  -0.126050  0.704000
-0.336579  -0.126050  0.704000
-0.334762  -0.125870  0.703000
-0.333423  -0.125870  0.703000
-0.332556  -0.126050  0.704000
-0.330745  -0.125870  0.703000
-0.328000  -0.125333  0.700000
-0.326667  -0.125333  0.700000
-0.325798  -0.125512  0.701000
-0.324463  -0.125512  0.701000
-0.324050  -0.125870  0.703000
-0.324547  -0.126587  0.707000
-0.327771  -0.128377  0.717000
-0.326406  -0.128377  0.717000
-0.325040  -0.128377  0.717000
-0.313743  -0.124438  0.695000
-0.312419  -0.124438  0.695000
-0.311095  -0.124438  0.695000
-0.310663  -0.124796  0.697000
-0.309335  -0.124796  0.697000
-0.308008  -0.124796  0.697000
-0.306680  -0.124796  0.697000
-0.305790  -0.124975  0.698000
-0.297691  -0.126050  0.704000
-0.296350  -0.126050  0.704000
-0.295010  -0.126050  0.704000
-0.293669  -0.126050  0.704000
-0.292328  -0.126050  0.704000
-0.290987  -0.126050  0.704000
-0.289646  -0.126050  0.704000
-0.288305  -0.126050  0.704000
-0.286964  -0.126050  0.704000
-0.286029  -0.126229  0.705000
-0.282667  -0.125333  0.700000
-0.281333  -0.125333  0.700000
-0.280000  -0.125333  0.700000
-0.277472  -0.124796  0.697000
-0.276145  -0.124796  0.697000
-0.272451  -0.123722  0.691000
-0.271135  -0.123722  0.691000
-0.269819  -0.123722  0.691000
-0.268503  -0.123722  0.691000
-0.267187  -0.123722  0.691000
-0.266640  -0.124080  0.693000
-0.243097  -0.128377  0.717000
-0.240720  -0.127840  0.714000
-0.239360  -0.127840  0.714000
-0.238000  -0.127840  0.714000
-0.236640  -0.127840  0.714000
-0.235280  -0.127840  0.714000
-0.233920  -0.127840  0.714000
-0.232234  -0.127661  0.713000
-0.230876  -0.127661  0.713000
-0.229840  -0.127840  0.714000
-0.228480  -0.127840  0.714000
-0.227120  -0.127840  0.714000
-0.225760  -0.127840  0.714000
-0.224400  -0.127840  0.714000
-0.223040  -0.127840  0.714000
-0.221680  -0.127840  0.714000
-0.220320  -0.127840  0.714000
-0.219573  -0.128198  0.716000
-0.218210  -0.128198  0.716000
-0.216846  -0.128198  0.716000
-0.215482  -0.128198  0.716000
-0.214417  -0.128377  0.717000
-0.213051  -0.128377  0.717000
-0.208143  -0.126229  0.705000
-0.206800  -0.126229  0.705000
-0.209537  -0.128735  0.719000
-0.204983  -0.126766  0.708000
-0.203634  -0.126766  0.708000
-0.202857  -0.127124  0.710000
-0.202356  -0.127661  0.713000
-0.200998  -0.127661  0.713000
-0.199640  -0.127661  0.713000
-0.198282  -0.127661  0.713000
-0.196371  -0.127303  0.711000
-0.195017  -0.127303  0.711000
-0.178659  -0.128198  0.716000
-0.177295  -0.128198  0.716000
-0.177651  -0.129451  0.723000
-0.164246  -0.131958  0.737000
-0.162621  -0.131779  0.736000
-0.161219  -0.131779  0.736000
-0.160034  -0.131958  0.737000
-0.159061  -0.132316  0.739000
-0.157867  -0.132495  0.740000
-0.099017  -0.129272  0.722000
-0.097642  -0.129272  0.722000
-0.096267  -0.129272  0.722000
-0.094891  -0.129272  0.722000
-0.093646  -0.129451  0.723000
-0.092269  -0.129451  0.723000
-0.090891  -0.129451  0.723000
-0.089514  -0.129451  0.723000
-0.088503  -0.129989  0.726000
-0.087480  -0.130526  0.729000
-0.085619  -0.129810  0.725000
-0.084238  -0.129810  0.725000
-0.081943  -0.128377  0.717000
-0.080577  -0.128377  0.717000
-0.079543  -0.128914  0.720000
-0.045851  -0.126766  0.708000
-0.044503  -0.126766  0.708000
-0.043093  -0.126587  0.707000
-0.041747  -0.126587  0.707000
-0.041429  -0.129810  0.725000
-0.040048  -0.129810  0.725000
-0.038667  -0.129810  0.725000
-0.037286  -0.129810  0.725000
-0.035905  -0.129810  0.725000
-0.034524  -0.129810  0.725000
-0.033051  -0.129451  0.723000
-0.031630  -0.129272  0.722000
-0.030171  -0.128914  0.720000
-0.028800  -0.128914  0.720000
-0.027390  -0.128735  0.719000
-0.026021  -0.128735  0.719000
-0.024651  -0.128735  0.719000
-0.023217  -0.128377  0.717000
-0.021638  -0.127124  0.710000
-0.020286  -0.127124  0.710000
-0.018933  -0.127124  0.710000
-0.017581  -0.127124  0.710000
-0.016229  -0.127124  0.710000
-0.015065  -0.128735  0.719000
-0.013695  -0.128735  0.719000
-0.012326  -0.128735  0.719000
-0.011002  -0.129272  0.722000
-0.009680  -0.129989  0.726000
-0.008034  -0.125870  0.703000
-0.006695  -0.125870  0.703000
-0.005356  -0.125870  0.703000
-0.004017  -0.125870  0.703000
-0.002686  -0.126229  0.705000
-0.001343  -0.126229  0.705000
0.000000  -0.126229  0.705000
0.001347  -0.126587  0.707000
0.005371  -0.126229  0.705000
0.006714  -0.126229  0.705000
0.008057  -0.126229  0.705000
0.009400  -0.126229  0.705000
0.010819  -0.127124  0.710000
0.012171  -0.127124  0.710000
0.013543  -0.127303  0.711000
0.014897  -0.127303  0.711000
0.016297  -0.127661  0.713000
0.017655  -0.127661  0.713000
0.019120  -0.128377  0.717000
0.020486  -0.128377  0.717000
0.021912  -0.128735  0.719000
0.023282  -0.128735  0.719000
0.024583  -0.128377  0.717000
0.025912  -0.128198  0.716000
0.027200  -0.127840  0.714000
0.028560  -0.127840  0.714000
0.029878  -0.127661  0.713000
0.031236  -0.127661  0.713000
0.032594  -0.127661  0.713000
0.033952  -0.127661  0.713000
0.035310  -0.127661  0.713000
0.036669  -0.127661  0.713000
0.038080  -0.127840  0.714000
0.039385  -0.127661  0.713000
0.040743  -0.127661  0.713000
0.042160  -0.127840  0.714000
0.043520  -0.127840  0.714000
0.046326  -0.131958  0.737000
0.047535  -0.131421  0.734000
0.048533  -0.130347  0.728000
0.049920  -0.130347  0.728000
0.051166  -0.129989  0.726000
0.052549  -0.129989  0.726000
0.054080  -0.130347  0.728000
0.055467  -0.130347  0.728000
0.056853  -0.130347  0.728000
0.058240  -0.130347  0.728000
0.059627  -0.130347  0.728000
0.061013  -0.130347  0.728000
0.062400  -0.130347  0.728000
0.063787  -0.130347  0.728000
0.086040  -0.128377  0.717000
0.087406  -0.128377  0.717000
0.089019  -0.128735  0.719000
0.090389  -0.128735  0.719000
0.091886  -0.128914  0.720000
0.092739  -0.128198  0.716000
0.094103  -0.128198  0.716000
0.095467  -0.128198  0.716000
0.099670  -0.131958  0.737000
0.101074  -0.131958  0.737000
0.102339  -0.131779  0.736000
0.103177  -0.131063  0.732000
0.104000  -0.130347  0.728000
0.105387  -0.130347  0.728000
0.106920  -0.130526  0.729000
0.108309  -0.130526  0.729000
0.109697  -0.130526  0.729000
0.110933  -0.130347  0.728000
0.112320  -0.130347  0.728000
0.113863  -0.130526  0.729000
0.115251  -0.130526  0.729000
0.116640  -0.130526  0.729000
0.118029  -0.130526  0.729000
0.119745  -0.130884  0.731000
0.121137  -0.130884  0.731000
0.122530  -0.130884  0.731000
0.123922  -0.130884  0.731000
0.125314  -0.130884  0.731000
0.126360  -0.130526  0.729000
0.127749  -0.130526  0.729000
0.128606  -0.129989  0.726000
0.129989  -0.129989  0.726000
0.131190  -0.129810  0.725000
0.132571  -0.129810  0.725000
0.133952  -0.129810  0.725000
0.135333  -0.129810  0.725000
0.136714  -0.129810  0.725000
0.138095  -0.129810  0.725000
0.139476  -0.129810  0.725000
0.140469  -0.129451  0.723000
0.139884  -0.127661  0.713000
0.141242  -0.127661  0.713000
0.142200  -0.127303  0.711000
0.143554  -0.127303  0.711000
0.145316  -0.127661  0.713000
0.146880  -0.127840  0.714000
0.149486  -0.128914  0.720000
0.150857  -0.128914  0.720000
