# .PCD v.5 - Point Cloud Data file format
FIELDS x y z 
SIZE 4 4 4
TYPE F F F
COUNT 1 1 1
WIDTH 1610
HEIGHT 1
POINTS 1610
DATA ascii
-0.291008  0.036202  0.731000
-0.290804  0.036350  0.734000
-0.290194  0.036450  0.736000
-0.289185  0.036499  0.737000
-0.288562  0.036598  0.739000
-0.287543  0.036648  0.740000
-0.286907  0.036747  0.742000
-0.286648  0.036895  0.745000
-0.285994  0.036994  0.747000
-0.284952  0.037044  0.748000
-0.283528  0.037044  0.748000
-0.282857  0.037143  0.750000
-0.282179  0.037242  0.752000
-0.281120  0.037291  0.753000
-0.279686  0.037291  0.753000
-0.278251  0.037291  0.753000
-0.167859  0.031398  0.634000
-0.166651  0.031398  0.634000
-0.165444  0.031398  0.634000
-0.164495  0.031448  0.635000
-0.163286  0.031448  0.635000
-0.162331  0.031497  0.636000
-0.161120  0.031497  0.636000
-0.159657  0.031448  0.635000
-0.158448  0.031448  0.635000
-0.156990  0.031398  0.634000
-0.155537  0.031349  0.633000
-0.154331  0.031349  0.633000
-0.152642  0.031250  0.631000
-0.151440  0.031250  0.631000
-0.149762  0.031150  0.629000
-0.148564  0.031150  0.629000
-0.147366  0.031150  0.629000
-0.146168  0.031150  0.629000
-0.144970  0.031150  0.629000
-0.143771  0.031150  0.629000
-0.142347  0.031101  0.628000
-0.141150  0.031101  0.628000
-0.139954  0.031101  0.628000
-0.138758  0.031101  0.628000
-0.137562  0.031101  0.628000
-0.136149  0.031051  0.627000
-0.134954  0.031051  0.627000
-0.133760  0.031051  0.627000
-0.132566  0.031051  0.627000
-0.131371  0.031051  0.627000
-0.130177  0.031051  0.627000
-0.128983  0.031051  0.627000
-0.127585  0.031002  0.626000
-0.126392  0.031002  0.626000
-0.125200  0.031002  0.626000
-0.124008  0.031002  0.626000
-0.122815  0.031002  0.626000
-0.121623  0.031002  0.626000
-0.120623  0.031051  0.627000
-0.119429  0.031051  0.627000
-0.118234  0.031051  0.627000
-0.117227  0.031101  0.628000
-0.116215  0.031150  0.629000
-0.115017  0.031150  0.629000
-0.114181  0.031250  0.631000
-0.113158  0.031299  0.632000
-0.111954  0.031299  0.632000
-0.110926  0.031349  0.633000
-0.109720  0.031349  0.633000
-0.108686  0.031398  0.634000
-0.107478  0.031398  0.634000
-0.106438  0.031448  0.635000
-0.105394  0.031497  0.636000
-0.104183  0.031497  0.636000
-0.103295  0.031596  0.638000
-0.102080  0.031596  0.638000
-0.101023  0.031646  0.639000
-0.099806  0.031646  0.639000
-0.099051  0.031794  0.642000
-0.097829  0.031794  0.642000
-0.096907  0.031893  0.644000
-0.095680  0.031893  0.644000
-0.094600  0.031943  0.645000
-0.093516  0.031992  0.646000
-0.092429  0.032042  0.647000
-0.091196  0.032042  0.647000
-0.090103  0.032091  0.648000
-0.089143  0.032190  0.650000
-0.087905  0.032190  0.650000
-0.086267  0.032042  0.647000
-0.084903  0.031992  0.646000
-0.083672  0.031992  0.646000
-0.073141  0.040461  0.817000
-0.071410  0.040362  0.815000
-0.069857  0.040362  0.815000
-0.068221  0.040312  0.814000
-0.066670  0.040312  0.814000
-0.065120  0.040312  0.814000
-0.063413  0.040213  0.812000
-0.061867  0.040213  0.812000
-0.060023  0.040015  0.808000
-0.058339  0.039916  0.806000
-0.056804  0.039916  0.806000
-0.055131  0.039817  0.804000
-0.053467  0.039718  0.802000
-0.051810  0.039619  0.800000
-0.050160  0.039520  0.798000
-0.048640  0.039520  0.798000
-0.047061  0.039470  0.797000
-0.045543  0.039470  0.797000
-0.043914  0.039371  0.795000
-0.042187  0.039173  0.791000
-0.040577  0.039074  0.789000
-0.039074  0.039074  0.789000
-0.037524  0.039025  0.788000
-0.035931  0.038926  0.786000
-0.034347  0.038827  0.784000
-0.032770  0.038728  0.782000
-0.031280  0.038728  0.782000
-0.029714  0.038629  0.780000
-0.028192  0.038579  0.779000
-0.026640  0.038480  0.777000
-0.025160  0.038480  0.777000
-0.023680  0.038480  0.777000
-0.022143  0.038381  0.775000
-0.020613  0.038282  0.773000
-0.019116  0.038232  0.772000
-0.017600  0.038133  0.770000
-0.016091  0.038034  0.768000
-0.014629  0.038034  0.768000
-0.013149  0.037985  0.767000
-0.011627  0.037787  0.763000
-0.010173  0.037787  0.763000
-0.008697  0.037688  0.761000
-0.007248  0.037688  0.761000
-0.005790  0.037638  0.760000
-0.004331  0.037539  0.758000
-0.002880  0.037440  0.756000
-0.001440  0.037440  0.756000
0.000000  0.037440  0.756000
0.001440  0.037440  0.756000
0.002869  0.037291  0.753000
0.004297  0.037242  0.752000
0.005714  0.037143  0.750000
0.007143  0.037143  0.750000
0.008549  0.037044  0.748000
0.009960  0.036994  0.747000
0.011352  0.036895  0.745000
0.012771  0.036895  0.745000
0.014152  0.036796  0.743000
0.015547  0.036747  0.742000
0.016960  0.036747  0.742000
0.018324  0.036648  0.740000
0.019733  0.036648  0.740000
0.021114  0.036598  0.739000
0.022522  0.036598  0.739000
0.023865  0.036499  0.737000
0.025234  0.036450  0.736000
0.026491  0.036251  0.732000
0.027886  0.036251  0.732000
0.029280  0.036251  0.732000
0.030632  0.036202  0.731000
0.031937  0.036103  0.729000
0.033280  0.036053  0.728000
0.034667  0.036053  0.728000
0.035954  0.035954  0.726000
0.037286  0.035905  0.725000
0.038560  0.035806  0.723000
0.039882  0.035756  0.722000
0.041257  0.035756  0.722000
0.042514  0.035657  0.720000
0.043886  0.035657  0.720000
0.045194  0.035608  0.719000
0.046434  0.035509  0.717000
0.047600  0.035360  0.714000
0.048891  0.035310  0.713000
0.050109  0.035211  0.711000
0.051463  0.035211  0.711000
0.052743  0.035162  0.710000
0.054095  0.035162  0.710000
0.055291  0.035063  0.708000
0.056640  0.035063  0.708000
0.057743  0.034914  0.705000
0.059002  0.034865  0.704000
0.060257  0.034815  0.703000
0.061596  0.034815  0.703000
0.062935  0.034815  0.703000
0.064274  0.034815  0.703000
0.065613  0.034815  0.703000
0.066952  0.034815  0.703000
0.068097  0.034716  0.701000
0.069432  0.034716  0.701000
0.070768  0.034716  0.701000
0.072103  0.034716  0.701000
0.072286  0.034171  0.690000
0.073600  0.034171  0.690000
0.074914  0.034171  0.690000
0.076229  0.034171  0.690000
0.077430  0.034122  0.689000
0.078743  0.034122  0.689000
0.080288  0.034221  0.691000
0.081604  0.034221  0.691000
0.082920  0.034221  0.691000
0.084236  0.034221  0.691000
0.085800  0.034320  0.693000
0.087246  0.034370  0.694000
0.088695  0.034419  0.695000
0.090408  0.034568  0.698000
0.092000  0.034667  0.700000
0.093467  0.034716  0.701000
0.095208  0.034865  0.704000
0.096686  0.034914  0.705000
0.098307  0.035013  0.707000
0.099794  0.035063  0.708000
0.101429  0.035162  0.710000
0.102926  0.035211  0.711000
0.104573  0.035310  0.713000
0.106080  0.035360  0.714000
0.107440  0.035360  0.714000
0.109257  0.035509  0.717000
0.111394  0.035756  0.722000
0.113238  0.035905  0.725000
0.114619  0.035905  0.725000
0.116160  0.035954  0.726000
0.118029  0.036103  0.729000
0.119417  0.036103  0.729000
0.121137  0.036202  0.731000
0.122697  0.036251  0.732000
0.124091  0.036251  0.732000
0.125829  0.036350  0.734000
0.127227  0.036350  0.734000
0.128625  0.036350  0.734000
-0.363429  0.034286  0.720000
-0.361554  0.034238  0.719000
-0.360185  0.034238  0.719000
-0.358815  0.034238  0.719000
-0.356451  0.034143  0.717000
-0.355086  0.034143  0.717000
-0.353227  0.034095  0.716000
-0.351863  0.034095  0.716000
-0.349520  0.034000  0.714000
-0.347672  0.033952  0.713000
-0.345343  0.033857  0.711000
-0.343989  0.033857  0.711000
-0.342152  0.033810  0.710000
-0.340800  0.033810  0.710000
-0.339448  0.033810  0.710000
-0.337143  0.033714  0.708000
-0.335794  0.033714  0.708000
-0.334446  0.033714  0.708000
-0.333097  0.033714  0.708000
-0.331749  0.033714  0.708000
-0.330400  0.033714  0.708000
-0.329051  0.033714  0.708000
-0.327703  0.033714  0.708000
-0.327276  0.033810  0.710000
-0.325924  0.033810  0.710000
-0.324571  0.033810  0.710000
-0.323674  0.033857  0.711000
-0.322320  0.033857  0.711000
-0.320966  0.033857  0.711000
-0.320510  0.033952  0.713000
-0.319152  0.033952  0.713000
-0.317794  0.033952  0.713000
-0.316436  0.033952  0.713000
-0.315078  0.033952  0.713000
-0.313720  0.033952  0.713000
-0.312800  0.034000  0.714000
-0.311440  0.034000  0.714000
-0.310949  0.034095  0.716000
-0.309585  0.034095  0.716000
-0.308651  0.034143  0.717000
-0.307286  0.034143  0.717000
-0.305920  0.034143  0.717000
-0.304554  0.034143  0.717000
-0.303189  0.034143  0.717000
-0.302665  0.034238  0.719000
-0.301295  0.034238  0.719000
-0.299926  0.034238  0.719000
-0.298971  0.034286  0.720000
-0.297600  0.034286  0.720000
-0.297051  0.034381  0.722000
-0.296086  0.034429  0.723000
-0.295524  0.034524  0.725000
-0.294143  0.034524  0.725000
-0.293166  0.034571  0.726000
-0.292989  0.034714  0.729000
-0.292400  0.034810  0.731000
-0.291406  0.034857  0.732000
-0.290804  0.034952  0.734000
-0.290194  0.035048  0.736000
-0.289185  0.035095  0.737000
-0.288562  0.035190  0.739000
-0.287543  0.035238  0.740000
-0.286907  0.035333  0.742000
-0.286648  0.035476  0.745000
-0.286377  0.035619  0.748000
-0.285714  0.035714  0.750000
-0.284286  0.035714  0.750000
-0.283611  0.035810  0.752000
-0.282179  0.035810  0.752000
-0.281120  0.035857  0.753000
-0.279686  0.035857  0.753000
-0.278251  0.035857  0.753000
-0.276817  0.035857  0.753000
-0.307097  0.048286  1.014000
-0.305166  0.048286  1.014000
-0.167859  0.030190  0.634000
-0.166651  0.030190  0.634000
-0.165705  0.030238  0.635000
-0.164495  0.030238  0.635000
-0.163286  0.030238  0.635000
-0.162331  0.030286  0.636000
-0.161120  0.030286  0.636000
-0.159909  0.030286  0.636000
-0.158448  0.030238  0.635000
-0.156990  0.030190  0.634000
-0.155537  0.030143  0.633000
-0.154331  0.030143  0.633000
-0.152884  0.030095  0.632000
-0.151680  0.030095  0.632000
-0.150238  0.030048  0.631000
-0.149036  0.030048  0.631000
-0.147366  0.029952  0.629000
-0.146168  0.029952  0.629000
-0.144970  0.029952  0.629000
-0.143771  0.029952  0.629000
-0.142573  0.029952  0.629000
-0.141150  0.029905  0.628000
-0.139954  0.029905  0.628000
-0.138758  0.029905  0.628000
-0.137562  0.029905  0.628000
-0.136366  0.029905  0.628000
-0.134954  0.029857  0.627000
-0.133760  0.029857  0.627000
-0.132566  0.029857  0.627000
-0.131371  0.029857  0.627000
-0.130177  0.029857  0.627000
-0.128983  0.029857  0.627000
-0.127585  0.029810  0.626000
-0.126392  0.029810  0.626000
-0.125200  0.029810  0.626000
-0.124008  0.029810  0.626000
-0.122815  0.029810  0.626000
-0.121623  0.029810  0.626000
-0.120623  0.029857  0.627000
-0.119429  0.029857  0.627000
-0.118234  0.029857  0.627000
-0.117227  0.029905  0.628000
-0.116215  0.029952  0.629000
-0.115383  0.030048  0.631000
-0.114362  0.030095  0.632000
-0.113158  0.030095  0.632000
-0.112131  0.030143  0.633000
-0.110926  0.030143  0.633000
-0.109720  0.030143  0.633000
-0.108686  0.030190  0.634000
-0.107478  0.030190  0.634000
-0.106438  0.030238  0.635000
-0.105394  0.030286  0.636000
-0.104183  0.030286  0.636000
-0.103295  0.030381  0.638000
-0.102240  0.030429  0.639000
-0.101023  0.030429  0.639000
-0.100118  0.030524  0.641000
-0.099051  0.030571  0.642000
-0.097829  0.030571  0.642000
-0.096907  0.030667  0.644000
-0.095829  0.030714  0.645000
-0.094747  0.030762  0.646000
-0.093661  0.030810  0.647000
-0.092429  0.030810  0.647000
-0.091337  0.030857  0.648000
-0.090103  0.030857  0.648000
-0.089143  0.030952  0.650000
-0.087634  0.030857  0.648000
-0.086267  0.030810  0.647000
-0.084903  0.030762  0.646000
-0.083672  0.030762  0.646000
-0.073141  0.038905  0.817000
-0.071410  0.038810  0.815000
-0.069857  0.038810  0.815000
-0.068221  0.038762  0.814000
-0.066670  0.038762  0.814000
-0.065120  0.038762  0.814000
-0.063413  0.038667  0.812000
-0.061714  0.038571  0.810000
-0.060023  0.038476  0.808000
-0.058339  0.038381  0.806000
-0.056804  0.038381  0.806000
-0.055131  0.038286  0.804000
-0.053467  0.038190  0.802000
-0.051810  0.038095  0.800000
-0.050160  0.038000  0.798000
-0.048640  0.038000  0.798000
-0.047061  0.037952  0.797000
-0.045543  0.037952  0.797000
-0.043914  0.037857  0.795000
-0.042187  0.037667  0.791000
-0.040577  0.037571  0.789000
-0.039074  0.037571  0.789000
-0.037524  0.037524  0.788000
-0.036023  0.037524  0.788000
-0.034347  0.037333  0.784000
-0.032853  0.037333  0.784000
-0.031280  0.037238  0.782000
-0.029714  0.037143  0.780000
-0.028192  0.037095  0.779000
-0.026709  0.037095  0.779000
-0.025160  0.037000  0.777000
-0.023680  0.037000  0.777000
-0.022143  0.036905  0.775000
-0.020613  0.036810  0.773000
-0.019116  0.036762  0.772000
-0.017600  0.036667  0.770000
-0.016133  0.036667  0.770000
-0.014629  0.036571  0.768000
-0.013166  0.036571  0.768000
-0.011657  0.036429  0.765000
-0.010173  0.036333  0.763000
-0.008697  0.036238  0.761000
-0.007238  0.036190  0.760000
-0.005775  0.036095  0.758000
-0.004320  0.036000  0.756000
-0.002880  0.036000  0.756000
-0.001440  0.036000  0.756000
0.000000  0.036000  0.756000
0.001440  0.036000  0.756000
0.002876  0.035952  0.755000
0.004303  0.035857  0.753000
0.005730  0.035810  0.752000
0.007143  0.035714  0.750000
0.008571  0.035714  0.750000
0.009960  0.035571  0.747000
0.011352  0.035476  0.745000
0.012771  0.035476  0.745000
0.014152  0.035381  0.743000
0.015547  0.035333  0.742000
0.016914  0.035238  0.740000
0.018324  0.035238  0.740000
0.019733  0.035238  0.740000
0.021114  0.035190  0.739000
0.022522  0.035190  0.739000
0.023865  0.035095  0.737000
0.025234  0.035048  0.736000
0.026491  0.034857  0.732000
0.027886  0.034857  0.732000
0.029280  0.034857  0.732000
0.030632  0.034810  0.731000
0.031937  0.034714  0.729000
0.033280  0.034667  0.728000
0.034667  0.034667  0.728000
0.035954  0.034571  0.726000
0.037286  0.034524  0.725000
0.038560  0.034429  0.723000
0.039882  0.034381  0.722000
0.041257  0.034381  0.722000
0.042514  0.034286  0.720000
0.043825  0.034238  0.719000
0.045194  0.034238  0.719000
0.046370  0.034095  0.716000
0.047600  0.034000  0.714000
0.048891  0.033952  0.713000
0.050250  0.033952  0.713000
0.051608  0.033952  0.713000
0.052817  0.033857  0.711000
0.054171  0.033857  0.711000
0.055448  0.033810  0.710000
0.056640  0.033714  0.708000
0.057743  0.033571  0.705000
0.058918  0.033476  0.703000
0.060086  0.033381  0.701000
0.061421  0.033381  0.701000
0.062756  0.033381  0.701000
0.064091  0.033381  0.701000
0.065427  0.033381  0.701000
0.066762  0.033381  0.701000
0.068097  0.033381  0.701000
0.069432  0.033381  0.701000
0.070970  0.033476  0.703000
0.072309  0.033476  0.703000
0.072181  0.032810  0.689000
0.073493  0.032810  0.689000
0.074806  0.032810  0.689000
0.076118  0.032810  0.689000
0.077543  0.032857  0.690000
0.078857  0.032857  0.690000
0.080171  0.032857  0.690000
0.081604  0.032905  0.691000
0.082920  0.032905  0.691000
0.084480  0.033000  0.693000
0.085924  0.033048  0.694000
0.087371  0.033095  0.695000
0.088950  0.033190  0.697000
0.090667  0.033333  0.700000
0.092131  0.033381  0.701000
0.093733  0.033476  0.703000
0.095208  0.033524  0.704000
0.096686  0.033571  0.705000
0.098307  0.033667  0.707000
0.099794  0.033714  0.708000
0.101429  0.033810  0.710000
0.102926  0.033857  0.711000
0.104573  0.033952  0.713000
0.106080  0.034000  0.714000
0.107440  0.034000  0.714000
0.109257  0.034143  0.717000
0.111549  0.034429  0.723000
0.113238  0.034524  0.725000
0.114619  0.034524  0.725000
0.116160  0.034571  0.726000
0.117867  0.034667  0.728000
0.119417  0.034714  0.729000
0.121137  0.034810  0.731000
0.122697  0.034857  0.732000
0.124091  0.034857  0.732000
0.126171  0.035048  0.736000
0.127573  0.035048  0.736000
-0.362057  0.032914  0.720000
-0.360185  0.032869  0.719000
-0.358815  0.032869  0.719000
-0.356451  0.032777  0.717000
-0.355086  0.032777  0.717000
-0.353227  0.032731  0.716000
-0.351863  0.032731  0.716000
-0.350499  0.032731  0.716000
-0.348160  0.032640  0.714000
-0.346314  0.032594  0.713000
-0.343989  0.032503  0.711000
-0.342634  0.032503  0.711000
-0.341280  0.032503  0.711000
-0.339926  0.032503  0.711000
-0.338095  0.032457  0.710000
-0.336743  0.032457  0.710000
-0.335390  0.032457  0.710000
-0.334038  0.032457  0.710000
-0.332686  0.032457  0.710000
-0.330400  0.032366  0.708000
-0.329051  0.032366  0.708000
-0.327703  0.032366  0.708000
-0.327276  0.032457  0.710000
-0.325924  0.032457  0.710000
-0.324571  0.032457  0.710000
-0.323674  0.032503  0.711000
-0.322320  0.032503  0.711000
-0.320966  0.032503  0.711000
-0.320510  0.032594  0.713000
-0.319152  0.032594  0.713000
-0.317794  0.032594  0.713000
-0.316436  0.032594  0.713000
-0.315520  0.032640  0.714000
-0.314160  0.032640  0.714000
-0.313676  0.032731  0.716000
-0.312312  0.032731  0.716000
-0.310949  0.032731  0.716000
-0.309585  0.032731  0.716000
-0.308651  0.032777  0.717000
-0.307286  0.032777  0.717000
-0.306773  0.032869  0.719000
-0.305404  0.032869  0.719000
-0.304034  0.032869  0.719000
-0.302665  0.032869  0.719000
-0.301295  0.032869  0.719000
-0.299926  0.032869  0.719000
-0.298971  0.032914  0.720000
-0.297600  0.032914  0.720000
-0.297051  0.033006  0.722000
-0.295676  0.033006  0.722000
-0.294709  0.033051  0.723000
-0.294143  0.033143  0.725000
-0.293166  0.033189  0.726000
-0.292587  0.033280  0.728000
-0.291600  0.033326  0.729000
-0.291008  0.033417  0.731000
-0.290804  0.033554  0.734000
-0.290194  0.033646  0.736000
-0.289185  0.033691  0.737000
-0.288562  0.033783  0.739000
-0.287543  0.033829  0.740000
-0.287293  0.033966  0.743000
-0.287417  0.034149  0.747000
-0.286377  0.034194  0.748000
-0.285714  0.034286  0.750000
-0.285044  0.034377  0.752000
-0.283989  0.034423  0.753000
-0.282554  0.034423  0.753000
-0.281120  0.034423  0.753000
-0.279686  0.034423  0.753000
-0.278251  0.034423  0.753000
-0.276817  0.034423  0.753000
-0.308507  0.045989  1.006000
-0.306590  0.045989  1.006000
-0.305280  0.046080  1.008000
-0.304263  0.046217  1.011000
-0.301440  0.046080  1.008000
-0.299520  0.046080  1.008000
-0.298486  0.046217  1.011000
-0.296560  0.046217  1.011000
-0.294634  0.046217  1.011000
-0.284168  0.045166  0.988000
-0.282286  0.045166  0.988000
-0.281255  0.045303  0.991000
-0.279368  0.045303  0.991000
-0.168389  0.029074  0.636000
-0.167177  0.029074  0.636000
-0.165966  0.029074  0.636000
-0.164754  0.029074  0.636000
-0.163543  0.029074  0.636000
-0.162842  0.029166  0.638000
-0.161120  0.029074  0.636000
-0.159909  0.029074  0.636000
-0.158697  0.029074  0.636000
-0.157238  0.029029  0.635000
-0.155783  0.028983  0.634000
-0.154331  0.028937  0.633000
-0.153126  0.028937  0.633000
-0.151680  0.028891  0.632000
-0.150476  0.028891  0.632000
-0.149036  0.028846  0.631000
-0.147834  0.028846  0.631000
-0.146632  0.028846  0.631000
-0.145430  0.028846  0.631000
-0.144229  0.028846  0.631000
-0.142573  0.028754  0.629000
-0.141150  0.028709  0.628000
-0.139954  0.028709  0.628000
-0.138758  0.028709  0.628000
-0.137562  0.028709  0.628000
-0.136366  0.028709  0.628000
-0.135170  0.028709  0.628000
-0.133760  0.028663  0.627000
-0.132566  0.028663  0.627000
-0.131371  0.028663  0.627000
-0.130177  0.028663  0.627000
-0.128983  0.028663  0.627000
-0.127789  0.028663  0.627000
-0.126594  0.028663  0.627000
-0.125400  0.028663  0.627000
-0.124206  0.028663  0.627000
-0.122815  0.028617  0.626000
-0.121623  0.028617  0.626000
-0.120623  0.028663  0.627000
-0.119429  0.028663  0.627000
-0.118234  0.028663  0.627000
-0.117227  0.028709  0.628000
-0.116215  0.028754  0.629000
-0.115383  0.028846  0.631000
-0.114362  0.028891  0.632000
-0.113158  0.028891  0.632000
-0.112131  0.028937  0.633000
-0.110926  0.028937  0.633000
-0.109893  0.028983  0.634000
-0.108686  0.028983  0.634000
-0.107478  0.028983  0.634000
-0.106438  0.029029  0.635000
-0.105394  0.029074  0.636000
-0.104183  0.029074  0.636000
-0.103295  0.029166  0.638000
-0.102240  0.029211  0.639000
-0.101181  0.029257  0.640000
-0.100118  0.029303  0.641000
-0.099051  0.029349  0.642000
-0.097829  0.029349  0.642000
-0.096907  0.029440  0.644000
-0.095829  0.029486  0.645000
-0.094747  0.029531  0.646000
-0.093661  0.029577  0.647000
-0.092429  0.029577  0.647000
-0.091196  0.029577  0.647000
-0.090103  0.029623  0.648000
-0.089143  0.029714  0.650000
-0.087634  0.029623  0.648000
-0.086400  0.029623  0.648000
-0.085034  0.029577  0.647000
-0.083802  0.029577  0.647000
-0.072962  0.037257  0.815000
-0.071410  0.037257  0.815000
-0.069771  0.037211  0.814000
-0.068221  0.037211  0.814000
-0.066670  0.037211  0.814000
-0.065120  0.037211  0.814000
-0.063413  0.037120  0.812000
-0.061714  0.037029  0.810000
-0.060023  0.036937  0.808000
-0.058339  0.036846  0.806000
-0.056804  0.036846  0.806000
-0.055131  0.036754  0.804000
-0.053467  0.036663  0.802000
-0.051939  0.036663  0.802000
-0.050160  0.036480  0.798000
-0.048640  0.036480  0.798000
-0.047061  0.036434  0.797000
-0.045543  0.036434  0.797000
-0.043804  0.036251  0.793000
-0.042187  0.036160  0.791000
-0.040577  0.036069  0.789000
-0.039074  0.036069  0.789000
-0.037524  0.036023  0.788000
-0.036023  0.036023  0.788000
-0.034434  0.035931  0.786000
-0.032853  0.035840  0.784000
-0.031360  0.035840  0.784000
-0.029790  0.035749  0.782000
-0.028192  0.035611  0.779000
-0.026709  0.035611  0.779000
-0.025160  0.035520  0.777000
-0.023680  0.035520  0.777000
-0.022143  0.035429  0.775000
-0.020613  0.035337  0.773000
-0.019141  0.035337  0.773000
-0.017646  0.035291  0.772000
-0.016133  0.035200  0.770000
-0.014667  0.035200  0.770000
-0.013200  0.035200  0.770000
-0.011688  0.035063  0.767000
-0.010173  0.034880  0.763000
-0.008720  0.034880  0.763000
-0.007238  0.034743  0.760000
-0.005775  0.034651  0.758000
-0.004320  0.034560  0.756000
-0.002880  0.034560  0.756000
-0.001440  0.034560  0.756000
0.000000  0.034560  0.756000
0.001440  0.034560  0.756000
0.002876  0.034514  0.755000
0.004303  0.034423  0.753000
0.005730  0.034377  0.752000
0.007162  0.034377  0.752000
0.008571  0.034286  0.750000
0.009960  0.034149  0.747000
0.011352  0.034057  0.745000
0.012771  0.034057  0.745000
0.014152  0.033966  0.743000
0.015547  0.033920  0.742000
0.016914  0.033829  0.740000
0.018324  0.033829  0.740000
0.019733  0.033829  0.740000
0.021114  0.033783  0.739000
0.022522  0.033783  0.739000
0.023865  0.033691  0.737000
0.025234  0.033646  0.736000
0.026564  0.033554  0.734000
0.027886  0.033463  0.732000
0.029280  0.033463  0.732000
0.030632  0.033417  0.731000
0.031937  0.033326  0.729000
0.033280  0.033280  0.728000
0.034667  0.033280  0.728000
0.035954  0.033189  0.726000
0.037286  0.033143  0.725000
0.038560  0.033051  0.723000
0.039882  0.033006  0.722000
0.041257  0.033006  0.722000
0.042514  0.032914  0.720000
0.043825  0.032869  0.719000
0.045194  0.032869  0.719000
0.046370  0.032731  0.716000
0.047600  0.032640  0.714000
0.048891  0.032594  0.713000
0.050250  0.032594  0.713000
0.051608  0.032594  0.713000
0.052966  0.032594  0.713000
0.054171  0.032503  0.711000
0.055526  0.032503  0.711000
0.056640  0.032366  0.708000
0.057743  0.032229  0.705000
0.058918  0.032137  0.703000
0.060086  0.032046  0.701000
0.061421  0.032046  0.701000
0.062756  0.032046  0.701000
0.064091  0.032046  0.701000
0.065427  0.032046  0.701000
0.066762  0.032046  0.701000
0.068097  0.032046  0.701000
0.069432  0.032046  0.701000
0.070768  0.032046  0.701000
0.072103  0.032046  0.701000
0.072181  0.031497  0.689000
0.073493  0.031497  0.689000
0.074806  0.031497  0.689000
0.076118  0.031497  0.689000
0.077543  0.031543  0.690000
0.078857  0.031543  0.690000
0.080171  0.031543  0.690000
0.081604  0.031589  0.691000
0.082920  0.031589  0.691000
0.084480  0.031680  0.693000
0.085924  0.031726  0.694000
0.087371  0.031771  0.695000
0.088950  0.031863  0.697000
0.090667  0.032000  0.700000
0.092131  0.032046  0.701000
0.093733  0.032137  0.703000
0.095208  0.032183  0.704000
0.096686  0.032229  0.705000
0.098307  0.032320  0.707000
0.099794  0.032366  0.708000
0.101571  0.032503  0.711000
0.103215  0.032594  0.713000
0.104720  0.032640  0.714000
0.106377  0.032731  0.716000
0.107741  0.032731  0.716000
0.109562  0.032869  0.719000
0.111549  0.033051  0.723000
0.113238  0.033143  0.725000
0.114777  0.033189  0.726000
0.116160  0.033189  0.726000
0.117867  0.033280  0.728000
0.119417  0.033326  0.729000
0.121137  0.033417  0.731000
0.122697  0.033463  0.732000
0.124091  0.033463  0.732000
0.125829  0.033554  0.734000
0.127573  0.033646  0.736000
-0.360185  0.031499  0.719000
-0.358815  0.031499  0.719000
-0.357446  0.031499  0.719000
-0.355086  0.031411  0.717000
-0.353720  0.031411  0.717000
-0.351863  0.031368  0.716000
-0.350499  0.031368  0.716000
-0.349135  0.031368  0.716000
-0.346314  0.031236  0.713000
-0.344956  0.031236  0.713000
-0.343598  0.031236  0.713000
-0.342240  0.031236  0.713000
-0.339926  0.031149  0.711000
-0.338571  0.031149  0.711000
-0.337217  0.031149  0.711000
-0.335863  0.031149  0.711000
-0.334509  0.031149  0.711000
-0.332686  0.031105  0.710000
-0.331333  0.031105  0.710000
-0.329981  0.031105  0.710000
-0.328629  0.031105  0.710000
-0.327276  0.031105  0.710000
-0.326383  0.031149  0.711000
-0.325029  0.031149  0.711000
-0.323674  0.031149  0.711000
-0.322320  0.031149  0.711000
-0.320966  0.031149  0.711000
-0.320510  0.031236  0.713000
-0.319152  0.031236  0.713000
-0.317794  0.031236  0.713000
-0.316436  0.031236  0.713000
-0.315520  0.031280  0.714000
-0.314160  0.031280  0.714000
-0.313676  0.031368  0.716000
-0.312312  0.031368  0.716000
-0.311383  0.031411  0.717000
-0.310017  0.031411  0.717000
-0.308651  0.031411  0.717000
-0.308143  0.031499  0.719000
-0.306773  0.031499  0.719000
-0.305404  0.031499  0.719000
-0.304034  0.031499  0.719000
-0.302665  0.031499  0.719000
-0.301714  0.031543  0.720000
-0.300343  0.031543  0.720000
-0.299802  0.031630  0.722000
-0.298427  0.031630  0.722000
-0.297051  0.031630  0.722000
-0.295676  0.031630  0.722000
-0.294709  0.031674  0.723000
-0.294143  0.031762  0.725000
-0.293166  0.031806  0.726000
-0.292587  0.031893  0.728000
-0.291600  0.031937  0.729000
-0.291008  0.032025  0.731000
-0.290804  0.032156  0.734000
-0.290194  0.032244  0.736000
-0.289185  0.032288  0.737000
-0.288562  0.032375  0.739000
-0.287543  0.032419  0.740000
-0.287293  0.032550  0.743000
-0.287417  0.032726  0.747000
-0.286377  0.032770  0.748000
-0.286476  0.032945  0.752000
-0.285044  0.032945  0.752000
-0.283989  0.032989  0.753000
-0.282554  0.032989  0.753000
-0.281120  0.032989  0.753000
-0.280429  0.033076  0.755000
-0.278990  0.033076  0.755000
-0.277552  0.033076  0.755000
-0.308507  0.044072  1.006000
-0.306590  0.044072  1.006000
-0.305280  0.044160  1.008000
-0.304263  0.044291  1.011000
-0.301440  0.044160  1.008000
-0.299520  0.044160  1.008000
-0.297600  0.044160  1.008000
-0.295680  0.044160  1.008000
-0.287931  0.043284  0.988000
-0.286050  0.043284  0.988000
-0.284168  0.043284  0.988000
-0.282286  0.043284  0.988000
-0.281255  0.043415  0.991000
-0.279368  0.043415  0.991000
-0.277480  0.043415  0.991000
-0.276427  0.043547  0.994000
-0.274533  0.043547  0.994000
-0.275109  0.043941  1.003000
-0.273198  0.043941  1.003000
-0.168389  0.027863  0.636000
-0.167177  0.027863  0.636000
-0.165966  0.027863  0.636000
-0.165272  0.027950  0.638000
-0.164057  0.027950  0.638000
-0.162842  0.027950  0.638000
-0.161627  0.027950  0.638000
-0.160411  0.027950  0.638000
-0.158697  0.027863  0.636000
-0.157238  0.027819  0.635000
-0.155783  0.027775  0.634000
-0.154331  0.027731  0.633000
-0.153126  0.027731  0.633000
-0.151920  0.027731  0.633000
-0.150476  0.027688  0.632000
-0.149272  0.027688  0.632000
-0.147834  0.027644  0.631000
-0.146632  0.027644  0.631000
-0.145430  0.027644  0.631000
-0.144229  0.027644  0.631000
-0.142573  0.027556  0.629000
-0.141375  0.027556  0.629000
-0.140177  0.027556  0.629000
-0.138979  0.027556  0.629000
-0.137562  0.027512  0.628000
-0.136366  0.027512  0.628000
-0.135170  0.027512  0.628000
-0.133973  0.027512  0.628000
-0.132777  0.027512  0.628000
-0.131581  0.027512  0.628000
-0.130385  0.027512  0.628000
-0.128983  0.027469  0.627000
-0.127789  0.027469  0.627000
-0.126594  0.027469  0.627000
-0.125200  0.027425  0.626000
-0.124008  0.027425  0.626000
-0.122815  0.027425  0.626000
-0.121623  0.027425  0.626000
-0.120430  0.027425  0.626000
-0.119429  0.027469  0.627000
-0.118234  0.027469  0.627000
-0.117227  0.027512  0.628000
-0.116215  0.027556  0.629000
-0.115383  0.027644  0.631000
-0.114362  0.027688  0.632000
-0.113337  0.027731  0.633000
-0.112131  0.027731  0.633000
-0.110926  0.027731  0.633000
-0.109893  0.027775  0.634000
-0.108686  0.027775  0.634000
-0.107648  0.027819  0.635000
-0.106606  0.027863  0.636000
-0.105394  0.027863  0.636000
-0.104510  0.027950  0.638000
-0.103295  0.027950  0.638000
-0.102240  0.027994  0.639000
-0.101181  0.028038  0.640000
-0.100118  0.028082  0.641000
-0.099051  0.028126  0.642000
-0.097829  0.028126  0.642000
-0.096907  0.028213  0.644000
-0.095829  0.028257  0.645000
-0.094747  0.028301  0.646000
-0.093661  0.028345  0.647000
-0.092429  0.028345  0.647000
-0.091196  0.028345  0.647000
-0.090103  0.028389  0.648000
-0.089143  0.028476  0.650000
-0.087905  0.028476  0.650000
-0.086400  0.028389  0.648000
-0.085034  0.028345  0.647000
-0.083802  0.028345  0.647000
-0.074423  0.035661  0.814000
-0.072872  0.035661  0.814000
-0.071410  0.035705  0.815000
-0.069771  0.035661  0.814000
-0.068221  0.035661  0.814000
-0.066670  0.035661  0.814000
-0.065120  0.035661  0.814000
-0.063413  0.035573  0.812000
-0.061714  0.035486  0.810000
-0.060023  0.035398  0.808000
-0.058339  0.035310  0.806000
-0.056804  0.035310  0.806000
-0.055131  0.035223  0.804000
-0.053600  0.035223  0.804000
-0.051939  0.035135  0.802000
-0.050286  0.035048  0.800000
-0.048762  0.035048  0.800000
-0.047120  0.034960  0.798000
-0.045543  0.034916  0.797000
-0.043804  0.034741  0.793000
-0.042187  0.034653  0.791000
-0.040577  0.034566  0.789000
-0.039074  0.034566  0.789000
-0.037524  0.034522  0.788000
-0.036023  0.034522  0.788000
-0.034434  0.034434  0.786000
-0.032853  0.034347  0.784000
-0.031360  0.034347  0.784000
-0.029790  0.034259  0.782000
-0.028229  0.034171  0.780000
-0.026709  0.034128  0.779000
-0.025225  0.034128  0.779000
-0.023680  0.034040  0.777000
-0.022200  0.034040  0.777000
-0.020667  0.033952  0.775000
-0.019141  0.033865  0.773000
-0.017669  0.033865  0.773000
-0.016175  0.033821  0.772000
-0.014667  0.033733  0.770000
-0.013200  0.033733  0.770000
-0.011688  0.033602  0.767000
-0.010173  0.033427  0.763000
-0.008720  0.033427  0.763000
-0.007248  0.033339  0.761000
-0.005775  0.033208  0.758000
-0.004331  0.033208  0.758000
-0.002880  0.033120  0.756000
-0.001440  0.033120  0.756000
0.000000  0.033120  0.756000
0.001440  0.033120  0.756000
0.002876  0.033076  0.755000
0.004303  0.032989  0.753000
0.005730  0.032945  0.752000
0.007162  0.032945  0.752000
0.008571  0.032857  0.750000
0.009973  0.032770  0.748000
0.011383  0.032726  0.747000
0.012771  0.032638  0.745000
0.014190  0.032638  0.745000
0.015568  0.032550  0.743000
0.016914  0.032419  0.740000
0.018324  0.032419  0.740000
0.019733  0.032419  0.740000
0.021114  0.032375  0.739000
0.022522  0.032375  0.739000
0.023865  0.032288  0.737000
0.025234  0.032244  0.736000
0.026564  0.032156  0.734000
0.027886  0.032069  0.732000
0.029280  0.032069  0.732000
0.030632  0.032025  0.731000
0.031937  0.031937  0.729000
0.033326  0.031937  0.729000
0.034667  0.031893  0.728000
0.035954  0.031806  0.726000
0.037286  0.031762  0.725000
0.038560  0.031674  0.723000
0.039882  0.031630  0.722000
0.041257  0.031630  0.722000
0.042514  0.031543  0.720000
0.043825  0.031499  0.719000
0.045069  0.031411  0.717000
0.046370  0.031368  0.716000
0.047600  0.031280  0.714000
0.048891  0.031236  0.713000
0.050250  0.031236  0.713000
0.051608  0.031236  0.713000
0.052966  0.031236  0.713000
0.054324  0.031236  0.713000
0.055526  0.031149  0.711000
0.056640  0.031017  0.708000
0.057743  0.030886  0.705000
0.058918  0.030798  0.703000
0.060086  0.030710  0.701000
0.061421  0.030710  0.701000
0.062756  0.030710  0.701000
0.064091  0.030710  0.701000
0.065427  0.030710  0.701000
0.066762  0.030710  0.701000
0.068097  0.030710  0.701000
0.069432  0.030710  0.701000
0.070768  0.030710  0.701000
0.072103  0.030710  0.701000
0.072286  0.030229  0.690000
0.073600  0.030229  0.690000
0.074914  0.030229  0.690000
0.076229  0.030229  0.690000
0.077543  0.030229  0.690000
0.078857  0.030229  0.690000
0.080288  0.030272  0.691000
0.081604  0.030272  0.691000
0.082920  0.030272  0.691000
0.084724  0.030448  0.695000
0.086048  0.030448  0.695000
0.087623  0.030535  0.697000
0.089078  0.030579  0.698000
0.090667  0.030667  0.700000
0.092131  0.030710  0.701000
0.093733  0.030798  0.703000
0.095343  0.030886  0.705000
0.096960  0.030973  0.707000
0.098446  0.031017  0.708000
0.100076  0.031105  0.710000
0.101571  0.031149  0.711000
0.103215  0.031236  0.713000
0.104720  0.031280  0.714000
0.106377  0.031368  0.716000
0.107891  0.031411  0.717000
0.109714  0.031543  0.720000
0.111549  0.031674  0.723000
0.113238  0.031762  0.725000
0.114777  0.031806  0.726000
0.116160  0.031806  0.726000
0.117867  0.031893  0.728000
0.119417  0.031937  0.729000
0.121137  0.032025  0.731000
0.122530  0.032025  0.731000
0.124091  0.032069  0.732000
0.125829  0.032156  0.734000
0.127573  0.032244  0.736000
-0.363566  0.030297  0.723000
-0.360185  0.030130  0.719000
-0.358815  0.030130  0.719000
-0.357446  0.030130  0.719000
-0.356076  0.030130  0.719000
-0.353720  0.030046  0.717000
-0.352354  0.030046  0.717000
-0.350499  0.030004  0.716000
-0.349135  0.030004  0.716000
-0.346800  0.029920  0.714000
-0.344956  0.029878  0.713000
-0.343598  0.029878  0.713000
-0.342240  0.029878  0.713000
-0.340882  0.029878  0.713000
-0.339524  0.029878  0.713000
-0.337217  0.029794  0.711000
-0.335863  0.029794  0.711000
-0.334509  0.029794  0.711000
-0.333154  0.029794  0.711000
-0.331333  0.029752  0.710000
-0.329981  0.029752  0.710000
-0.328629  0.029752  0.710000
-0.327737  0.029794  0.711000
-0.326383  0.029794  0.711000
-0.325029  0.029794  0.711000
-0.323674  0.029794  0.711000
-0.322320  0.029794  0.711000
-0.320966  0.029794  0.711000
-0.320510  0.029878  0.713000
-0.319152  0.029878  0.713000
-0.317794  0.029878  0.713000
-0.316436  0.029878  0.713000
-0.315520  0.029920  0.714000
-0.314160  0.029920  0.714000
-0.313676  0.030004  0.716000
-0.312749  0.030046  0.717000
-0.311383  0.030046  0.717000
-0.310017  0.030046  0.717000
-0.309512  0.030130  0.719000
-0.308143  0.030130  0.719000
-0.306773  0.030130  0.719000
-0.305404  0.030130  0.719000
-0.304034  0.030130  0.719000
-0.303086  0.030171  0.720000
-0.302552  0.030255  0.722000
-0.301177  0.030255  0.722000
-0.299802  0.030255  0.722000
-0.298427  0.030255  0.722000
-0.297051  0.030255  0.722000
-0.296086  0.030297  0.723000
-0.295524  0.030381  0.725000
-0.294143  0.030381  0.725000
-0.293166  0.030423  0.726000
-0.292587  0.030507  0.728000
-0.291600  0.030549  0.729000
-0.291008  0.030632  0.731000
-0.290011  0.030674  0.732000
-0.290194  0.030842  0.736000
-0.289185  0.030884  0.737000
-0.288562  0.030968  0.739000
-0.288320  0.031093  0.742000
-0.288067  0.031219  0.745000
-0.287417  0.031303  0.747000
-0.287143  0.031429  0.750000
-0.286476  0.031512  0.752000
-0.285423  0.031554  0.753000
-0.283989  0.031554  0.753000
-0.283305  0.031638  0.755000
-0.281867  0.031638  0.755000
-0.280429  0.031638  0.755000
-0.278990  0.031638  0.755000
-0.309120  0.042240  1.008000
-0.307200  0.042240  1.008000
-0.305280  0.042240  1.008000
-0.304263  0.042366  1.011000
-0.301440  0.042240  1.008000
-0.299520  0.042240  1.008000
-0.297600  0.042240  1.008000
-0.290693  0.041528  0.991000
-0.287931  0.041402  0.988000
-0.286050  0.041402  0.988000
-0.284168  0.041402  0.988000
-0.282286  0.041402  0.988000
-0.281255  0.041528  0.991000
-0.279368  0.041528  0.991000
-0.277480  0.041528  0.991000
-0.275592  0.041528  0.991000
-0.273705  0.041528  0.991000
-0.274286  0.041905  1.000000
-0.273198  0.042030  1.003000
-0.271288  0.042030  1.003000
-0.170133  0.026735  0.638000
-0.168389  0.026651  0.636000
-0.167177  0.026651  0.636000
-0.166488  0.026735  0.638000
-0.165272  0.026735  0.638000
-0.164057  0.026735  0.638000
-0.162842  0.026735  0.638000
-0.161627  0.026735  0.638000
-0.160411  0.026735  0.638000
-0.159196  0.026735  0.638000
-0.157486  0.026651  0.636000
-0.156029  0.026610  0.635000
-0.154575  0.026568  0.634000
-0.153126  0.026526  0.633000
-0.151920  0.026526  0.633000
-0.150714  0.026526  0.633000
-0.149272  0.026484  0.632000
-0.147834  0.026442  0.631000
-0.146632  0.026442  0.631000
-0.145430  0.026442  0.631000
-0.144229  0.026442  0.631000
-0.142573  0.026358  0.629000
-0.141375  0.026358  0.629000
-0.140177  0.026358  0.629000
-0.138979  0.026358  0.629000
-0.137562  0.026316  0.628000
-0.136366  0.026316  0.628000
-0.135170  0.026316  0.628000
-0.133973  0.026316  0.628000
-0.132777  0.026316  0.628000
-0.131581  0.026316  0.628000
-0.130385  0.026316  0.628000
-0.128983  0.026274  0.627000
-0.127789  0.026274  0.627000
-0.126594  0.026274  0.627000
-0.125200  0.026232  0.626000
-0.124008  0.026232  0.626000
-0.122815  0.026232  0.626000
-0.121623  0.026232  0.626000
-0.120430  0.026232  0.626000
-0.119429  0.026274  0.627000
-0.118234  0.026274  0.627000
-0.117227  0.026316  0.628000
-0.116215  0.026358  0.629000
-0.115383  0.026442  0.631000
-0.114362  0.026484  0.632000
-0.113337  0.026526  0.633000
-0.112131  0.026526  0.633000
-0.110926  0.026526  0.633000
-0.109893  0.026568  0.634000
-0.108686  0.026568  0.634000
-0.107648  0.026610  0.635000
-0.106606  0.026651  0.636000
-0.105394  0.026651  0.636000
-0.104510  0.026735  0.638000
-0.103295  0.026735  0.638000
-0.102240  0.026777  0.639000
-0.101181  0.026819  0.640000
-0.100118  0.026861  0.641000
-0.099051  0.026903  0.642000
-0.097829  0.026903  0.642000
-0.096907  0.026987  0.644000
-0.095829  0.027029  0.645000
-0.094747  0.027070  0.646000
-0.093661  0.027112  0.647000
-0.092429  0.027112  0.647000
-0.091337  0.027154  0.648000
-0.090103  0.027154  0.648000
-0.089143  0.027238  0.650000
-0.087905  0.027238  0.650000
-0.086667  0.027238  0.650000
-0.085166  0.027154  0.648000
-0.083931  0.027154  0.648000
-0.074423  0.034110  0.814000
-0.072872  0.034110  0.814000
-0.071410  0.034152  0.815000
-0.069771  0.034110  0.814000
-0.068221  0.034110  0.814000
-0.066670  0.034110  0.814000
-0.065120  0.034110  0.814000
-0.063413  0.034027  0.812000
-0.061714  0.033943  0.810000
-0.060023  0.033859  0.808000
-0.058339  0.033775  0.806000
-0.056804  0.033775  0.806000
-0.055131  0.033691  0.804000
-0.053600  0.033691  0.804000
-0.051939  0.033608  0.802000
-0.050411  0.033608  0.802000
-0.048884  0.033608  0.802000
-0.047120  0.033440  0.798000
-0.045543  0.033398  0.797000
-0.043804  0.033230  0.793000
-0.042187  0.033147  0.791000
-0.040577  0.033063  0.789000
-0.039074  0.033063  0.789000
-0.037524  0.033021  0.788000
-0.036023  0.033021  0.788000
-0.034522  0.033021  0.788000
-0.032937  0.032937  0.786000
-0.031360  0.032853  0.784000
-0.029867  0.032853  0.784000
-0.028229  0.032686  0.780000
-0.026743  0.032686  0.780000
-0.025225  0.032644  0.779000
-0.023680  0.032560  0.777000
-0.022200  0.032560  0.777000
-0.020667  0.032476  0.775000
-0.019141  0.032392  0.773000
-0.017669  0.032392  0.773000
-0.016175  0.032350  0.772000
-0.014667  0.032267  0.770000
-0.013166  0.032183  0.768000
-0.011688  0.032141  0.767000
-0.010200  0.032057  0.765000
-0.008720  0.031973  0.763000
-0.007248  0.031890  0.761000
-0.005790  0.031848  0.760000
-0.004343  0.031848  0.760000
-0.002888  0.031764  0.758000
-0.001440  0.031680  0.756000
0.000000  0.031680  0.756000
0.001440  0.031680  0.756000
0.002876  0.031638  0.755000
0.004303  0.031554  0.753000
0.005730  0.031512  0.752000
0.007162  0.031512  0.752000
0.008571  0.031429  0.750000
0.009973  0.031345  0.748000
0.011383  0.031303  0.747000
0.012806  0.031303  0.747000
0.014190  0.031219  0.745000
0.015610  0.031219  0.745000
0.016960  0.031093  0.742000
0.018373  0.031093  0.742000
0.019733  0.031010  0.740000
0.021114  0.030968  0.739000
0.022522  0.030968  0.739000
0.023865  0.030884  0.737000
0.025234  0.030842  0.736000
0.026564  0.030758  0.734000
0.027886  0.030674  0.732000
0.029280  0.030674  0.732000
0.030632  0.030632  0.731000
0.032025  0.030632  0.731000
0.033326  0.030549  0.729000
0.034667  0.030507  0.728000
0.035954  0.030423  0.726000
0.037286  0.030381  0.725000
0.038667  0.030381  0.725000
0.039882  0.030255  0.722000
0.041257  0.030255  0.722000
0.042514  0.030171  0.720000
0.043825  0.030130  0.719000
0.045069  0.030046  0.717000
0.046240  0.029920  0.714000
0.047600  0.029920  0.714000
0.048960  0.029920  0.714000
0.050250  0.029878  0.713000
0.051608  0.029878  0.713000
0.052966  0.029878  0.713000
0.054324  0.029878  0.713000
0.055526  0.029794  0.711000
0.056640  0.029669  0.708000
0.057743  0.029543  0.705000
0.058918  0.029459  0.703000
0.060086  0.029375  0.701000
0.061421  0.029375  0.701000
0.062756  0.029375  0.701000
0.064091  0.029375  0.701000
0.065427  0.029375  0.701000
0.066762  0.029375  0.701000
0.068097  0.029375  0.701000
0.069432  0.029375  0.701000
0.070768  0.029375  0.701000
0.072103  0.029375  0.701000
0.072390  0.028956  0.691000
0.073707  0.028956  0.691000
0.075023  0.028956  0.691000
0.076339  0.028956  0.691000
0.077655  0.028956  0.691000
0.078971  0.028956  0.691000
0.080288  0.028956  0.691000
0.081604  0.028956  0.691000
0.083280  0.029082  0.694000
0.084724  0.029124  0.695000
0.086295  0.029208  0.697000
0.087623  0.029208  0.697000
0.089078  0.029250  0.698000
0.090667  0.029333  0.700000
0.092394  0.029459  0.703000
0.093867  0.029501  0.704000
0.095343  0.029543  0.705000
0.096960  0.029627  0.707000
0.098446  0.029669  0.708000
0.100076  0.029752  0.710000
0.101571  0.029794  0.711000
0.103360  0.029920  0.714000
0.105013  0.030004  0.716000
0.106526  0.030046  0.717000
0.108192  0.030130  0.719000
0.109714  0.030171  0.720000
0.111549  0.030297  0.723000
0.113238  0.030381  0.725000
0.114777  0.030423  0.726000
0.116160  0.030423  0.726000
0.117867  0.030507  0.728000
0.119417  0.030549  0.729000
0.121137  0.030632  0.731000
0.122530  0.030632  0.731000
0.124091  0.030674  0.732000
0.125829  0.030758  0.734000
0.127747  0.030884  0.737000
-0.363566  0.028920  0.723000
-0.361688  0.028880  0.722000
-0.360312  0.028880  0.722000
-0.357943  0.028800  0.720000
-0.356076  0.028760  0.719000
-0.353720  0.028680  0.717000
-0.352354  0.028680  0.717000
-0.350989  0.028680  0.717000
-0.349135  0.028640  0.716000
-0.347771  0.028640  0.716000
-0.345440  0.028560  0.714000
-0.344080  0.028560  0.714000
-0.342720  0.028560  0.714000
-0.340882  0.028520  0.713000
-0.339524  0.028520  0.713000
-0.338166  0.028520  0.713000
-0.335863  0.028440  0.711000
-0.334509  0.028440  0.711000
-0.333154  0.028440  0.711000
-0.331333  0.028400  0.710000
-0.329981  0.028400  0.710000
-0.328629  0.028400  0.710000
-0.327737  0.028440  0.711000
-0.326383  0.028440  0.711000
-0.325029  0.028440  0.711000
-0.323674  0.028440  0.711000
-0.322320  0.028440  0.711000
-0.321869  0.028520  0.713000
-0.320510  0.028520  0.713000
-0.319152  0.028520  0.713000
-0.317794  0.028520  0.713000
-0.316436  0.028520  0.713000
-0.315520  0.028560  0.714000
-0.314160  0.028560  0.714000
-0.313676  0.028640  0.716000
-0.312749  0.028680  0.717000
-0.311383  0.028680  0.717000
-0.310017  0.028680  0.717000
-0.309512  0.028760  0.719000
-0.308143  0.028760  0.719000
-0.306773  0.028760  0.719000
-0.305829  0.028800  0.720000
-0.304457  0.028800  0.720000
-0.303928  0.028880  0.722000
-0.302552  0.028880  0.722000
-0.301177  0.028880  0.722000
-0.299802  0.028880  0.722000
-0.298840  0.028920  0.723000
-0.297463  0.028920  0.723000
-0.296086  0.028920  0.723000
-0.295524  0.029000  0.725000
-0.294143  0.029000  0.725000
-0.293166  0.029040  0.726000
-0.292587  0.029120  0.728000
-0.291600  0.029160  0.729000
-0.291008  0.029240  0.731000
-0.290011  0.029280  0.732000
-0.290194  0.029440  0.736000
-0.289185  0.029480  0.737000
-0.288562  0.029560  0.739000
-0.288320  0.029680  0.742000
-0.287293  0.029720  0.743000
-0.287417  0.029880  0.747000
-0.287143  0.030000  0.750000
-0.286857  0.030120  0.753000
-0.285423  0.030120  0.753000
-0.283989  0.030120  0.753000
-0.282554  0.030120  0.753000
-0.281120  0.030120  0.753000
-0.280429  0.030200  0.755000
-0.278990  0.030200  0.755000
-0.309120  0.040320  1.008000
-0.307200  0.040320  1.008000
-0.306189  0.040440  1.011000
-0.304263  0.040440  1.011000
-0.297253  0.039760  0.994000
-0.295360  0.039760  0.994000
-0.291695  0.039520  0.988000
-0.289813  0.039520  0.988000
-0.287057  0.039400  0.985000
-0.285181  0.039400  0.985000
-0.284168  0.039520  0.988000
-0.282286  0.039520  0.988000
-0.281255  0.039640  0.991000
-0.279368  0.039640  0.991000
-0.277480  0.039640  0.991000
-0.275592  0.039640  0.991000
-0.273705  0.039640  0.991000
-0.274286  0.040000  1.000000
-0.273198  0.040120  1.003000
-0.273451  0.040440  1.011000
-0.271526  0.040440  1.011000
-0.170133  0.025520  0.638000
-0.168918  0.025520  0.638000
-0.167703  0.025520  0.638000
-0.166488  0.025520  0.638000
-0.165272  0.025520  0.638000
-0.164057  0.025520  0.638000
-0.162842  0.025520  0.638000
-0.161627  0.025520  0.638000
-0.160411  0.025520  0.638000
-0.159196  0.025520  0.638000
-0.157486  0.025440  0.636000
-0.156029  0.025400  0.635000
-0.154575  0.025360  0.634000
-0.153368  0.025360  0.634000
-0.151920  0.025320  0.633000
-0.150714  0.025320  0.633000
-0.149272  0.025280  0.632000
-0.148069  0.025280  0.632000
-0.146865  0.025280  0.632000
-0.145661  0.025280  0.632000
-0.144229  0.025240  0.631000
-0.143027  0.025240  0.631000
-0.141375  0.025160  0.629000
-0.140177  0.025160  0.629000
-0.138979  0.025160  0.629000
-0.137781  0.025160  0.629000
-0.136583  0.025160  0.629000
-0.135170  0.025120  0.628000
-0.133973  0.025120  0.628000
-0.132777  0.025120  0.628000
-0.131581  0.025120  0.628000
-0.130385  0.025120  0.628000
-0.129189  0.025120  0.628000
-0.127789  0.025080  0.627000
-0.126594  0.025080  0.627000
-0.125200  0.025040  0.626000
-0.124008  0.025040  0.626000
-0.122815  0.025040  0.626000
-0.121623  0.025040  0.626000
-0.120623  0.025080  0.627000
-0.119429  0.025080  0.627000
-0.118423  0.025120  0.628000
-0.117413  0.025160  0.629000
-0.116585  0.025240  0.631000
-0.115566  0.025280  0.632000
-0.114362  0.025280  0.632000
-0.113337  0.025320  0.633000
-0.112131  0.025320  0.633000
-0.111101  0.025360  0.634000
-0.109893  0.025360  0.634000
-0.108857  0.025400  0.635000
-0.107648  0.025400  0.635000
-0.106606  0.025440  0.636000
-0.105726  0.025520  0.638000
-0.104510  0.025520  0.638000
-0.103295  0.025520  0.638000
-0.102240  0.025560  0.639000
-0.101181  0.025600  0.640000
-0.100118  0.025640  0.641000
-0.099051  0.025680  0.642000
-0.098133  0.025760  0.644000
-0.097057  0.025800  0.645000
-0.095977  0.025840  0.646000
-0.094893  0.025880  0.647000
-0.093661  0.025880  0.647000
-0.092429  0.025880  0.647000
-0.091337  0.025920  0.648000
-0.090381  0.026000  0.650000
-0.089143  0.026000  0.650000
-0.088040  0.026040  0.651000
-0.086800  0.026040  0.651000
-0.085166  0.025920  0.648000
-0.083931  0.025920  0.648000
-0.074514  0.032600  0.815000
-0.072962  0.032600  0.815000
-0.071585  0.032680  0.817000
-0.070029  0.032680  0.817000
-0.068472  0.032680  0.817000
-0.066670  0.032560  0.814000
-0.065120  0.032560  0.814000
-0.063413  0.032480  0.812000
-0.061714  0.032400  0.810000
-0.060023  0.032320  0.808000
-0.058339  0.032240  0.806000
-0.056804  0.032240  0.806000
-0.055131  0.032160  0.804000
-0.053600  0.032160  0.804000
-0.052069  0.032160  0.804000
-0.050411  0.032080  0.802000
-0.048884  0.032080  0.802000
-0.047120  0.031920  0.798000
-0.045543  0.031880  0.797000
-0.043693  0.031640  0.791000
-0.042187  0.031640  0.791000
-0.040577  0.031560  0.789000
-0.039074  0.031560  0.789000
-0.037524  0.031520  0.788000
-0.036023  0.031520  0.788000
-0.034522  0.031520  0.788000
-0.032937  0.031440  0.786000
-0.031360  0.031360  0.784000
-0.029867  0.031360  0.784000
