# .PCD v.5 - Point Cloud Data file format
FIELDS x y z 
SIZE 4 4 4
TYPE F F F
COUNT 1 1 1
WIDTH 1566
HEIGHT 1
POINTS 1566
DATA ascii
-0.148240  -0.043520  0.714000
-0.146880  -0.043520  0.714000
-0.092747  -0.040107  0.658000
-0.091354  -0.040046  0.657000
-0.090103  -0.040046  0.657000
-0.088716  -0.039985  0.656000
-0.087333  -0.039924  0.655000
-0.085823  -0.039802  0.653000
-0.084579  -0.039802  0.653000
-0.083208  -0.039741  0.652000
-0.081840  -0.039680  0.651000
-0.080229  -0.039497  0.648000
-0.078872  -0.039436  0.647000
-0.077640  -0.039436  0.647000
-0.076290  -0.039375  0.646000
-0.074594  -0.039131  0.642000
-0.073371  -0.039131  0.642000
-0.072149  -0.039131  0.642000
-0.071147  -0.039253  0.644000
-0.039570  -0.037242  0.611000
-0.038406  -0.037242  0.611000
-0.037303  -0.037303  0.612000
-0.036137  -0.037303  0.612000
-0.035143  -0.037486  0.615000
-0.033971  -0.037486  0.615000
-0.032853  -0.037547  0.616000
-0.031731  -0.037608  0.617000
-0.030606  -0.037669  0.618000
-0.029476  -0.037730  0.619000
-0.028297  -0.037730  0.619000
-0.027118  -0.037730  0.619000
-0.025981  -0.037790  0.620000
-0.024880  -0.037912  0.622000
-0.023733  -0.037973  0.623000
-0.022583  -0.038034  0.624000
-0.021429  -0.038095  0.625000
-0.020238  -0.038095  0.625000
-0.019078  -0.038156  0.626000
-0.017914  -0.038217  0.627000
-0.016773  -0.038339  0.629000
-0.015625  -0.038461  0.631000
-0.014469  -0.038583  0.633000
-0.013263  -0.038583  0.633000
-0.012076  -0.038644  0.634000
-0.010869  -0.038644  0.634000
-0.009676  -0.038705  0.635000
-0.008480  -0.038766  0.636000
-0.007269  -0.038766  0.636000
-0.006057  -0.038766  0.636000
-0.004952  -0.039619  0.650000
-0.003703  -0.039497  0.648000
-0.002469  -0.039497  0.648000
-0.001234  -0.039497  0.648000
0.000000  -0.039497  0.648000
0.001234  -0.039497  0.648000
0.002476  -0.039619  0.650000
0.003720  -0.039680  0.651000
0.004968  -0.039741  0.652000
0.006219  -0.039802  0.653000
0.007497  -0.039985  0.656000
0.008747  -0.039985  0.656000
0.010027  -0.040107  0.658000
0.011314  -0.040229  0.660000
0.012571  -0.040229  0.660000
0.013850  -0.040290  0.661000
0.015154  -0.040411  0.663000
0.016467  -0.040533  0.665000
0.017760  -0.040594  0.666000
0.019057  -0.040655  0.667000
0.020419  -0.040838  0.670000
0.021728  -0.040899  0.671000
0.023006  -0.040899  0.671000
0.024320  -0.040960  0.672000
0.025676  -0.041082  0.674000
0.027000  -0.041143  0.675000
0.028328  -0.041204  0.676000
0.029703  -0.041326  0.678000
0.031086  -0.041448  0.680000
0.032381  -0.041448  0.680000
0.033775  -0.041570  0.682000
0.035074  -0.041570  0.682000
0.036427  -0.041630  0.683000
0.037893  -0.041813  0.686000
0.039257  -0.041874  0.687000
0.040743  -0.042057  0.690000
0.042118  -0.042118  0.691000
0.043434  -0.042118  0.691000
0.044750  -0.042118  0.691000
0.046267  -0.042301  0.694000
0.047657  -0.042362  0.695000
0.049192  -0.042545  0.698000
0.050667  -0.042667  0.700000
0.052074  -0.042728  0.701000
0.053562  -0.042850  0.703000
0.054979  -0.042910  0.704000
0.056400  -0.042971  0.705000
0.057907  -0.043093  0.707000
0.059337  -0.043154  0.708000
0.060686  -0.043154  0.708000
0.062034  -0.043154  0.708000
0.063651  -0.043337  0.711000
0.065737  -0.043825  0.719000
0.067107  -0.043825  0.719000
0.068571  -0.043886  0.720000
0.070137  -0.044008  0.722000
0.071314  -0.043886  0.720000
0.072686  -0.043886  0.720000
0.074057  -0.043886  0.720000
0.144114  -0.047543  0.780000
0.145600  -0.047543  0.780000
0.147086  -0.047543  0.780000
0.148571  -0.047543  0.780000
0.149865  -0.047482  0.779000
0.150960  -0.047360  0.777000
0.151655  -0.047116  0.773000
0.153128  -0.047116  0.773000
0.154600  -0.047116  0.773000
0.186069  -0.044434  0.729000
0.186686  -0.044251  0.726000
0.188069  -0.044251  0.726000
0.190234  -0.044434  0.729000
0.190834  -0.044251  0.726000
0.192217  -0.044251  0.726000
0.193600  -0.044251  0.726000
0.194177  -0.044069  0.723000
0.195554  -0.044069  0.723000
0.197476  -0.044190  0.725000
0.198857  -0.044190  0.725000
0.204381  -0.045105  0.740000
0.205790  -0.045105  0.740000
0.207200  -0.045105  0.740000
0.209173  -0.045227  0.742000
0.210587  -0.045227  0.742000
0.212286  -0.045288  0.743000
0.213701  -0.045288  0.743000
0.207299  -0.043642  0.716000
0.208663  -0.043642  0.716000
0.210027  -0.043642  0.716000
0.211390  -0.043642  0.716000
0.213051  -0.043703  0.717000
0.217707  -0.044373  0.728000
0.219093  -0.044373  0.728000
0.219874  -0.044251  0.726000
0.221257  -0.044251  0.726000
0.222640  -0.044251  0.726000
0.223714  -0.044190  0.725000
0.225095  -0.044190  0.725000
0.226476  -0.044190  0.725000
0.228171  -0.044251  0.726000
0.230187  -0.044373  0.728000
0.232528  -0.044556  0.731000
0.233280  -0.044434  0.729000
0.234669  -0.044434  0.729000
0.236057  -0.044434  0.729000
0.237446  -0.044434  0.729000
0.239490  -0.044556  0.731000
0.241211  -0.044617  0.732000
-0.298674  -0.045006  0.716000
-0.297310  -0.045006  0.716000
-0.295947  -0.045006  0.716000
-0.294583  -0.045006  0.716000
-0.293629  -0.045069  0.717000
-0.292263  -0.045069  0.717000
-0.290194  -0.046263  0.736000
-0.288792  -0.046263  0.736000
-0.237417  -0.041674  0.663000
-0.235442  -0.041549  0.661000
-0.233829  -0.041486  0.660000
-0.232571  -0.041486  0.660000
-0.231314  -0.041486  0.660000
-0.229360  -0.041360  0.658000
-0.227760  -0.041297  0.657000
-0.226164  -0.041234  0.656000
-0.224914  -0.041234  0.656000
-0.223324  -0.041171  0.655000
-0.222076  -0.041171  0.655000
-0.220154  -0.041046  0.653000
-0.218910  -0.041046  0.653000
-0.217667  -0.041046  0.653000
-0.216091  -0.040983  0.652000
-0.214850  -0.040983  0.652000
-0.212297  -0.040731  0.648000
-0.211063  -0.040731  0.648000
-0.209829  -0.040731  0.648000
-0.208594  -0.040731  0.648000
-0.207360  -0.040731  0.648000
-0.206126  -0.040731  0.648000
-0.204891  -0.040731  0.648000
-0.203657  -0.040731  0.648000
-0.202423  -0.040731  0.648000
-0.201189  -0.040731  0.648000
-0.199954  -0.040731  0.648000
-0.198720  -0.040731  0.648000
-0.197486  -0.040731  0.648000
-0.196251  -0.040731  0.648000
-0.195017  -0.040731  0.648000
-0.193783  -0.040731  0.648000
-0.192549  -0.040731  0.648000
-0.191314  -0.040731  0.648000
-0.190080  -0.040731  0.648000
-0.189429  -0.040857  0.650000
-0.188190  -0.040857  0.650000
-0.187815  -0.041046  0.653000
-0.186000  -0.040920  0.651000
-0.184760  -0.040920  0.651000
-0.183802  -0.040983  0.652000
-0.182560  -0.040983  0.652000
-0.181318  -0.040983  0.652000
-0.180076  -0.040983  0.652000
-0.179109  -0.041046  0.653000
-0.177865  -0.041046  0.653000
-0.177162  -0.041171  0.655000
-0.176183  -0.041234  0.656000
-0.175200  -0.041297  0.657000
-0.173949  -0.041297  0.657000
-0.172960  -0.041360  0.658000
-0.171707  -0.041360  0.658000
-0.170453  -0.041360  0.658000
-0.169714  -0.041486  0.660000
-0.168712  -0.041549  0.661000
-0.167707  -0.041611  0.662000
-0.166446  -0.041611  0.662000
-0.165434  -0.041674  0.663000
-0.164667  -0.041800  0.665000
-0.163646  -0.041863  0.666000
-0.162621  -0.041926  0.667000
-0.161834  -0.042051  0.669000
-0.160800  -0.042114  0.670000
-0.159762  -0.042177  0.671000
-0.158720  -0.042240  0.672000
-0.158377  -0.042491  0.676000
-0.157554  -0.042617  0.678000
-0.156263  -0.042617  0.678000
-0.155200  -0.042680  0.679000
-0.153907  -0.042680  0.679000
-0.152838  -0.042743  0.680000
-0.092606  -0.041297  0.657000
-0.091354  -0.041297  0.657000
-0.090103  -0.041297  0.657000
-0.088716  -0.041234  0.656000
-0.087467  -0.041234  0.656000
-0.085823  -0.041046  0.653000
-0.084579  -0.041046  0.653000
-0.083208  -0.040983  0.652000
-0.081840  -0.040920  0.651000
-0.080229  -0.040731  0.648000
-0.078872  -0.040669  0.647000
-0.077520  -0.040606  0.646000
-0.076290  -0.040606  0.646000
-0.074827  -0.040480  0.644000
-0.073371  -0.040354  0.642000
-0.072149  -0.040354  0.642000
-0.071147  -0.040480  0.644000
-0.039699  -0.038531  0.613000
-0.038531  -0.038531  0.613000
-0.037425  -0.038594  0.614000
-0.036314  -0.038657  0.615000
-0.035200  -0.038720  0.616000
-0.034027  -0.038720  0.616000
-0.032907  -0.038783  0.617000
-0.031783  -0.038846  0.618000
-0.030655  -0.038909  0.619000
-0.029524  -0.038971  0.620000
-0.028343  -0.038971  0.620000
-0.027250  -0.039097  0.622000
-0.026065  -0.039097  0.622000
-0.024920  -0.039160  0.623000
-0.023771  -0.039223  0.624000
-0.022619  -0.039286  0.625000
-0.021463  -0.039349  0.626000
-0.020303  -0.039411  0.627000
-0.019109  -0.039411  0.627000
-0.017943  -0.039474  0.628000
-0.016827  -0.039663  0.631000
-0.015699  -0.039851  0.634000
-0.014583  -0.040103  0.638000
-0.013368  -0.040103  0.638000
-0.012152  -0.040103  0.638000
-0.010937  -0.040103  0.638000
-0.009722  -0.040103  0.638000
-0.008507  -0.040103  0.638000
-0.007303  -0.040166  0.639000
-0.006086  -0.040166  0.639000
-0.004952  -0.040857  0.650000
-0.003714  -0.040857  0.650000
-0.002476  -0.040857  0.650000
-0.001238  -0.040857  0.650000
0.000000  -0.040857  0.650000
0.001238  -0.040857  0.650000
0.002480  -0.040920  0.651000
0.003731  -0.041046  0.653000
0.004990  -0.041171  0.655000
0.006248  -0.041234  0.656000
0.007520  -0.041360  0.658000
0.008800  -0.041486  0.660000
0.010072  -0.041549  0.661000
0.011331  -0.041549  0.661000
0.012610  -0.041611  0.662000
0.013891  -0.041674  0.663000
0.015223  -0.041863  0.666000
0.016491  -0.041863  0.666000
0.017787  -0.041926  0.667000
0.019114  -0.042051  0.669000
0.020419  -0.042114  0.670000
0.021728  -0.042177  0.671000
0.023040  -0.042240  0.672000
0.024392  -0.042366  0.674000
0.025714  -0.042429  0.675000
0.027040  -0.042491  0.676000
0.028411  -0.042617  0.678000
0.029790  -0.042743  0.680000
0.031177  -0.042869  0.682000
0.032524  -0.042931  0.683000
0.033825  -0.042931  0.683000
0.035177  -0.042994  0.684000
0.036587  -0.043120  0.686000
0.038059  -0.043309  0.689000
0.039429  -0.043371  0.690000
0.040802  -0.043434  0.691000
0.042240  -0.043560  0.693000
0.043560  -0.043560  0.693000
0.044880  -0.043560  0.693000
0.046333  -0.043686  0.695000
0.047794  -0.043811  0.697000
0.049192  -0.043874  0.698000
0.050667  -0.044000  0.700000
0.052074  -0.044063  0.701000
0.053638  -0.044251  0.704000
0.055057  -0.044314  0.705000
0.056560  -0.044440  0.707000
0.057907  -0.044440  0.707000
0.059337  -0.044503  0.708000
0.060686  -0.044503  0.708000
0.062034  -0.044503  0.708000
0.063651  -0.044691  0.711000
0.065554  -0.045069  0.717000
0.067107  -0.045194  0.719000
0.068476  -0.045194  0.719000
0.069943  -0.045257  0.720000
0.071314  -0.045257  0.720000
0.072686  -0.045257  0.720000
0.074057  -0.045257  0.720000
0.145600  -0.049029  0.780000
0.147086  -0.049029  0.780000
0.148571  -0.049029  0.780000
0.149480  -0.048840  0.777000
0.150571  -0.048714  0.775000
0.151459  -0.048526  0.772000
0.152930  -0.048526  0.772000
0.154400  -0.048526  0.772000
0.179269  -0.044817  0.713000
0.180627  -0.044817  0.713000
0.181985  -0.044817  0.713000
0.186686  -0.045634  0.726000
0.188069  -0.045634  0.726000
0.189451  -0.045634  0.726000
0.190571  -0.045571  0.725000
0.191952  -0.045571  0.725000
0.193333  -0.045571  0.725000
0.193371  -0.045257  0.720000
0.194743  -0.045257  0.720000
0.196114  -0.045257  0.720000
0.197486  -0.045257  0.720000
0.196924  -0.044817  0.713000
0.198282  -0.044817  0.713000
0.208040  -0.046703  0.743000
0.209455  -0.046703  0.743000
0.210870  -0.046703  0.743000
0.212857  -0.046829  0.745000
0.214276  -0.046829  0.745000
0.207299  -0.045006  0.716000
0.208663  -0.045006  0.716000
0.210027  -0.045006  0.716000
0.211390  -0.045006  0.716000
0.213051  -0.045069  0.717000
0.215015  -0.045194  0.719000
0.215482  -0.045006  0.716000
0.216846  -0.045006  0.716000
0.221257  -0.045634  0.726000
0.222640  -0.045634  0.726000
0.221246  -0.045069  0.717000
0.222611  -0.045069  0.717000
0.225539  -0.045383  0.722000
0.227857  -0.045571  0.725000
0.229554  -0.045634  0.726000
0.232528  -0.045949  0.731000
0.232320  -0.045634  0.726000
0.233703  -0.045634  0.726000
0.235733  -0.045760  0.728000
0.237446  -0.045823  0.729000
0.239490  -0.045949  0.731000
-0.237417  -0.042937  0.663000
-0.235442  -0.042808  0.661000
-0.233829  -0.042743  0.660000
-0.232571  -0.042743  0.660000
-0.231314  -0.042743  0.660000
-0.229360  -0.042613  0.658000
-0.227760  -0.042549  0.657000
-0.226164  -0.042484  0.656000
-0.224571  -0.042419  0.655000
-0.223324  -0.042419  0.655000
-0.222076  -0.042419  0.655000
-0.220154  -0.042290  0.653000
-0.218910  -0.042290  0.653000
-0.217667  -0.042290  0.653000
-0.216091  -0.042225  0.652000
-0.214850  -0.042225  0.652000
-0.213608  -0.042225  0.652000
-0.211714  -0.042095  0.650000
-0.210476  -0.042095  0.650000
-0.209238  -0.042095  0.650000
-0.208000  -0.042095  0.650000
-0.206762  -0.042095  0.650000
-0.205524  -0.042095  0.650000
-0.203657  -0.041966  0.648000
-0.202423  -0.041966  0.648000
-0.201189  -0.041966  0.648000
-0.199954  -0.041966  0.648000
-0.198720  -0.041966  0.648000
-0.197486  -0.041966  0.648000
-0.196251  -0.041966  0.648000
-0.195017  -0.041966  0.648000
-0.193783  -0.041966  0.648000
-0.192549  -0.041966  0.648000
-0.191314  -0.041966  0.648000
-0.190080  -0.041966  0.648000
-0.189429  -0.042095  0.650000
-0.188190  -0.042095  0.650000
-0.187815  -0.042290  0.653000
-0.186000  -0.042160  0.651000
-0.184760  -0.042160  0.651000
-0.183802  -0.042225  0.652000
-0.182560  -0.042225  0.652000
-0.181318  -0.042225  0.652000
-0.180076  -0.042225  0.652000
-0.179109  -0.042290  0.653000
-0.177865  -0.042290  0.653000
-0.177162  -0.042419  0.655000
-0.176183  -0.042484  0.656000
-0.175200  -0.042549  0.657000
-0.173949  -0.042549  0.657000
-0.172960  -0.042613  0.658000
-0.171707  -0.042613  0.658000
-0.170971  -0.042743  0.660000
-0.169714  -0.042743  0.660000
-0.168712  -0.042808  0.661000
-0.167707  -0.042872  0.662000
-0.166446  -0.042872  0.662000
-0.165434  -0.042937  0.663000
-0.164667  -0.043067  0.665000
-0.163646  -0.043131  0.666000
-0.162621  -0.043196  0.667000
-0.161834  -0.043326  0.669000
-0.160800  -0.043390  0.670000
-0.159762  -0.043455  0.671000
-0.158720  -0.043520  0.672000
-0.158377  -0.043779  0.676000
-0.157554  -0.043909  0.678000
-0.156493  -0.043973  0.679000
-0.155200  -0.043973  0.679000
-0.153907  -0.043973  0.679000
-0.153288  -0.044168  0.682000
-0.093857  -0.042549  0.657000
-0.092606  -0.042549  0.657000
-0.091354  -0.042549  0.657000
-0.090103  -0.042549  0.657000
-0.088716  -0.042484  0.656000
-0.087467  -0.042484  0.656000
-0.085823  -0.042290  0.653000
-0.084579  -0.042290  0.653000
-0.083208  -0.042225  0.652000
-0.081840  -0.042160  0.651000
-0.080229  -0.041966  0.648000
-0.078872  -0.041901  0.647000
-0.077520  -0.041836  0.646000
-0.076290  -0.041836  0.646000
-0.074943  -0.041771  0.645000
-0.073714  -0.041771  0.645000
-0.072486  -0.041771  0.645000
-0.041000  -0.039829  0.615000
-0.039829  -0.039829  0.615000
-0.038657  -0.039829  0.615000
-0.037486  -0.039829  0.615000
-0.036373  -0.039893  0.616000
-0.035257  -0.039958  0.617000
-0.034082  -0.039958  0.617000
-0.033013  -0.040088  0.619000
-0.031886  -0.040152  0.620000
-0.030705  -0.040152  0.620000
-0.029619  -0.040282  0.622000
-0.028434  -0.040282  0.622000
-0.027293  -0.040347  0.623000
-0.026107  -0.040347  0.623000
-0.024960  -0.040411  0.624000
-0.023810  -0.040476  0.625000
-0.022655  -0.040541  0.626000
-0.021497  -0.040606  0.627000
-0.020368  -0.040735  0.629000
-0.019170  -0.040735  0.629000
-0.018029  -0.040865  0.631000
-0.016853  -0.040930  0.632000
-0.015724  -0.041124  0.635000
-0.014583  -0.041318  0.638000
-0.013368  -0.041318  0.638000
-0.012152  -0.041318  0.638000
-0.010937  -0.041318  0.638000
-0.009722  -0.041318  0.638000
-0.008520  -0.041383  0.639000
-0.007394  -0.041901  0.647000
-0.006162  -0.041901  0.647000
-0.004937  -0.041966  0.648000
-0.003714  -0.042095  0.650000
-0.002480  -0.042160  0.651000
-0.001240  -0.042160  0.651000
0.000000  -0.042160  0.651000
0.001242  -0.042225  0.652000
0.002488  -0.042290  0.653000
0.003743  -0.042419  0.655000
0.004998  -0.042484  0.656000
0.006257  -0.042549  0.657000
0.007543  -0.042743  0.660000
0.008813  -0.042808  0.661000
0.010088  -0.042872  0.662000
0.011366  -0.042937  0.663000
0.012629  -0.042937  0.663000
0.013954  -0.043131  0.666000
0.015246  -0.043196  0.667000
0.016566  -0.043326  0.669000
0.017867  -0.043390  0.670000
0.019171  -0.043455  0.671000
0.020480  -0.043520  0.672000
0.021760  -0.043520  0.672000
0.023109  -0.043650  0.674000
0.024429  -0.043714  0.675000
0.025752  -0.043779  0.676000
0.027160  -0.043973  0.679000
0.028495  -0.044038  0.680000
0.029922  -0.044232  0.683000
0.031223  -0.044232  0.683000
0.032571  -0.044297  0.684000
0.033874  -0.044297  0.684000
0.035280  -0.044427  0.686000
0.036640  -0.044491  0.687000
0.038114  -0.044686  0.690000
0.039486  -0.044750  0.691000
0.040802  -0.044750  0.691000
0.042240  -0.044880  0.693000
0.043560  -0.044880  0.693000
0.044880  -0.044880  0.693000
0.046333  -0.045010  0.695000
0.047794  -0.045139  0.697000
0.049192  -0.045204  0.698000
0.050667  -0.045333  0.700000
0.052074  -0.045398  0.701000
0.053562  -0.045528  0.703000
0.055057  -0.045657  0.705000
0.056560  -0.045787  0.707000
0.057907  -0.045787  0.707000
0.059337  -0.045851  0.708000
0.060686  -0.045851  0.708000
0.062034  -0.045851  0.708000
0.063562  -0.045981  0.710000
0.065554  -0.046434  0.717000
0.067107  -0.046564  0.719000
0.068476  -0.046564  0.719000
0.069943  -0.046629  0.720000
0.071215  -0.046564  0.719000
0.072585  -0.046564  0.719000
0.074057  -0.046629  0.720000
0.148952  -0.050644  0.782000
0.149480  -0.050320  0.777000
0.150183  -0.050061  0.773000
0.151459  -0.049996  0.772000
0.152930  -0.049996  0.772000
0.154400  -0.049996  0.772000
0.177162  -0.045981  0.710000
0.178514  -0.045981  0.710000
0.180627  -0.046175  0.713000
0.181985  -0.046175  0.713000
0.181800  -0.045787  0.707000
0.188069  -0.047017  0.726000
0.189451  -0.047017  0.726000
0.189257  -0.046629  0.720000
0.190629  -0.046629  0.720000
0.192800  -0.046823  0.723000
0.193371  -0.046629  0.720000
0.194472  -0.046564  0.719000
0.195842  -0.046564  0.719000
0.197211  -0.046564  0.719000
0.196924  -0.046175  0.713000
0.198282  -0.046175  0.713000
0.199640  -0.046175  0.713000
0.210019  -0.048248  0.745000
0.211438  -0.048248  0.745000
0.212857  -0.048248  0.745000
0.205935  -0.046370  0.716000
0.207299  -0.046370  0.716000
0.208080  -0.046240  0.714000
0.209440  -0.046240  0.714000
0.211390  -0.046370  0.716000
0.213051  -0.046434  0.717000
0.214118  -0.046370  0.716000
0.214880  -0.046240  0.714000
0.216240  -0.046240  0.714000
0.217600  -0.046240  0.714000
0.218960  -0.046240  0.714000
0.220320  -0.046240  0.714000
0.221680  -0.046240  0.714000
0.223040  -0.046240  0.714000
0.224400  -0.046240  0.714000
0.225760  -0.046240  0.714000
0.227120  -0.046240  0.714000
0.228480  -0.046240  0.714000
0.230484  -0.046370  0.716000
0.232171  -0.046434  0.717000
0.237446  -0.047211  0.729000
-0.237417  -0.044200  0.663000
-0.235442  -0.044067  0.661000
-0.233829  -0.044000  0.660000
-0.232571  -0.044000  0.660000
-0.231314  -0.044000  0.660000
-0.229360  -0.043867  0.658000
-0.227760  -0.043800  0.657000
-0.226164  -0.043733  0.656000
-0.224571  -0.043667  0.655000
-0.223324  -0.043667  0.655000
-0.222076  -0.043667  0.655000
-0.220154  -0.043533  0.653000
-0.218910  -0.043533  0.653000
-0.217667  -0.043533  0.653000
-0.216091  -0.043467  0.652000
-0.214850  -0.043467  0.652000
-0.213608  -0.043467  0.652000
-0.212366  -0.043467  0.652000
-0.210800  -0.043400  0.651000
-0.209560  -0.043400  0.651000
-0.208320  -0.043400  0.651000
-0.207080  -0.043400  0.651000
-0.205840  -0.043400  0.651000
-0.204286  -0.043333  0.650000
-0.203048  -0.043333  0.650000
-0.201810  -0.043333  0.650000
-0.200571  -0.043333  0.650000
-0.199333  -0.043333  0.650000
-0.198095  -0.043333  0.650000
-0.196857  -0.043333  0.650000
-0.195619  -0.043333  0.650000
-0.194381  -0.043333  0.650000
-0.190667  -0.043333  0.650000
-0.190011  -0.043467  0.652000
-0.186286  -0.043467  0.652000
-0.185044  -0.043467  0.652000
-0.183802  -0.043467  0.652000
-0.182560  -0.043467  0.652000
-0.181318  -0.043467  0.652000
-0.180076  -0.043467  0.652000
-0.179109  -0.043533  0.653000
-0.177865  -0.043533  0.653000
-0.177162  -0.043667  0.655000
-0.176183  -0.043733  0.656000
-0.175200  -0.043800  0.657000
-0.173949  -0.043800  0.657000
-0.172960  -0.043867  0.658000
-0.171707  -0.043867  0.658000
-0.170971  -0.044000  0.660000
-0.169714  -0.044000  0.660000
-0.168712  -0.044067  0.661000
-0.167707  -0.044133  0.662000
-0.166697  -0.044200  0.663000
-0.165434  -0.044200  0.663000
-0.164667  -0.044333  0.665000
-0.163646  -0.044400  0.666000
-0.162621  -0.044467  0.667000
-0.161834  -0.044600  0.669000
-0.160800  -0.044667  0.670000
-0.159762  -0.044733  0.671000
-0.159192  -0.044933  0.674000
-0.158143  -0.045000  0.675000
-0.157554  -0.045200  0.678000
-0.156493  -0.045267  0.679000
-0.155200  -0.045267  0.679000
-0.154133  -0.045333  0.680000
-0.153512  -0.045533  0.683000
-0.093857  -0.043800  0.657000
-0.092606  -0.043800  0.657000
-0.091354  -0.043800  0.657000
-0.090103  -0.043800  0.657000
-0.088716  -0.043733  0.656000
-0.087467  -0.043733  0.656000
-0.086086  -0.043667  0.655000
-0.084579  -0.043533  0.653000
-0.083208  -0.043467  0.652000
-0.081840  -0.043400  0.651000
-0.080229  -0.043200  0.648000
-0.078750  -0.043067  0.646000
-0.077400  -0.043000  0.645000
-0.076171  -0.043000  0.645000
-0.074827  -0.042933  0.644000
-0.073600  -0.042933  0.644000
-0.072373  -0.042933  0.644000
-0.042103  -0.040933  0.614000
-0.040933  -0.040933  0.614000
-0.039829  -0.041000  0.615000
-0.038657  -0.041000  0.615000
-0.037486  -0.041000  0.615000
-0.036373  -0.041067  0.616000
-0.035314  -0.041200  0.618000
-0.034137  -0.041200  0.618000
-0.033067  -0.041333  0.620000
-0.031989  -0.041467  0.622000
-0.030804  -0.041467  0.622000
-0.029667  -0.041533  0.623000
-0.028526  -0.041600  0.624000
-0.027337  -0.041600  0.624000
-0.026149  -0.041600  0.624000
-0.025000  -0.041667  0.625000
-0.023848  -0.041733  0.626000
-0.022728  -0.041867  0.628000
-0.021566  -0.041933  0.629000
-0.020432  -0.042067  0.631000
-0.019261  -0.042133  0.632000
-0.018086  -0.042200  0.633000
-0.016907  -0.042267  0.634000
-0.015749  -0.042400  0.636000
-0.014583  -0.042533  0.638000
-0.013368  -0.042533  0.638000
-0.012171  -0.042600  0.639000
-0.010954  -0.042600  0.639000
-0.009737  -0.042600  0.639000
-0.008547  -0.042733  0.641000
-0.007394  -0.043133  0.647000
-0.006162  -0.043133  0.647000
-0.004937  -0.043200  0.648000
-0.003714  -0.043333  0.650000
-0.002480  -0.043400  0.651000
-0.001240  -0.043400  0.651000
0.000000  -0.043400  0.651000
0.001244  -0.043533  0.653000
0.002499  -0.043733  0.656000
0.003749  -0.043733  0.656000
0.005006  -0.043800  0.657000
0.006267  -0.043867  0.658000
0.007554  -0.044067  0.661000
0.008813  -0.044067  0.661000
0.010103  -0.044200  0.663000
0.011400  -0.044333  0.665000
0.012667  -0.044333  0.665000
0.013975  -0.044467  0.667000
0.015291  -0.044600  0.669000
0.016590  -0.044667  0.670000
0.017893  -0.044733  0.671000
0.019200  -0.044800  0.672000
0.020541  -0.044933  0.674000
0.021825  -0.044933  0.674000
0.023109  -0.044933  0.674000
0.024429  -0.045000  0.675000
0.025752  -0.045067  0.676000
0.027160  -0.045267  0.679000
0.028579  -0.045467  0.682000
0.029922  -0.045533  0.683000
0.031269  -0.045600  0.684000
0.032667  -0.045733  0.686000
0.033973  -0.045733  0.686000
0.035331  -0.045800  0.687000
0.036747  -0.045933  0.689000
0.038114  -0.046000  0.690000
0.039486  -0.046067  0.691000
0.040920  -0.046200  0.693000
0.042240  -0.046200  0.693000
0.043560  -0.046200  0.693000
0.044945  -0.046267  0.694000
0.046333  -0.046333  0.695000
0.047794  -0.046467  0.697000
0.049333  -0.046667  0.700000
0.050667  -0.046667  0.700000
0.052074  -0.046733  0.701000
0.053562  -0.046867  0.703000
0.055057  -0.047000  0.705000
0.056560  -0.047133  0.707000
0.057989  -0.047200  0.708000
0.059337  -0.047200  0.708000
0.060686  -0.047200  0.708000
0.062034  -0.047200  0.708000
0.063562  -0.047333  0.710000
0.065463  -0.047733  0.716000
0.067107  -0.047933  0.719000
0.068571  -0.048000  0.720000
0.069943  -0.048000  0.720000
0.071215  -0.047933  0.719000
0.072585  -0.047933  0.719000
0.074057  -0.048000  0.720000
0.149989  -0.051467  0.772000
0.151459  -0.051467  0.772000
0.152930  -0.051467  0.772000
0.154400  -0.051467  0.772000
0.175810  -0.047333  0.710000
0.177162  -0.047333  0.710000
0.178514  -0.047333  0.710000
0.180627  -0.047533  0.713000
0.180453  -0.047133  0.707000
0.181800  -0.047133  0.707000
0.183147  -0.047133  0.707000
0.183710  -0.046933  0.704000
0.185051  -0.046933  0.704000
0.186657  -0.047000  0.705000
0.192800  -0.048200  0.723000
0.193103  -0.047933  0.719000
0.193661  -0.047733  0.716000
0.195025  -0.047733  0.716000
0.196389  -0.047733  0.716000
0.196924  -0.047533  0.713000
0.198282  -0.047533  0.713000
0.199640  -0.047533  0.713000
0.200998  -0.047533  0.713000
0.202640  -0.047600  0.714000
0.204571  -0.047733  0.716000
0.205935  -0.047733  0.716000
0.207299  -0.047733  0.716000
0.208080  -0.047600  0.714000
0.209440  -0.047600  0.714000
0.211390  -0.047733  0.716000
0.212754  -0.047733  0.716000
0.214118  -0.047733  0.716000
0.214880  -0.047600  0.714000
0.216240  -0.047600  0.714000
0.217600  -0.047600  0.714000
0.218960  -0.047600  0.714000
0.220320  -0.047600  0.714000
0.221680  -0.047600  0.714000
0.223040  -0.047600  0.714000
0.224400  -0.047600  0.714000
0.225760  -0.047600  0.714000
0.227120  -0.047600  0.714000
0.228480  -0.047600  0.714000
0.229840  -0.047600  0.714000
0.231848  -0.047733  0.716000
0.233211  -0.047733  0.716000
-0.235798  -0.045394  0.662000
-0.233829  -0.045257  0.660000
-0.232571  -0.045257  0.660000
-0.231314  -0.045257  0.660000
-0.229360  -0.045120  0.658000
-0.227760  -0.045051  0.657000
-0.226164  -0.044983  0.656000
-0.224571  -0.044914  0.655000
-0.223324  -0.044914  0.655000
-0.222076  -0.044914  0.655000
-0.220829  -0.044914  0.655000
-0.218910  -0.044777  0.653000
-0.217667  -0.044777  0.653000
-0.216091  -0.044709  0.652000
-0.214850  -0.044709  0.652000
-0.213608  -0.044709  0.652000
-0.212366  -0.044709  0.652000
-0.210800  -0.044640  0.651000
-0.209560  -0.044640  0.651000
-0.208320  -0.044640  0.651000
-0.207080  -0.044640  0.651000
-0.205840  -0.044640  0.651000
-0.204600  -0.044640  0.651000
-0.203048  -0.044571  0.650000
-0.201810  -0.044571  0.650000
-0.200571  -0.044571  0.650000
-0.199333  -0.044571  0.650000
-0.198400  -0.044640  0.651000
-0.197160  -0.044640  0.651000
-0.195920  -0.044640  0.651000
-0.194680  -0.044640  0.651000
-0.186286  -0.044709  0.652000
-0.185044  -0.044709  0.652000
-0.183802  -0.044709  0.652000
-0.182560  -0.044709  0.652000
-0.181596  -0.044777  0.653000
-0.180352  -0.044777  0.653000
-0.179109  -0.044777  0.653000
-0.177865  -0.044777  0.653000
-0.177162  -0.044914  0.655000
-0.176183  -0.044983  0.656000
-0.175200  -0.045051  0.657000
-0.173949  -0.045051  0.657000
-0.172960  -0.045120  0.658000
-0.171707  -0.045120  0.658000
-0.170971  -0.045257  0.660000
-0.169714  -0.045257  0.660000
-0.168712  -0.045326  0.661000
-0.167707  -0.045394  0.662000
-0.166697  -0.045463  0.663000
-0.165933  -0.045600  0.665000
-0.164667  -0.045600  0.665000
-0.163891  -0.045737  0.667000
-0.163109  -0.045874  0.669000
-0.161834  -0.045874  0.669000
-0.161040  -0.046011  0.671000
-0.160000  -0.046080  0.672000
-0.159192  -0.046217  0.674000
-0.158143  -0.046286  0.675000
-0.157554  -0.046491  0.678000
-0.156493  -0.046560  0.679000
-0.155200  -0.046560  0.679000
-0.154813  -0.046834  0.683000
-0.153737  -0.046903  0.684000
-0.092324  -0.044914  0.655000
-0.091076  -0.044914  0.655000
-0.089966  -0.044983  0.656000
-0.088716  -0.044983  0.656000
-0.087467  -0.044983  0.656000
-0.086086  -0.044914  0.655000
-0.084579  -0.044777  0.653000
-0.083208  -0.044709  0.652000
-0.081840  -0.044640  0.651000
-0.080105  -0.044366  0.647000
-0.078629  -0.044229  0.645000
-0.077400  -0.044229  0.645000
-0.076171  -0.044229  0.645000
-0.074827  -0.044160  0.644000
-0.073600  -0.044160  0.644000
-0.072373  -0.044160  0.644000
-0.042103  -0.042103  0.614000
-0.040933  -0.042103  0.614000
-0.039829  -0.042171  0.615000
-0.038657  -0.042171  0.615000
-0.037547  -0.042240  0.616000
-0.036432  -0.042309  0.617000
-0.035371  -0.042446  0.619000
-0.034192  -0.042446  0.619000
-0.033173  -0.042651  0.622000
-0.032040  -0.042720  0.623000
-0.030853  -0.042720  0.623000
-0.029714  -0.042789  0.624000
-0.028571  -0.042857  0.625000
-0.027381  -0.042857  0.625000
-0.026232  -0.042926  0.626000
-0.025080  -0.042994  0.627000
-0.023886  -0.042994  0.627000
-0.022764  -0.043131  0.629000
-0.021634  -0.043269  0.631000
-0.020465  -0.043337  0.632000
-0.019322  -0.043474  0.634000
-0.018114  -0.043474  0.634000
-0.016960  -0.043611  0.636000
-0.015749  -0.043611  0.636000
-0.014606  -0.043817  0.639000
-0.013389  -0.043817  0.639000
-0.012190  -0.043886  0.640000
-0.010989  -0.043954  0.641000
-0.009829  -0.044229  0.645000
-0.008600  -0.044229  0.645000
-0.007394  -0.044366  0.647000
-0.006171  -0.044434  0.648000
-0.004952  -0.044571  0.650000
-0.003720  -0.044640  0.651000
-0.002484  -0.044709  0.652000
-0.001242  -0.044709  0.652000
0.000000  -0.044777  0.653000
0.001250  -0.044983  0.656000
0.002503  -0.045051  0.657000
0.003754  -0.045051  0.657000
0.005006  -0.045051  0.657000
0.006267  -0.045120  0.658000
0.007554  -0.045326  0.661000
0.008827  -0.045394  0.662000
0.010103  -0.045463  0.663000
0.011400  -0.045600  0.665000
0.012705  -0.045737  0.667000
0.013975  -0.045737  0.667000
0.015314  -0.045943  0.670000
0.016615  -0.046011  0.671000
0.017920  -0.046080  0.672000
0.019257  -0.046217  0.674000
0.020541  -0.046217  0.674000
0.021857  -0.046286  0.675000
0.023143  -0.046286  0.675000
0.024465  -0.046354  0.676000
0.025829  -0.046491  0.678000
0.027200  -0.046629  0.680000
0.028621  -0.046834  0.683000
0.029966  -0.046903  0.684000
0.031360  -0.047040  0.686000
0.032667  -0.047040  0.686000
0.033973  -0.047040  0.686000
0.035434  -0.047246  0.689000
0.036747  -0.047246  0.689000
0.038170  -0.047383  0.691000
0.039486  -0.047383  0.691000
0.040920  -0.047520  0.693000
0.042240  -0.047520  0.693000
0.043560  -0.047520  0.693000
0.044880  -0.047520  0.693000
0.046267  -0.047589  0.694000
0.047657  -0.047657  0.695000
0.049192  -0.047863  0.698000
0.050522  -0.047863  0.698000
0.052000  -0.048000  0.700000
0.053410  -0.048069  0.701000
0.055057  -0.048343  0.705000
0.056560  -0.048480  0.707000
0.057989  -0.048549  0.708000
0.059337  -0.048549  0.708000
0.060686  -0.048549  0.708000
0.062034  -0.048549  0.708000
0.063651  -0.048754  0.711000
0.065280  -0.048960  0.714000
0.067107  -0.049303  0.719000
0.068476  -0.049303  0.719000
0.069943  -0.049371  0.720000
0.149989  -0.052937  0.772000
0.151067  -0.052800  0.770000
0.152533  -0.052800  0.770000
0.154000  -0.052800  0.770000
0.172617  -0.048549  0.708000
0.173966  -0.048549  0.708000
0.175314  -0.048549  0.708000
0.176663  -0.048549  0.708000
0.178514  -0.048686  0.710000
0.179867  -0.048686  0.710000
0.179432  -0.048206  0.703000
0.180771  -0.048206  0.703000
0.182629  -0.048343  0.705000
0.183710  -0.048274  0.704000
0.185051  -0.048274  0.704000
0.186128  -0.048206  0.703000
0.187467  -0.048206  0.703000
0.189074  -0.048274  0.704000
0.191497  -0.048549  0.708000
0.193390  -0.048686  0.710000
0.194743  -0.048686  0.710000
0.196095  -0.048686  0.710000
0.198282  -0.048891  0.713000
0.199640  -0.048891  0.713000
0.200998  -0.048891  0.713000
0.202640  -0.048960  0.714000
0.204571  -0.049097  0.716000
0.205935  -0.049097  0.716000
0.207299  -0.049097  0.716000
0.208663  -0.049097  0.716000
0.210027  -0.049097  0.716000
0.211390  -0.049097  0.716000
0.212754  -0.049097  0.716000
0.214118  -0.049097  0.716000
0.214579  -0.048891  0.713000
0.215937  -0.048891  0.713000
0.217295  -0.048891  0.713000
0.218653  -0.048891  0.713000
0.220011  -0.048891  0.713000
0.221370  -0.048891  0.713000
0.222728  -0.048891  0.713000
0.224400  -0.048960  0.714000
0.225760  -0.048960  0.714000
0.227120  -0.048960  0.714000
0.228480  -0.048960  0.714000
0.229840  -0.048960  0.714000
0.231848  -0.049097  0.716000
0.233211  -0.049097  0.716000
-0.235798  -0.046655  0.662000
-0.234183  -0.046585  0.661000
-0.232924  -0.046585  0.661000
-0.231665  -0.046585  0.661000
-0.229360  -0.046373  0.658000
-0.227760  -0.046303  0.657000
-0.226509  -0.046303  0.657000
-0.224914  -0.046232  0.656000
-0.223324  -0.046162  0.655000
-0.222076  -0.046162  0.655000
-0.220829  -0.046162  0.655000
-0.219581  -0.046162  0.655000
-0.217667  -0.046021  0.653000
-0.216423  -0.046021  0.653000
-0.215179  -0.046021  0.653000
-0.213935  -0.046021  0.653000
-0.212366  -0.045950  0.652000
-0.210800  -0.045880  0.651000
-0.209560  -0.045880  0.651000
-0.208320  -0.045880  0.651000
-0.207080  -0.045880  0.651000
-0.205840  -0.045880  0.651000
-0.204600  -0.045880  0.651000
-0.203048  -0.045810  0.650000
-0.201810  -0.045810  0.650000
-0.200571  -0.045810  0.650000
-0.199333  -0.045810  0.650000
-0.198400  -0.045880  0.651000
-0.197463  -0.045950  0.652000
-0.196221  -0.045950  0.652000
-0.195278  -0.046021  0.653000
-0.186286  -0.045950  0.652000
-0.185044  -0.045950  0.652000
-0.183802  -0.045950  0.652000
-0.182840  -0.046021  0.653000
-0.181596  -0.046021  0.653000
-0.180352  -0.046021  0.653000
-0.179109  -0.046021  0.653000
-0.178410  -0.046162  0.655000
-0.177162  -0.046162  0.655000
-0.176183  -0.046232  0.656000
-0.175200  -0.046303  0.657000
-0.173949  -0.046303  0.657000
-0.172960  -0.046373  0.658000
-0.172229  -0.046514  0.660000
-0.170971  -0.046514  0.660000
-0.169971  -0.046585  0.661000
-0.168712  -0.046585  0.661000
-0.167707  -0.046655  0.662000
-0.166697  -0.046726  0.663000
-0.165933  -0.046867  0.665000
-0.164914  -0.046937  0.666000
-0.163891  -0.047008  0.667000
-0.163109  -0.047149  0.669000
-0.162076  -0.047219  0.670000
-0.161040  -0.047290  0.671000
-0.160000  -0.047360  0.672000
-0.159192  -0.047501  0.674000
-0.158143  -0.047571  0.675000
-0.157554  -0.047783  0.678000
-0.156493  -0.047853  0.679000
-0.155429  -0.047924  0.680000
-0.154813  -0.048135  0.683000
-0.153737  -0.048206  0.684000
-0.153120  -0.048840  0.693000
-0.151800  -0.048840  0.693000
-0.150480  -0.048840  0.693000
-0.149160  -0.048840  0.693000
-0.147840  -0.048840  0.693000
-0.146731  -0.048910  0.694000
-0.092324  -0.046162  0.655000
-0.091076  -0.046162  0.655000
-0.089966  -0.046232  0.656000
-0.088716  -0.046232  0.656000
-0.087467  -0.046232  0.656000
-0.086086  -0.046162  0.655000
-0.084579  -0.046021  0.653000
-0.083335  -0.046021  0.653000
-0.081840  -0.045880  0.651000
-0.079981  -0.045528  0.646000
-0.078629  -0.045457  0.645000
-0.077280  -0.045387  0.644000
-0.076053  -0.045387  0.644000
-0.074827  -0.045387  0.644000
-0.073600  -0.045387  0.644000
-0.072373  -0.045387  0.644000
-0.043343  -0.043343  0.615000
-0.042171  -0.043343  0.615000
-0.041000  -0.043343  0.615000
-0.039893  -0.043413  0.616000
-0.038720  -0.043413  0.616000
-0.037608  -0.043484  0.617000
-0.036491  -0.043554  0.618000
-0.035371  -0.043625  0.619000
-0.034248  -0.043695  0.620000
-0.033173  -0.043836  0.622000
-0.032040  -0.043907  0.623000
-0.030903  -0.043977  0.624000
-0.029762  -0.044048  0.625000
-0.028571  -0.044048  0.625000
-0.027425  -0.044118  0.626000
-0.026274  -0.044189  0.627000
-0.025120  -0.044259  0.628000
-0.023962  -0.044330  0.629000
-0.022836  -0.044470  0.631000
-0.021669  -0.044541  0.632000
-0.020497  -0.044611  0.633000
-0.019352  -0.044752  0.635000
-0.018171  -0.044823  0.636000
-0.017013  -0.044964  0.638000
-0.015798  -0.044964  0.638000
-0.014606  -0.045034  0.639000
-0.013410  -0.045105  0.640000
-0.012229  -0.045246  0.642000
-0.011006  -0.045246  0.642000
-0.009859  -0.045598  0.647000
-0.008627  -0.045598  0.647000
-0.007406  -0.045669  0.648000
-0.006190  -0.045810  0.650000
-0.004960  -0.045880  0.651000
-0.003726  -0.045950  0.652000
-0.002488  -0.046021  0.653000
-0.001244  -0.046021  0.653000
0.000000  -0.046162  0.655000
0.001251  -0.046303  0.657000
0.002507  -0.046373  0.658000
0.003760  -0.046373  0.658000
0.005013  -0.046373  0.658000
0.006286  -0.046514  0.660000
0.007566  -0.046655  0.662000
0.008840  -0.046726  0.663000
0.010133  -0.046867  0.665000
0.011434  -0.047008  0.667000
0.012743  -0.047149  0.669000
0.014017  -0.047149  0.669000
0.015314  -0.047219  0.670000
0.016640  -0.047360  0.672000
0.017973  -0.047501  0.674000
0.019257  -0.047501  0.674000
0.020571  -0.047571  0.675000
0.021857  -0.047571  0.675000
0.023177  -0.047642  0.676000
0.024537  -0.047783  0.678000
0.025867  -0.047853  0.679000
0.027280  -0.048065  0.682000
0.028663  -0.048206  0.684000
0.030053  -0.048347  0.686000
0.031360  -0.048347  0.686000
0.032714  -0.048417  0.687000
0.034023  -0.048417  0.687000
0.035434  -0.048558  0.689000
0.036747  -0.048558  0.689000
0.038170  -0.048699  0.691000
0.039486  -0.048699  0.691000
0.040920  -0.048840  0.693000
0.042118  -0.048699  0.691000
0.043434  -0.048699  0.691000
0.044880  -0.048840  0.693000
0.046200  -0.048840  0.693000
0.047589  -0.048910  0.694000
0.048981  -0.048981  0.695000
0.050305  -0.048981  0.695000
0.052000  -0.049333  0.700000
0.053410  -0.049404  0.701000
0.055057  -0.049686  0.705000
0.056560  -0.049827  0.707000
0.057989  -0.049897  0.708000
0.062297  -0.050109  0.711000
0.063651  -0.050109  0.711000
0.065280  -0.050320  0.714000
0.067107  -0.050672  0.719000
0.068476  -0.050672  0.719000
0.150674  -0.054126  0.768000
0.152137  -0.054126  0.768000
0.154000  -0.054267  0.770000
0.172617  -0.049897  0.708000
0.173966  -0.049897  0.708000
0.175314  -0.049897  0.708000
0.176663  -0.049897  0.708000
0.178011  -0.049897  0.708000
0.178600  -0.049686  0.705000
0.179432  -0.049545  0.703000
0.180771  -0.049545  0.703000
0.182110  -0.049545  0.703000
0.183450  -0.049545  0.703000
0.184789  -0.049545  0.703000
0.186128  -0.049545  0.703000
0.187467  -0.049545  0.703000
0.188806  -0.049545  0.703000
0.190686  -0.049686  0.705000
0.192573  -0.049827  0.707000
0.194743  -0.050038  0.710000
0.196095  -0.050038  0.710000
0.198282  -0.050250  0.713000
0.199640  -0.050250  0.713000
0.200998  -0.050250  0.713000
0.202640  -0.050320  0.714000
0.204571  -0.050461  0.716000
0.205935  -0.050461  0.716000
0.207299  -0.050461  0.716000
0.208663  -0.050461  0.716000
0.210027  -0.050461  0.716000
0.211686  -0.050531  0.717000
0.213051  -0.050531  0.717000
0.211726  -0.049897  0.708000
0.213074  -0.049897  0.708000
0.215331  -0.050109  0.711000
0.216686  -0.050109  0.711000
0.218040  -0.050109  0.711000
0.219394  -0.050109  0.711000
0.220749  -0.050109  0.711000
0.222728  -0.050250  0.713000
0.224400  -0.050320  0.714000
0.225760  -0.050320  0.714000
0.227120  -0.050320  0.714000
0.228480  -0.050320  0.714000
0.229840  -0.050320  0.714000
-0.237417  -0.047989  0.663000
-0.236154  -0.047989  0.663000
-0.234537  -0.047916  0.662000
-0.232924  -0.047844  0.661000
-0.231665  -0.047844  0.661000
-0.229360  -0.047627  0.658000
-0.227760  -0.047554  0.657000
-0.226509  -0.047554  0.657000
-0.224914  -0.047482  0.656000
-0.223324  -0.047410  0.655000
-0.222076  -0.047410  0.655000
-0.220829  -0.047410  0.655000
-0.219581  -0.047410  0.655000
-0.218333  -0.047410  0.655000
-0.216423  -0.047265  0.653000
-0.215179  -0.047265  0.653000
-0.213935  -0.047265  0.653000
-0.212366  -0.047192  0.652000
-0.211124  -0.047192  0.652000
-0.209560  -0.047120  0.651000
-0.208320  -0.047120  0.651000
-0.207080  -0.047120  0.651000
-0.205840  -0.047120  0.651000
-0.204600  -0.047120  0.651000
-0.203048  -0.047048  0.650000
-0.201810  -0.047048  0.650000
-0.200571  -0.047048  0.650000
-0.199333  -0.047048  0.650000
-0.198400  -0.047120  0.651000
-0.197463  -0.047192  0.652000
-0.196221  -0.047192  0.652000
-0.195278  -0.047265  0.653000
-0.186571  -0.047265  0.653000
-0.185328  -0.047265  0.653000
-0.184084  -0.047265  0.653000
-0.182840  -0.047265  0.653000
-0.181596  -0.047265  0.653000
-0.180352  -0.047265  0.653000
-0.179657  -0.047410  0.655000
-0.178410  -0.047410  0.655000
-0.177432  -0.047482  0.656000
-0.176451  -0.047554  0.657000
-0.175200  -0.047554  0.657000
-0.174213  -0.047627  0.658000
-0.173486  -0.047771  0.660000
-0.172229  -0.047771  0.660000
-0.170971  -0.047771  0.660000
-0.169971  -0.047844  0.661000
-0.168712  -0.047844  0.661000
-0.167707  -0.047916  0.662000
-0.166697  -0.047989  0.663000
-0.165933  -0.048133  0.665000
-0.164914  -0.048206  0.666000
-0.163891  -0.048278  0.667000
-0.163109  -0.048423  0.669000
-0.162076  -0.048495  0.670000
-0.161040  -0.048568  0.671000
-0.160000  -0.048640  0.672000
-0.159192  -0.048785  0.674000
-0.158143  -0.048857  0.675000
-0.157554  -0.049074  0.678000
-0.156493  -0.049147  0.679000
-0.155429  -0.049219  0.680000
-0.154813  -0.049436  0.683000
-0.153737  -0.049509  0.684000
-0.152880  -0.049653  0.686000
-0.152457  -0.049943  0.690000
-0.151143  -0.049943  0.690000
-0.150046  -0.050015  0.691000
-0.148730  -0.050015  0.691000
-0.147840  -0.050160  0.693000
-0.146520  -0.050160  0.693000
-0.091215  -0.047482  0.656000
-0.089966  -0.047482  0.656000
-0.088851  -0.047554  0.657000
-0.087467  -0.047482  0.656000
-0.086086  -0.047410  0.655000
-0.084838  -0.047410  0.655000
-0.083335  -0.047265  0.653000
-0.081966  -0.047192  0.652000
-0.079981  -0.046758  0.646000
-0.078629  -0.046686  0.645000
-0.077280  -0.046613  0.644000
-0.076053  -0.046613  0.644000
-0.074827  -0.046613  0.644000
-0.073600  -0.046613  0.644000
-0.072373  -0.046613  0.644000
-0.043343  -0.044514  0.615000
-0.042171  -0.044514  0.615000
-0.041067  -0.044587  0.616000
-0.039893  -0.044587  0.616000
-0.038783  -0.044659  0.617000
-0.037669  -0.044731  0.618000
-0.036550  -0.044804  0.619000
-0.035429  -0.044876  0.620000
-0.034358  -0.045021  0.622000
-0.033227  -0.045093  0.623000
-0.032091  -0.045166  0.624000
-0.030952  -0.045238  0.625000
-0.029762  -0.045238  0.625000
-0.028617  -0.045310  0.626000
-0.027469  -0.045383  0.627000
-0.026316  -0.045455  0.628000
-0.025160  -0.045528  0.629000
-0.023962  -0.045528  0.629000
-0.022872  -0.045745  0.632000
-0.021703  -0.045817  0.633000
-0.020562  -0.045962  0.635000
-0.019383  -0.046034  0.636000
-0.018229  -0.046179  0.638000
-0.017040  -0.046251  0.639000
-0.015823  -0.046251  0.639000
-0.014629  -0.046324  0.640000
-0.013451  -0.046469  0.642000
-0.012267  -0.046613  0.644000
-0.011074  -0.046758  0.646000
-0.009859  -0.046830  0.647000
-0.008640  -0.046903  0.648000
-0.007429  -0.047048  0.650000
-0.006190  -0.047048  0.650000
-0.004968  -0.047192  0.652000
-0.003731  -0.047265  0.653000
-0.002495  -0.047410  0.655000
-0.001250  -0.047482  0.656000
0.000000  -0.047554  0.657000
0.001253  -0.047627  0.658000
0.002507  -0.047627  0.658000
0.003771  -0.047771  0.660000
0.005036  -0.047844  0.661000
0.006295  -0.047844  0.661000
0.007577  -0.047989  0.663000
0.008867  -0.048133  0.665000
0.010149  -0.048206  0.666000
0.011469  -0.048423  0.669000
0.012762  -0.048495  0.670000
0.014038  -0.048495  0.670000
0.015337  -0.048568  0.671000
0.016690  -0.048785  0.674000
0.017973  -0.048785  0.674000
0.019286  -0.048857  0.675000
0.020571  -0.048857  0.675000
0.021857  -0.048857  0.675000
0.023246  -0.049074  0.678000
0.024573  -0.049147  0.679000
0.025905  -0.049219  0.680000
0.027320  -0.049436  0.683000
0.028663  -0.049509  0.684000
0.030053  -0.049653  0.686000
0.031360  -0.049653  0.686000
0.032714  -0.049726  0.687000
0.034023  -0.049726  0.687000
0.035434  -0.049870  0.689000
0.036800  -0.049943  0.690000
0.038170  -0.050015  0.691000
0.039486  -0.050015  0.691000
0.040802  -0.050015  0.691000
0.042118  -0.050015  0.691000
0.043434  -0.050015  0.691000
0.044750  -0.050015  0.691000
0.046067  -0.050015  0.691000
0.047520  -0.050160  0.693000
0.048910  -0.050232  0.694000
0.050305  -0.050305  0.695000
0.051629  -0.050305  0.695000
0.150674  -0.055589  0.768000
0.152137  -0.055589  0.768000
0.173720  -0.051173  0.707000
0.175067  -0.051173  0.707000
0.176413  -0.051173  0.707000
0.177006  -0.050956  0.704000
0.177587  -0.050739  0.701000
0.178922  -0.050739  0.701000
0.180257  -0.050739  0.701000
0.181592  -0.050739  0.701000
0.182928  -0.050739  0.701000
0.184263  -0.050739  0.701000
0.185598  -0.050739  0.701000
0.186933  -0.050739  0.701000
0.188269  -0.050739  0.701000
0.190145  -0.050884  0.703000
0.191756  -0.050956  0.704000
0.193097  -0.050956  0.704000
0.194438  -0.050956  0.704000
0.198282  -0.051608  0.713000
0.199640  -0.051608  0.713000
0.200998  -0.051608  0.713000
0.202640  -0.051680  0.714000
0.204571  -0.051825  0.716000
0.205935  -0.051825  0.716000
0.207299  -0.051825  0.716000
0.202543  -0.050305  0.695000
0.203867  -0.050305  0.695000
0.205190  -0.050305  0.695000
0.208000  -0.050667  0.700000
0.209333  -0.050667  0.700000
0.211570  -0.050884  0.703000
0.213514  -0.051029  0.705000
0.215467  -0.051173  0.707000
0.216813  -0.051173  0.707000
0.219086  -0.051390  0.710000
0.220749  -0.051463  0.711000
0.222728  -0.051608  0.713000
0.224086  -0.051608  0.713000
0.225444  -0.051608  0.713000
-0.237417  -0.049251  0.663000
-0.236154  -0.049251  0.663000
-0.234537  -0.049177  0.662000
-0.233276  -0.049177  0.662000
-0.231665  -0.049103  0.661000
-0.229360  -0.048880  0.658000
-0.228107  -0.048880  0.658000
-0.226509  -0.048806  0.657000
-0.224914  -0.048731  0.656000
-0.223665  -0.048731  0.656000
-0.222415  -0.048731  0.656000
-0.220829  -0.048657  0.655000
-0.219581  -0.048657  0.655000
-0.217667  -0.048509  0.653000
-0.216423  -0.048509  0.653000
-0.215179  -0.048509  0.653000
-0.213608  -0.048434  0.652000
-0.212366  -0.048434  0.652000
-0.211124  -0.048434  0.652000
-0.209560  -0.048360  0.651000
-0.208320  -0.048360  0.651000
-0.207080  -0.048360  0.651000
-0.205840  -0.048360  0.651000
-0.204600  -0.048360  0.651000
-0.203048  -0.048286  0.650000
-0.201810  -0.048286  0.650000
-0.200571  -0.048286  0.650000
-0.199640  -0.048360  0.651000
-0.198705  -0.048434  0.652000
-0.197463  -0.048434  0.652000
-0.196221  -0.048434  0.652000
-0.195876  -0.048657  0.655000
-0.187815  -0.048509  0.653000
-0.186571  -0.048509  0.653000
-0.185328  -0.048509  0.653000
-0.184084  -0.048509  0.653000
-0.182840  -0.048509  0.653000
-0.181596  -0.048509  0.653000
-0.180905  -0.048657  0.655000
-0.179657  -0.048657  0.655000
-0.178682  -0.048731  0.656000
-0.177432  -0.048731  0.656000
-0.176451  -0.048806  0.657000
-0.175200  -0.048806  0.657000
-0.174213  -0.048880  0.658000
-0.173486  -0.049029  0.660000
-0.172229  -0.049029  0.660000
-0.171230  -0.049103  0.661000
-0.169971  -0.049103  0.661000
-0.168968  -0.049177  0.662000
-0.167707  -0.049177  0.662000
-0.166697  -0.049251  0.663000
-0.165933  -0.049400  0.665000
-0.164914  -0.049474  0.666000
-0.163891  -0.049549  0.667000
-0.163109  -0.049697  0.669000
-0.162076  -0.049771  0.670000
-0.160800  -0.049771  0.670000
-0.159762  -0.049846  0.671000
-0.158484  -0.049846  0.671000
-0.157909  -0.050069  0.674000
-0.156857  -0.050143  0.675000
-0.156493  -0.050440  0.679000
-0.155429  -0.050514  0.680000
-0.154813  -0.050737  0.683000
-0.153512  -0.050737  0.683000
-0.152434  -0.050811  0.684000
-0.152457  -0.051257  0.690000
-0.151143  -0.051257  0.690000
-0.150046  -0.051331  0.691000
-0.148730  -0.051331  0.691000
-0.147840  -0.051480  0.693000
-0.146520  -0.051480  0.693000
-0.091215  -0.048731  0.656000
-0.089966  -0.048731  0.656000
-0.088851  -0.048806  0.657000
-0.087600  -0.048806  0.657000
-0.086217  -0.048731  0.656000
-0.084968  -0.048731  0.656000
-0.083335  -0.048509  0.653000
-0.081966  -0.048434  0.652000
-0.080105  -0.048063  0.647000
-0.078629  -0.047914  0.645000
-0.077400  -0.047914  0.645000
-0.076171  -0.047914  0.645000
-0.074943  -0.047914  0.645000
-0.073714  -0.047914  0.645000
-0.043413  -0.045760  0.616000
-0.042240  -0.045760  0.616000
-0.041067  -0.045760  0.616000
-0.039958  -0.045834  0.617000
-0.038846  -0.045909  0.618000
