# .PCD v.5 - Point Cloud Data file format
FIELDS x y z 
SIZE 4 4 4
TYPE F F F
COUNT 1 1 1
WIDTH 1566
HEIGHT 1
POINTS 1566
DATA ascii
0.144863  -0.011474  0.753000
0.146297  -0.011474  0.753000
0.148124  -0.011505  0.755000
0.150750  -0.011596  0.761000
0.152200  -0.011596  0.761000
0.153650  -0.011596  0.761000
0.155099  -0.011596  0.761000
0.156960  -0.011627  0.763000
0.158829  -0.011657  0.765000
0.160705  -0.011688  0.767000
0.162166  -0.011688  0.767000
0.163840  -0.011703  0.768000
0.165303  -0.011703  0.768000
0.167200  -0.011733  0.770000
0.168667  -0.011733  0.770000
0.170133  -0.011733  0.770000
0.172269  -0.011779  0.773000
0.174190  -0.011810  0.775000
0.175667  -0.011810  0.775000
0.172800  -0.011520  0.756000
0.174240  -0.011520  0.756000
0.175680  -0.011520  0.756000
0.177120  -0.011520  0.756000
0.178560  -0.011520  0.756000
0.179762  -0.011505  0.755000
0.181200  -0.011505  0.755000
0.182638  -0.011505  0.755000
0.189937  -0.011779  0.773000
0.191410  -0.011779  0.773000
0.192882  -0.011779  0.773000
0.194354  -0.011779  0.773000
0.195573  -0.011764  0.772000
0.197044  -0.011764  0.772000
0.198514  -0.011764  0.772000
0.199985  -0.011764  0.772000
0.201455  -0.011764  0.772000
0.203189  -0.011779  0.773000
-0.423693  -0.012669  0.739000
-0.422286  -0.012669  0.739000
-0.421448  -0.012686  0.740000
-0.420038  -0.012686  0.740000
-0.418063  -0.012669  0.739000
-0.416655  -0.012669  0.739000
-0.415248  -0.012669  0.739000
-0.413840  -0.012669  0.739000
-0.412990  -0.012686  0.740000
-0.411581  -0.012686  0.740000
-0.409617  -0.012669  0.739000
-0.408210  -0.012669  0.739000
-0.407352  -0.012686  0.740000
-0.407040  -0.012720  0.742000
-0.405627  -0.012720  0.742000
-0.402579  -0.012669  0.739000
-0.401171  -0.012669  0.739000
-0.399764  -0.012669  0.739000
-0.398356  -0.012669  0.739000
-0.369943  -0.012806  0.747000
-0.368520  -0.012806  0.747000
-0.367097  -0.012806  0.747000
-0.364695  -0.012771  0.745000
-0.363276  -0.012771  0.745000
-0.360886  -0.012737  0.743000
-0.359470  -0.012737  0.743000
-0.357573  -0.012720  0.742000
-0.354720  -0.012669  0.739000
-0.353312  -0.012669  0.739000
-0.353810  -0.012737  0.743000
-0.352394  -0.012737  0.743000
-0.351924  -0.012771  0.745000
-0.350505  -0.012771  0.745000
-0.350491  -0.012823  0.748000
-0.349067  -0.012823  0.748000
-0.348571  -0.012857  0.750000
-0.347143  -0.012857  0.750000
-0.344792  -0.012823  0.748000
-0.342909  -0.012806  0.747000
-0.341486  -0.012806  0.747000
-0.341429  -0.012857  0.750000
-0.340000  -0.012857  0.750000
-0.338571  -0.012857  0.750000
-0.333394  -0.012823  0.748000
-0.331970  -0.012823  0.748000
-0.308838  -0.012634  0.737000
-0.307017  -0.012617  0.736000
-0.305615  -0.012617  0.736000
-0.304627  -0.012634  0.737000
-0.304046  -0.012669  0.739000
-0.301819  -0.012634  0.737000
-0.299192  -0.012583  0.734000
-0.297794  -0.012583  0.734000
-0.297204  -0.012617  0.736000
-0.297008  -0.012669  0.739000
-0.293600  -0.012583  0.734000
-0.292202  -0.012583  0.734000
-0.290804  -0.012583  0.734000
-0.291377  -0.012669  0.739000
-0.291539  -0.012737  0.743000
-0.290905  -0.012771  0.745000
-0.288709  -0.012737  0.743000
-0.287293  -0.012737  0.743000
-0.285878  -0.012737  0.743000
-0.285229  -0.012771  0.745000
-0.283810  -0.012771  0.745000
-0.282390  -0.012771  0.745000
-0.280971  -0.012771  0.745000
-0.279552  -0.012771  0.745000
-0.278133  -0.012771  0.745000
-0.277457  -0.012806  0.747000
-0.276404  -0.012823  0.748000
-0.274979  -0.012823  0.748000
-0.274286  -0.012857  0.750000
-0.274324  -0.012994  0.758000
-0.272880  -0.012994  0.758000
-0.247333  -0.012720  0.742000
-0.245920  -0.012720  0.742000
-0.243848  -0.012686  0.740000
-0.242110  -0.012669  0.739000
-0.240703  -0.012669  0.739000
-0.239295  -0.012669  0.739000
-0.237888  -0.012669  0.739000
-0.235840  -0.012634  0.737000
-0.234118  -0.012617  0.736000
-0.232716  -0.012617  0.736000
-0.231314  -0.012617  0.736000
-0.230225  -0.012634  0.737000
-0.228510  -0.012617  0.736000
-0.227109  -0.012617  0.736000
-0.225093  -0.012583  0.734000
-0.223695  -0.012583  0.734000
-0.222297  -0.012583  0.734000
-0.220899  -0.012583  0.734000
-0.218903  -0.012549  0.732000
-0.217509  -0.012549  0.732000
-0.216705  -0.012583  0.734000
-0.214720  -0.012549  0.732000
-0.213326  -0.012549  0.732000
-0.211931  -0.012549  0.732000
-0.210537  -0.012549  0.732000
-0.209143  -0.012549  0.732000
-0.207749  -0.012549  0.732000
-0.206354  -0.012549  0.732000
-0.204960  -0.012549  0.732000
-0.203566  -0.012549  0.732000
-0.202724  -0.012583  0.734000
-0.201874  -0.012617  0.736000
-0.200472  -0.012617  0.736000
-0.199070  -0.012617  0.736000
-0.197669  -0.012617  0.736000
-0.196267  -0.012617  0.736000
-0.194865  -0.012617  0.736000
-0.193463  -0.012617  0.736000
-0.192322  -0.012634  0.737000
-0.190918  -0.012634  0.737000
-0.189514  -0.012634  0.737000
-0.188621  -0.012669  0.739000
-0.187467  -0.012686  0.740000
-0.186057  -0.012686  0.740000
-0.185147  -0.012720  0.742000
-0.183733  -0.012720  0.742000
-0.182566  -0.012737  0.743000
-0.181150  -0.012737  0.743000
-0.180219  -0.012771  0.745000
-0.178800  -0.012771  0.745000
-0.177857  -0.012806  0.747000
-0.176434  -0.012806  0.747000
-0.175714  -0.012857  0.750000
-0.174983  -0.012909  0.753000
-0.173549  -0.012909  0.753000
-0.172800  -0.012960  0.756000
-0.171813  -0.012994  0.758000
-0.170819  -0.013029  0.760000
-0.169371  -0.013029  0.760000
-0.167924  -0.013029  0.760000
-0.166476  -0.013029  0.760000
-0.163943  -0.012943  0.755000
-0.160998  -0.012823  0.748000
-0.159573  -0.012823  0.748000
-0.158149  -0.012823  0.748000
-0.156724  -0.012823  0.748000
-0.155299  -0.012823  0.748000
-0.153874  -0.012823  0.748000
-0.152450  -0.012823  0.748000
-0.151025  -0.012823  0.748000
-0.149600  -0.012823  0.748000
-0.148175  -0.012823  0.748000
-0.146750  -0.012823  0.748000
-0.145326  -0.012823  0.748000
-0.144286  -0.012857  0.750000
-0.142857  -0.012857  0.750000
-0.141429  -0.012857  0.750000
-0.140000  -0.012857  0.750000
-0.138571  -0.012857  0.750000
-0.137143  -0.012857  0.750000
-0.135714  -0.012857  0.750000
-0.134286  -0.012857  0.750000
-0.132857  -0.012857  0.750000
-0.131779  -0.012891  0.752000
-0.130347  -0.012891  0.752000
-0.127371  -0.012737  0.743000
-0.125956  -0.012737  0.743000
-0.125379  -0.012823  0.748000
-0.124286  -0.012857  0.750000
-0.123349  -0.012909  0.753000
-0.121914  -0.012909  0.753000
-0.087981  -0.012771  0.745000
-0.086562  -0.012771  0.745000
-0.085143  -0.012771  0.745000
-0.083724  -0.012771  0.745000
-0.082305  -0.012771  0.745000
-0.080886  -0.012771  0.745000
-0.079680  -0.012806  0.747000
-0.078257  -0.012806  0.747000
-0.077143  -0.012857  0.750000
-0.075916  -0.012891  0.752000
-0.074484  -0.012891  0.752000
-0.073051  -0.012891  0.752000
-0.071619  -0.012891  0.752000
-0.070187  -0.012891  0.752000
-0.068754  -0.012891  0.752000
-0.067590  -0.012943  0.755000
-0.066853  -0.013080  0.763000
-0.060160  -0.012891  0.752000
-0.058728  -0.012891  0.752000
-0.057253  -0.013560  0.791000
-0.055747  -0.013560  0.791000
-0.054240  -0.013560  0.791000
-0.052867  -0.013594  0.793000
-0.051356  -0.013594  0.793000
-0.049846  -0.013594  0.793000
-0.048457  -0.013629  0.795000
-0.047061  -0.013663  0.797000
-0.045600  -0.013680  0.798000
0.013029  -0.013029  0.760000
0.014476  -0.013029  0.760000
0.018695  -0.012943  0.755000
0.020133  -0.012943  0.755000
0.021571  -0.012943  0.755000
0.023010  -0.012943  0.755000
0.024448  -0.012943  0.755000
0.025714  -0.012857  0.750000
0.026962  -0.012771  0.745000
0.028381  -0.012771  0.745000
0.029800  -0.012771  0.745000
0.031093  -0.012720  0.742000
0.032507  -0.012720  0.742000
0.033920  -0.012720  0.742000
0.035333  -0.012720  0.742000
0.036648  -0.012686  0.740000
0.038006  -0.012669  0.739000
0.039307  -0.012634  0.737000
0.040710  -0.012634  0.737000
0.042114  -0.012634  0.737000
0.043518  -0.012634  0.737000
0.044861  -0.012617  0.736000
0.046263  -0.012617  0.736000
0.047535  -0.012583  0.734000
0.048800  -0.012549  0.732000
0.050126  -0.012531  0.731000
0.051518  -0.012531  0.731000
0.052766  -0.012497  0.729000
0.054154  -0.012497  0.729000
0.055543  -0.012497  0.729000
0.056931  -0.012497  0.729000
0.058320  -0.012497  0.729000
0.059709  -0.012497  0.729000
0.061265  -0.012531  0.731000
0.062657  -0.012531  0.731000
0.064050  -0.012531  0.731000
0.065710  -0.012583  0.734000
0.067109  -0.012583  0.734000
0.068507  -0.012583  0.734000
0.070095  -0.012617  0.736000
0.071594  -0.012634  0.737000
0.073196  -0.012669  0.739000
0.074705  -0.012686  0.740000
0.076320  -0.012720  0.742000
0.077733  -0.012720  0.742000
0.079147  -0.012720  0.742000
0.080669  -0.012737  0.743000
0.082857  -0.012857  0.750000
0.084623  -0.012909  0.753000
0.086286  -0.012943  0.755000
0.087840  -0.012960  0.756000
0.089516  -0.012994  0.758000
0.091200  -0.013029  0.760000
0.092648  -0.013029  0.760000
0.094219  -0.013046  0.761000
0.095669  -0.013046  0.761000
0.097373  -0.013080  0.763000
0.128571  -0.012857  0.750000
0.130000  -0.012857  0.750000
0.131429  -0.012857  0.750000
0.132503  -0.012823  0.748000
0.133928  -0.012823  0.748000
0.135352  -0.012823  0.748000
0.136777  -0.012823  0.748000
0.138571  -0.012857  0.750000
0.138693  -0.012737  0.743000
0.140109  -0.012737  0.743000
0.141905  -0.012771  0.745000
0.143709  -0.012806  0.747000
0.146297  -0.012909  0.753000
0.148124  -0.012943  0.755000
0.149760  -0.012960  0.756000
0.152200  -0.013046  0.761000
0.153650  -0.013046  0.761000
0.155099  -0.013046  0.761000
0.156960  -0.013080  0.763000
0.159244  -0.013149  0.767000
0.160705  -0.013149  0.767000
0.162166  -0.013149  0.767000
0.163627  -0.013149  0.767000
0.165088  -0.013149  0.767000
0.166766  -0.013166  0.768000
0.168229  -0.013166  0.768000
0.170133  -0.013200  0.770000
0.171600  -0.013200  0.770000
0.168122  -0.012823  0.748000
0.170680  -0.012909  0.753000
0.172114  -0.012909  0.753000
0.173549  -0.012909  0.753000
0.175448  -0.012943  0.755000
0.177120  -0.012960  0.756000
0.178560  -0.012960  0.756000
0.179762  -0.012943  0.755000
0.181200  -0.012943  0.755000
0.182638  -0.012943  0.755000
0.183345  -0.012891  0.752000
0.182566  -0.012737  0.743000
0.183981  -0.012737  0.743000
0.185396  -0.012737  0.743000
0.187314  -0.012771  0.745000
0.188733  -0.012771  0.745000
0.197299  -0.013251  0.773000
0.198771  -0.013251  0.773000
0.199985  -0.013234  0.772000
0.201455  -0.013234  0.772000
0.202926  -0.013234  0.772000
0.191952  -0.012429  0.725000
0.193333  -0.012429  0.725000
0.194714  -0.012429  0.725000
0.196095  -0.012429  0.725000
0.196931  -0.012394  0.723000
0.198309  -0.012394  0.723000
0.206590  -0.012823  0.748000
-0.418063  -0.014076  0.739000
-0.416655  -0.014076  0.739000
-0.415248  -0.014076  0.739000
-0.413840  -0.014076  0.739000
-0.412990  -0.014095  0.740000
-0.411581  -0.014095  0.740000
-0.409617  -0.014076  0.739000
-0.408210  -0.014076  0.739000
-0.407352  -0.014095  0.740000
-0.407040  -0.014133  0.742000
-0.405627  -0.014133  0.742000
-0.404213  -0.014133  0.742000
-0.354720  -0.014076  0.739000
-0.353312  -0.014076  0.739000
-0.310242  -0.014038  0.737000
-0.306743  -0.013943  0.732000
-0.305349  -0.013943  0.732000
-0.304785  -0.013981  0.734000
-0.303387  -0.013981  0.734000
-0.301989  -0.013981  0.734000
-0.300590  -0.013981  0.734000
-0.298377  -0.013943  0.732000
-0.296983  -0.013943  0.732000
-0.295589  -0.013943  0.732000
-0.294998  -0.013981  0.734000
-0.292800  -0.013943  0.732000
-0.291406  -0.013943  0.732000
-0.290804  -0.013981  0.734000
-0.290589  -0.014038  0.737000
-0.289970  -0.014076  0.739000
-0.289733  -0.014133  0.742000
-0.288709  -0.014152  0.743000
-0.287293  -0.014152  0.743000
-0.285878  -0.014152  0.743000
-0.284463  -0.014152  0.743000
-0.283810  -0.014190  0.745000
-0.281632  -0.014152  0.743000
-0.280217  -0.014152  0.743000
-0.278802  -0.014152  0.743000
-0.277387  -0.014152  0.743000
-0.276714  -0.014190  0.745000
-0.245920  -0.014133  0.742000
-0.243848  -0.014095  0.740000
-0.241455  -0.014038  0.737000
-0.240051  -0.014038  0.737000
-0.238648  -0.014038  0.737000
-0.237244  -0.014038  0.737000
-0.235520  -0.014019  0.736000
-0.234118  -0.014019  0.736000
-0.232716  -0.014019  0.736000
-0.231314  -0.014019  0.736000
-0.229912  -0.014019  0.736000
-0.228510  -0.014019  0.736000
-0.227109  -0.014019  0.736000
-0.225093  -0.013981  0.734000
-0.223695  -0.013981  0.734000
-0.222903  -0.014019  0.736000
-0.220899  -0.013981  0.734000
-0.218903  -0.013943  0.732000
-0.217509  -0.013943  0.732000
-0.217295  -0.014019  0.736000
-0.214720  -0.013943  0.732000
-0.213326  -0.013943  0.732000
-0.211931  -0.013943  0.732000
-0.210537  -0.013943  0.732000
-0.208857  -0.013924  0.731000
-0.207465  -0.013924  0.731000
-0.206354  -0.013943  0.732000
-0.204960  -0.013943  0.732000
-0.203566  -0.013943  0.732000
-0.202724  -0.013981  0.734000
-0.201874  -0.014019  0.736000
-0.200472  -0.014019  0.736000
-0.199070  -0.014019  0.736000
-0.197669  -0.014019  0.736000
-0.196267  -0.014019  0.736000
-0.194865  -0.014019  0.736000
-0.193463  -0.014019  0.736000
-0.192322  -0.014038  0.737000
-0.190918  -0.014038  0.737000
-0.189514  -0.014038  0.737000
-0.188621  -0.014076  0.739000
-0.187213  -0.014076  0.739000
-0.186057  -0.014095  0.740000
-0.184648  -0.014095  0.740000
-0.183733  -0.014133  0.742000
-0.182566  -0.014152  0.743000
-0.181150  -0.014152  0.743000
-0.180219  -0.014190  0.745000
-0.178800  -0.014190  0.745000
-0.177857  -0.014229  0.747000
-0.176434  -0.014229  0.747000
-0.175714  -0.014286  0.750000
-0.174983  -0.014343  0.753000
-0.173549  -0.014343  0.753000
-0.172800  -0.014400  0.756000
-0.171813  -0.014438  0.758000
-0.160998  -0.014248  0.748000
-0.159573  -0.014248  0.748000
-0.158149  -0.014248  0.748000
-0.156724  -0.014248  0.748000
-0.153430  -0.014076  0.739000
-0.152023  -0.014076  0.739000
-0.152450  -0.014248  0.748000
-0.151025  -0.014248  0.748000
-0.148600  -0.014152  0.743000
-0.147185  -0.014152  0.743000
-0.145770  -0.014152  0.743000
-0.145131  -0.014229  0.747000
-0.143901  -0.014248  0.748000
-0.142476  -0.014248  0.748000
-0.141051  -0.014248  0.748000
-0.139627  -0.014248  0.748000
-0.138571  -0.014286  0.750000
-0.137143  -0.014286  0.750000
-0.134810  -0.014190  0.745000
-0.133390  -0.014190  0.745000
-0.131971  -0.014190  0.745000
-0.131078  -0.014248  0.748000
-0.128787  -0.014152  0.743000
-0.127200  -0.014133  0.742000
-0.125787  -0.014133  0.742000
-0.124876  -0.014190  0.745000
-0.123954  -0.014248  0.748000
-0.089160  -0.014152  0.743000
-0.087745  -0.014152  0.743000
-0.086330  -0.014152  0.743000
-0.084914  -0.014152  0.743000
-0.083724  -0.014190  0.745000
-0.082084  -0.014152  0.743000
-0.080669  -0.014152  0.743000
-0.079467  -0.014190  0.745000
-0.078257  -0.014229  0.747000
-0.076937  -0.014248  0.748000
-0.075512  -0.014248  0.748000
-0.074286  -0.014286  0.750000
-0.072857  -0.014286  0.750000
-0.071619  -0.014324  0.752000
-0.070187  -0.014324  0.752000
-0.068754  -0.014324  0.752000
-0.067590  -0.014381  0.755000
-0.057253  -0.015067  0.791000
-0.055747  -0.015067  0.791000
-0.054240  -0.015067  0.791000
-0.052867  -0.015105  0.793000
-0.051356  -0.015105  0.793000
-0.049846  -0.015105  0.793000
-0.048335  -0.015105  0.793000
-0.046825  -0.015105  0.793000
0.018695  -0.014381  0.755000
0.020133  -0.014381  0.755000
0.021571  -0.014381  0.755000
0.026962  -0.014190  0.745000
0.028381  -0.014190  0.745000
0.029680  -0.014133  0.742000
0.031010  -0.014095  0.740000
0.032419  -0.014095  0.740000
0.033920  -0.014133  0.742000
0.035238  -0.014095  0.740000
0.036648  -0.014095  0.740000
0.038006  -0.014076  0.739000
0.039413  -0.014076  0.739000
0.040821  -0.014076  0.739000
0.042229  -0.014076  0.739000
0.043636  -0.014076  0.739000
0.044922  -0.014038  0.737000
0.046263  -0.014019  0.736000
0.047535  -0.013981  0.734000
0.048800  -0.013943  0.732000
0.050126  -0.013924  0.731000
0.051518  -0.013924  0.731000
0.052766  -0.013886  0.729000
0.054154  -0.013886  0.729000
0.055543  -0.013886  0.729000
0.056931  -0.013886  0.729000
0.058320  -0.013886  0.729000
0.059709  -0.013886  0.729000
0.061265  -0.013924  0.731000
0.062657  -0.013924  0.731000
0.064050  -0.013924  0.731000
0.065710  -0.013981  0.734000
0.067109  -0.013981  0.734000
0.068507  -0.013981  0.734000
0.070190  -0.014038  0.737000
0.071594  -0.014038  0.737000
0.073295  -0.014095  0.740000
0.074907  -0.014133  0.742000
0.076320  -0.014133  0.742000
0.077838  -0.014152  0.743000
0.079253  -0.014152  0.743000
0.080669  -0.014152  0.743000
0.082084  -0.014152  0.743000
0.088305  -0.014476  0.760000
0.089752  -0.014476  0.760000
0.091200  -0.014476  0.760000
0.092648  -0.014476  0.760000
0.094219  -0.014495  0.761000
0.128229  -0.014248  0.748000
0.129653  -0.014248  0.748000
0.130903  -0.014229  0.747000
0.131971  -0.014190  0.745000
0.133390  -0.014190  0.745000
0.135171  -0.014229  0.747000
0.136777  -0.014248  0.748000
0.137278  -0.014152  0.743000
0.138693  -0.014152  0.743000
0.140109  -0.014152  0.743000
0.141905  -0.014190  0.745000
0.143709  -0.014229  0.747000
0.146103  -0.014324  0.752000
0.148124  -0.014381  0.755000
0.149760  -0.014400  0.756000
0.152200  -0.014495  0.761000
0.153650  -0.014495  0.761000
0.155099  -0.014495  0.761000
0.156960  -0.014533  0.763000
0.158829  -0.014571  0.765000
0.160286  -0.014571  0.765000
0.162166  -0.014610  0.767000
0.163627  -0.014610  0.767000
0.165088  -0.014610  0.767000
0.162857  -0.014286  0.750000
0.164286  -0.014286  0.750000
0.165714  -0.014286  0.750000
0.166697  -0.014248  0.748000
0.168122  -0.014248  0.748000
0.170000  -0.014286  0.750000
0.171886  -0.014324  0.752000
0.173318  -0.014324  0.752000
0.174750  -0.014324  0.752000
0.176183  -0.014324  0.752000
0.177143  -0.014286  0.750000
0.178571  -0.014286  0.750000
0.180480  -0.014324  0.752000
0.181912  -0.014324  0.752000
0.183345  -0.014324  0.752000
0.183057  -0.014190  0.745000
0.183981  -0.014152  0.743000
0.185396  -0.014152  0.743000
0.187314  -0.014190  0.745000
0.188733  -0.014190  0.745000
0.190152  -0.014190  0.745000
0.191571  -0.014190  0.745000
0.201280  -0.014800  0.777000
0.202760  -0.014800  0.777000
0.192937  -0.013981  0.734000
0.193541  -0.013924  0.731000
0.193333  -0.013810  0.725000
0.194714  -0.013810  0.725000
0.196095  -0.013810  0.725000
0.196931  -0.013771  0.723000
0.198309  -0.013771  0.723000
0.206314  -0.014229  0.747000
0.207181  -0.014190  0.745000
0.208600  -0.014190  0.745000
-0.309760  -0.015211  0.726000
-0.308377  -0.015211  0.726000
-0.311223  -0.015421  0.736000
-0.309821  -0.015421  0.736000
-0.306743  -0.015337  0.732000
-0.305349  -0.015337  0.732000
-0.303954  -0.015337  0.732000
-0.303387  -0.015379  0.734000
-0.301166  -0.015337  0.732000
-0.299771  -0.015337  0.732000
-0.298377  -0.015337  0.732000
-0.296983  -0.015337  0.732000
-0.295589  -0.015337  0.732000
-0.294194  -0.015337  0.732000
-0.292800  -0.015337  0.732000
-0.291406  -0.015337  0.732000
-0.290011  -0.015337  0.732000
-0.289406  -0.015379  0.734000
-0.288008  -0.015379  0.734000
-0.289733  -0.015547  0.742000
-0.288709  -0.015568  0.743000
-0.287293  -0.015568  0.743000
-0.285878  -0.015568  0.743000
-0.284463  -0.015568  0.743000
-0.283810  -0.015610  0.745000
-0.281632  -0.015568  0.743000
-0.279840  -0.015547  0.742000
-0.278427  -0.015547  0.742000
-0.277013  -0.015547  0.742000
-0.275971  -0.015568  0.743000
-0.241455  -0.015442  0.737000
-0.240051  -0.015442  0.737000
-0.238648  -0.015442  0.737000
-0.237244  -0.015442  0.737000
-0.235520  -0.015421  0.736000
-0.233482  -0.015379  0.734000
-0.232084  -0.015379  0.734000
-0.230686  -0.015379  0.734000
-0.229288  -0.015379  0.734000
-0.227890  -0.015379  0.734000
-0.226491  -0.015379  0.734000
-0.225093  -0.015379  0.734000
-0.223695  -0.015379  0.734000
-0.222903  -0.015421  0.736000
-0.220899  -0.015379  0.734000
-0.219501  -0.015379  0.734000
-0.218103  -0.015379  0.734000
-0.217295  -0.015421  0.736000
-0.215307  -0.015379  0.734000
-0.213909  -0.015379  0.734000
-0.212510  -0.015379  0.734000
-0.210537  -0.015337  0.732000
-0.208857  -0.015316  0.731000
-0.207465  -0.015316  0.731000
-0.206072  -0.015316  0.731000
-0.204680  -0.015316  0.731000
-0.203566  -0.015337  0.732000
-0.202724  -0.015379  0.734000
-0.201874  -0.015421  0.736000
-0.200472  -0.015421  0.736000
-0.199070  -0.015421  0.736000
-0.197937  -0.015442  0.737000
-0.196533  -0.015442  0.737000
-0.194865  -0.015421  0.736000
-0.193463  -0.015421  0.736000
-0.192061  -0.015421  0.736000
-0.190659  -0.015421  0.736000
-0.189514  -0.015442  0.737000
-0.188621  -0.015484  0.739000
-0.187213  -0.015484  0.739000
-0.186057  -0.015505  0.740000
-0.184648  -0.015505  0.740000
-0.183733  -0.015547  0.742000
-0.182566  -0.015568  0.743000
-0.181150  -0.015568  0.743000
-0.159276  -0.015505  0.740000
-0.157867  -0.015505  0.740000
-0.156246  -0.015484  0.739000
-0.154838  -0.015484  0.739000
-0.153430  -0.015484  0.739000
-0.152023  -0.015484  0.739000
-0.151430  -0.015568  0.743000
-0.150015  -0.015568  0.743000
-0.149600  -0.015672  0.748000
-0.147185  -0.015568  0.743000
-0.145770  -0.015568  0.743000
-0.145131  -0.015651  0.747000
-0.143901  -0.015672  0.748000
-0.142476  -0.015672  0.748000
-0.141051  -0.015672  0.748000
-0.139627  -0.015672  0.748000
-0.138202  -0.015672  0.748000
-0.134810  -0.015610  0.745000
-0.133032  -0.015568  0.743000
-0.131617  -0.015568  0.743000
-0.130027  -0.015547  0.742000
-0.128267  -0.015505  0.740000
-0.126686  -0.015484  0.739000
-0.125278  -0.015484  0.739000
-0.124373  -0.015547  0.742000
-0.123457  -0.015610  0.745000
-0.089040  -0.015547  0.742000
-0.087627  -0.015547  0.742000
-0.086330  -0.015568  0.743000
-0.084914  -0.015568  0.743000
-0.083499  -0.015568  0.743000
-0.082084  -0.015568  0.743000
-0.080669  -0.015568  0.743000
-0.079467  -0.015610  0.745000
-0.078048  -0.015610  0.745000
-0.076834  -0.015651  0.747000
-0.075512  -0.015672  0.748000
-0.074286  -0.015714  0.750000
-0.072857  -0.015714  0.750000
-0.071619  -0.015756  0.752000
-0.070187  -0.015756  0.752000
-0.068754  -0.015756  0.752000
-0.057253  -0.016573  0.791000
-0.055747  -0.016573  0.791000
-0.054240  -0.016573  0.791000
-0.052733  -0.016573  0.791000
-0.051356  -0.016615  0.793000
-0.049846  -0.016615  0.793000
-0.048335  -0.016615  0.793000
-0.046825  -0.016615  0.793000
0.028381  -0.015610  0.745000
0.029680  -0.015547  0.742000
0.031010  -0.015505  0.740000
0.032419  -0.015505  0.740000
0.033920  -0.015547  0.742000
0.035238  -0.015505  0.740000
0.036648  -0.015505  0.740000
0.038006  -0.015484  0.739000
0.039413  -0.015484  0.739000
0.040821  -0.015484  0.739000
0.042229  -0.015484  0.739000
0.043636  -0.015484  0.739000
0.045044  -0.015484  0.739000
0.046263  -0.015421  0.736000
0.047535  -0.015379  0.734000
0.048933  -0.015379  0.734000
0.050126  -0.015316  0.731000
0.051518  -0.015316  0.731000
0.052766  -0.015274  0.729000
0.054154  -0.015274  0.729000
0.055543  -0.015274  0.729000
0.056931  -0.015274  0.729000
0.058320  -0.015274  0.729000
0.059872  -0.015316  0.731000
0.061265  -0.015316  0.731000
0.062657  -0.015316  0.731000
0.064050  -0.015316  0.731000
0.065531  -0.015337  0.732000
0.066926  -0.015337  0.732000
0.068507  -0.015379  0.734000
0.070190  -0.015442  0.737000
0.071886  -0.015505  0.740000
0.073493  -0.015547  0.742000
0.074907  -0.015547  0.742000
0.076320  -0.015547  0.742000
0.077838  -0.015568  0.743000
0.079253  -0.015568  0.743000
0.080669  -0.015568  0.743000
0.082084  -0.015568  0.743000
0.126295  -0.015610  0.745000
0.127714  -0.015610  0.745000
0.129133  -0.015610  0.745000
0.130552  -0.015610  0.745000
0.131617  -0.015568  0.743000
0.133032  -0.015568  0.743000
0.134810  -0.015610  0.745000
0.136229  -0.015610  0.745000
0.137278  -0.015568  0.743000
0.138693  -0.015568  0.743000
0.140109  -0.015568  0.743000
0.141524  -0.015568  0.743000
0.143324  -0.015610  0.745000
0.144743  -0.015610  0.745000
0.145573  -0.015547  0.742000
0.146987  -0.015547  0.742000
0.152200  -0.015945  0.761000
0.153650  -0.015945  0.761000
0.155099  -0.015945  0.761000
0.156960  -0.015987  0.763000
0.158829  -0.016029  0.765000
0.160286  -0.016029  0.765000
0.162166  -0.016070  0.767000
0.162423  -0.015672  0.748000
0.163848  -0.015672  0.748000
0.165272  -0.015672  0.748000
0.166697  -0.015672  0.748000
0.168122  -0.015672  0.748000
0.169547  -0.015672  0.748000
0.171429  -0.015714  0.750000
0.172857  -0.015714  0.750000
0.174750  -0.015756  0.752000
0.176183  -0.015756  0.752000
0.177143  -0.015714  0.750000
0.178571  -0.015714  0.750000
0.180480  -0.015756  0.752000
0.180945  -0.015672  0.748000
0.182126  -0.015651  0.747000
0.183057  -0.015610  0.745000
0.184476  -0.015610  0.745000
0.185895  -0.015610  0.745000
0.187314  -0.015610  0.745000
0.188733  -0.015610  0.745000
0.190152  -0.015610  0.745000
0.191571  -0.015610  0.745000
0.192990  -0.015610  0.745000
0.191539  -0.015379  0.734000
0.192937  -0.015379  0.734000
0.193541  -0.015316  0.731000
0.193600  -0.015211  0.726000
0.194983  -0.015211  0.726000
0.196366  -0.015211  0.726000
0.197476  -0.015190  0.725000
0.198857  -0.015190  0.725000
0.205762  -0.015610  0.745000
0.206625  -0.015568  0.743000
0.208040  -0.015568  0.743000
0.210019  -0.015610  0.745000
-0.309760  -0.016594  0.726000
-0.308377  -0.016594  0.726000
-0.311223  -0.016823  0.736000
-0.309821  -0.016823  0.736000
-0.306743  -0.016731  0.732000
-0.305349  -0.016731  0.732000
-0.303954  -0.016731  0.732000
-0.302560  -0.016731  0.732000
-0.301166  -0.016731  0.732000
-0.299362  -0.016709  0.731000
-0.297970  -0.016709  0.731000
-0.296577  -0.016709  0.731000
-0.295185  -0.016709  0.731000
-0.292989  -0.016663  0.729000
-0.291600  -0.016663  0.729000
-0.291008  -0.016709  0.731000
-0.289615  -0.016709  0.731000
-0.286251  -0.016594  0.726000
-0.284869  -0.016594  0.726000
-0.289733  -0.016960  0.742000
-0.288709  -0.016983  0.743000
-0.285878  -0.016983  0.743000
-0.284463  -0.016983  0.743000
-0.283810  -0.017029  0.745000
-0.281632  -0.016983  0.743000
-0.279840  -0.016960  0.742000
-0.278427  -0.016960  0.742000
-0.277013  -0.016960  0.742000
-0.275971  -0.016983  0.743000
-0.240051  -0.016846  0.737000
-0.238648  -0.016846  0.737000
-0.237888  -0.016891  0.739000
-0.233482  -0.016777  0.734000
-0.232084  -0.016777  0.734000
-0.230686  -0.016777  0.734000
-0.229288  -0.016777  0.734000
-0.227890  -0.016777  0.734000
-0.226491  -0.016777  0.734000
-0.222903  -0.016823  0.736000
-0.220899  -0.016777  0.734000
-0.218903  -0.016731  0.732000
-0.217509  -0.016731  0.732000
-0.216705  -0.016777  0.734000
-0.215893  -0.016823  0.736000
-0.214491  -0.016823  0.736000
-0.213090  -0.016823  0.736000
-0.210537  -0.016731  0.732000
-0.208286  -0.016663  0.729000
-0.206897  -0.016663  0.729000
-0.205227  -0.016640  0.728000
-0.203840  -0.016640  0.728000
-0.202149  -0.016846  0.737000
-0.200472  -0.016823  0.736000
-0.199070  -0.016823  0.736000
-0.197937  -0.016846  0.737000
-0.196533  -0.016846  0.737000
-0.194865  -0.016823  0.736000
-0.193463  -0.016823  0.736000
-0.192061  -0.016823  0.736000
-0.190659  -0.016823  0.736000
-0.159276  -0.016914  0.740000
-0.157867  -0.016914  0.740000
-0.156457  -0.016914  0.740000
-0.154838  -0.016891  0.739000
-0.153430  -0.016891  0.739000
-0.152229  -0.016914  0.740000
-0.151430  -0.016983  0.743000
-0.149600  -0.017097  0.748000
-0.147185  -0.016983  0.743000
-0.145770  -0.016983  0.743000
-0.145131  -0.017074  0.747000
-0.143901  -0.017097  0.748000
-0.142286  -0.017074  0.747000
-0.140863  -0.017074  0.747000
-0.139627  -0.017097  0.748000
-0.133032  -0.016983  0.743000
-0.131617  -0.016983  0.743000
-0.130027  -0.016960  0.742000
-0.127747  -0.016846  0.737000
-0.126171  -0.016823  0.736000
-0.124770  -0.016823  0.736000
-0.123535  -0.016846  0.737000
-0.120309  -0.016594  0.726000
-0.118926  -0.016594  0.726000
-0.117543  -0.016594  0.726000
-0.116160  -0.016594  0.726000
-0.088800  -0.016914  0.740000
-0.087390  -0.016914  0.740000
-0.086213  -0.016960  0.742000
-0.084914  -0.016983  0.743000
-0.083499  -0.016983  0.743000
-0.082084  -0.016983  0.743000
-0.080669  -0.016983  0.743000
-0.079467  -0.017029  0.745000
-0.078048  -0.017029  0.745000
-0.076834  -0.017074  0.747000
-0.075512  -0.017097  0.748000
-0.074286  -0.017143  0.750000
-0.072857  -0.017143  0.750000
-0.071619  -0.017189  0.752000
-0.057253  -0.018080  0.791000
-0.055606  -0.018034  0.789000
-0.054103  -0.018034  0.789000
-0.052733  -0.018080  0.791000
-0.051227  -0.018080  0.791000
-0.049720  -0.018080  0.791000
-0.048213  -0.018080  0.791000
-0.046707  -0.018080  0.791000
0.029680  -0.016960  0.742000
0.031093  -0.016960  0.742000
0.032507  -0.016960  0.742000
0.033829  -0.016914  0.740000
0.035238  -0.016914  0.740000
0.036648  -0.016914  0.740000
0.038057  -0.016914  0.740000
0.039467  -0.016914  0.740000
0.040821  -0.016891  0.739000
0.042229  -0.016891  0.739000
0.043695  -0.016914  0.740000
0.045105  -0.016914  0.740000
0.046451  -0.016891  0.739000
0.047535  -0.016777  0.734000
0.048933  -0.016777  0.734000
0.050126  -0.016709  0.731000
0.051518  -0.016709  0.731000
0.052766  -0.016663  0.729000
0.054154  -0.016663  0.729000
0.055543  -0.016663  0.729000
0.057088  -0.016709  0.731000
0.058480  -0.016709  0.731000
0.059872  -0.016709  0.731000
0.061097  -0.016663  0.729000
0.062486  -0.016663  0.729000
0.064050  -0.016709  0.731000
0.065442  -0.016709  0.731000
0.066834  -0.016709  0.731000
0.068227  -0.016709  0.731000
0.070095  -0.016823  0.736000
0.071886  -0.016914  0.740000
0.073493  -0.016960  0.742000
0.075008  -0.016983  0.743000
0.076423  -0.016983  0.743000
0.077838  -0.016983  0.743000
0.079253  -0.016983  0.743000
0.080669  -0.016983  0.743000
0.082305  -0.017029  0.745000
0.126295  -0.017029  0.745000
0.127714  -0.017029  0.745000
0.128787  -0.016983  0.743000
0.130202  -0.016983  0.743000
0.131617  -0.016983  0.743000
0.133032  -0.016983  0.743000
0.134448  -0.016983  0.743000
0.136229  -0.017029  0.745000
0.137278  -0.016983  0.743000
0.138693  -0.016983  0.743000
0.140109  -0.016983  0.743000
0.141524  -0.016983  0.743000
0.143324  -0.017029  0.745000
0.144354  -0.016983  0.743000
0.145573  -0.016960  0.742000
0.146987  -0.016960  0.742000
0.162423  -0.017097  0.748000
0.163848  -0.017097  0.748000
0.165272  -0.017097  0.748000
0.166474  -0.017074  0.747000
0.167897  -0.017074  0.747000
0.169547  -0.017097  0.748000
0.170971  -0.017097  0.748000
0.172396  -0.017097  0.748000
0.174286  -0.017143  0.750000
0.175246  -0.017097  0.748000
0.176670  -0.017097  0.748000
0.178095  -0.017097  0.748000
0.180480  -0.017189  0.752000
0.180945  -0.017097  0.748000
0.181638  -0.017029  0.745000
0.181583  -0.016891  0.739000
0.182990  -0.016891  0.739000
0.184648  -0.016914  0.740000
0.186811  -0.016983  0.743000
0.187973  -0.016960  0.742000
0.189387  -0.016960  0.742000
0.190800  -0.016960  0.742000
0.189623  -0.016731  0.732000
0.192322  -0.016846  0.737000
0.193726  -0.016846  0.737000
0.195130  -0.016846  0.737000
0.193600  -0.016594  0.726000
0.194983  -0.016594  0.726000
0.196366  -0.016594  0.726000
0.199110  -0.016709  0.731000
0.201326  -0.016777  0.734000
0.203552  -0.016846  0.737000
0.204956  -0.016846  0.737000
0.207200  -0.016914  0.740000
0.208610  -0.016914  0.740000
-0.308143  -0.017804  0.719000
-0.306773  -0.017804  0.719000
-0.308377  -0.017977  0.726000
-0.311223  -0.018225  0.736000
-0.309821  -0.018225  0.736000
-0.306743  -0.018126  0.732000
-0.305349  -0.018126  0.732000
-0.302709  -0.018051  0.729000
-0.301320  -0.018051  0.729000
-0.299931  -0.018051  0.729000
-0.298543  -0.018051  0.729000
-0.297154  -0.018051  0.729000
-0.295360  -0.018027  0.728000
-0.293973  -0.018027  0.728000
-0.292587  -0.018027  0.728000
-0.291200  -0.018027  0.728000
-0.290211  -0.018051  0.729000
-0.287238  -0.017952  0.725000
-0.284674  -0.017878  0.722000
-0.283299  -0.017878  0.722000
-0.277387  -0.018398  0.743000
-0.275971  -0.018398  0.743000
-0.235072  -0.018299  0.739000
-0.232084  -0.018175  0.734000
-0.230686  -0.018175  0.734000
-0.230850  -0.018299  0.739000
-0.218903  -0.018126  0.732000
-0.217509  -0.018126  0.732000
-0.216705  -0.018175  0.734000
-0.215893  -0.018225  0.736000
-0.214491  -0.018225  0.736000
-0.213090  -0.018225  0.736000
-0.210537  -0.018126  0.732000
-0.208286  -0.018051  0.729000
-0.206897  -0.018051  0.729000
-0.205227  -0.018027  0.728000
-0.203840  -0.018027  0.728000
-0.160469  -0.018299  0.739000
-0.159061  -0.018299  0.739000
-0.157867  -0.018324  0.740000
-0.156457  -0.018324  0.740000
-0.155048  -0.018324  0.740000
-0.153638  -0.018324  0.740000
-0.152229  -0.018324  0.740000
-0.150819  -0.018324  0.740000
-0.148600  -0.018398  0.743000
-0.147185  -0.018398  0.743000
-0.145770  -0.018398  0.743000
-0.145131  -0.018497  0.747000
-0.143901  -0.018522  0.748000
-0.141524  -0.018398  0.743000
-0.140109  -0.018398  0.743000
-0.139627  -0.018522  0.748000
-0.138202  -0.018522  0.748000
-0.135352  -0.018522  0.748000
-0.131421  -0.018175  0.734000
-0.128625  -0.018175  0.734000
-0.127227  -0.018175  0.734000
-0.125486  -0.018126  0.732000
-0.124091  -0.018126  0.732000
-0.121021  -0.017878  0.722000
-0.119646  -0.017878  0.722000
-0.118762  -0.017952  0.725000
-0.117543  -0.017977  0.726000
-0.116160  -0.017977  0.726000
-0.114777  -0.017977  0.726000
-0.112926  -0.017903  0.723000
-0.111549  -0.017903  0.723000
-0.110476  -0.017952  0.725000
-0.109246  -0.017977  0.726000
-0.088800  -0.018324  0.740000
-0.087390  -0.018324  0.740000
-0.086213  -0.018373  0.742000
-0.084457  -0.018299  0.739000
-0.083050  -0.018299  0.739000
-0.082084  -0.018398  0.743000
-0.080669  -0.018398  0.743000
-0.079253  -0.018398  0.743000
-0.077838  -0.018398  0.743000
-0.055606  -0.019537  0.789000
-0.054103  -0.019537  0.789000
-0.052733  -0.019587  0.791000
-0.051227  -0.019587  0.791000
-0.049720  -0.019587  0.791000
-0.048213  -0.019587  0.791000
-0.046707  -0.019587  0.791000
0.031093  -0.018373  0.742000
0.032507  -0.018373  0.742000
0.033829  -0.018324  0.740000
0.035238  -0.018324  0.740000
0.036648  -0.018324  0.740000
0.038057  -0.018324  0.740000
0.039467  -0.018324  0.740000
0.040821  -0.018299  0.739000
0.042229  -0.018299  0.739000
0.043636  -0.018299  0.739000
0.045227  -0.018373  0.742000
0.046640  -0.018373  0.742000
0.050126  -0.018101  0.731000
0.051518  -0.018101  0.731000
0.052766  -0.018051  0.729000
0.054154  -0.018051  0.729000
0.055543  -0.018051  0.729000
0.057088  -0.018101  0.731000
0.058480  -0.018101  0.731000
0.059872  -0.018101  0.731000
0.061097  -0.018051  0.729000
0.062486  -0.018051  0.729000
0.064050  -0.018101  0.731000
0.065263  -0.018051  0.729000
0.066651  -0.018051  0.729000
0.068040  -0.018051  0.729000
0.069619  -0.018101  0.731000
0.071886  -0.018324  0.740000
0.073493  -0.018373  0.742000
0.075008  -0.018398  0.743000
0.076423  -0.018398  0.743000
0.078048  -0.018448  0.745000
0.079467  -0.018448  0.745000
0.080886  -0.018448  0.745000
0.082305  -0.018448  0.745000
0.127714  -0.018448  0.745000
0.128613  -0.018373  0.742000
0.130027  -0.018373  0.742000
0.131617  -0.018398  0.743000
0.133032  -0.018398  0.743000
0.134448  -0.018398  0.743000
0.136229  -0.018448  0.745000
0.137648  -0.018448  0.745000
0.139067  -0.018448  0.745000
0.140486  -0.018448  0.745000
0.141905  -0.018448  0.745000
0.143324  -0.018448  0.745000
0.144354  -0.018398  0.743000
0.145573  -0.018373  0.742000
0.146987  -0.018373  0.742000
0.162423  -0.018522  0.748000
0.163848  -0.018522  0.748000
0.165051  -0.018497  0.747000
0.166474  -0.018497  0.747000
0.167897  -0.018497  0.747000
0.169547  -0.018522  0.748000
0.170743  -0.018497  0.747000
0.172166  -0.018497  0.747000
0.173821  -0.018522  0.748000
0.175246  -0.018522  0.748000
0.176670  -0.018522  0.748000
0.178095  -0.018522  0.748000
0.179520  -0.018522  0.748000
0.180945  -0.018522  0.748000
0.181638  -0.018448  0.745000
0.181583  -0.018299  0.739000
0.182990  -0.018299  0.739000
0.184398  -0.018299  0.739000
0.186057  -0.018324  0.740000
0.187467  -0.018324  0.740000
0.189387  -0.018373  0.742000
0.188229  -0.018126  0.732000
0.189623  -0.018126  0.732000
0.191017  -0.018126  0.732000
0.192937  -0.018175  0.734000
0.194335  -0.018175  0.734000
0.194933  -0.018101  0.731000
0.196326  -0.018101  0.731000
0.197718  -0.018101  0.731000
0.199110  -0.018101  0.731000
0.200777  -0.018126  0.732000
0.202171  -0.018126  0.732000
0.203566  -0.018126  0.732000
0.205520  -0.018175  0.734000
0.207482  -0.018225  0.736000
0.208884  -0.018225  0.736000
-0.306000  -0.019040  0.714000
-0.304640  -0.019040  0.714000
-0.303280  -0.019040  0.714000
-0.311646  -0.019653  0.737000
-0.310242  -0.019653  0.737000
-0.308838  -0.019653  0.737000
-0.304097  -0.019440  0.729000
-0.302709  -0.019440  0.729000
-0.301320  -0.019440  0.729000
-0.299931  -0.019440  0.729000
-0.298543  -0.019440  0.729000
-0.293486  -0.019200  0.720000
-0.292114  -0.019200  0.720000
-0.291954  -0.019280  0.723000
-0.291783  -0.019360  0.726000
-0.290400  -0.019360  0.726000
-0.290211  -0.019440  0.729000
-0.287238  -0.019333  0.725000
-0.283886  -0.019200  0.720000
-0.282514  -0.019200  0.720000
-0.160469  -0.019707  0.739000
-0.159061  -0.019707  0.739000
-0.157653  -0.019707  0.739000
-0.156457  -0.019733  0.740000
-0.155048  -0.019733  0.740000
-0.153638  -0.019733  0.740000
-0.140053  -0.018853  0.707000
-0.138707  -0.018853  0.707000
-0.144354  -0.019813  0.743000
-0.142939  -0.019813  0.743000
-0.141524  -0.019813  0.743000
-0.140109  -0.019813  0.743000
-0.138693  -0.019813  0.743000
-0.137278  -0.019813  0.743000
-0.128099  -0.019493  0.731000
-0.126707  -0.019493  0.731000
-0.125314  -0.019493  0.731000
-0.123922  -0.019493  0.731000
-0.121021  -0.019253  0.722000
-0.119646  -0.019253  0.722000
-0.118762  -0.019333  0.725000
-0.117543  -0.019360  0.726000
-0.116160  -0.019360  0.726000
-0.114777  -0.019360  0.726000
-0.112926  -0.019280  0.723000
-0.111549  -0.019280  0.723000
-0.110476  -0.019333  0.725000
-0.109246  -0.019360  0.726000
-0.084457  -0.019707  0.739000
-0.083050  -0.019707  0.739000
-0.079253  -0.019813  0.743000
-0.077838  -0.019813  0.743000
-0.052867  -0.021147  0.793000
-0.051356  -0.021147  0.793000
0.042229  -0.019707  0.739000
0.043636  -0.019707  0.739000
0.045227  -0.019787  0.742000
0.054154  -0.019440  0.729000
0.055543  -0.019440  0.729000
0.056931  -0.019440  0.729000
0.058320  -0.019440  0.729000
0.059709  -0.019440  0.729000
0.061097  -0.019440  0.729000
0.062486  -0.019440  0.729000
0.063874  -0.019440  0.729000
0.065263  -0.019440  0.729000
0.066560  -0.019413  0.728000
0.067947  -0.019413  0.728000
0.069429  -0.019440  0.729000
0.071011  -0.019493  0.731000
0.073592  -0.019813  0.743000
0.075210  -0.019867  0.745000
0.076629  -0.019867  0.745000
0.128613  -0.019787  0.742000
0.130027  -0.019787  0.742000
0.131617  -0.019813  0.743000
0.133032  -0.019813  0.743000
0.134448  -0.019813  0.743000
0.135863  -0.019813  0.743000
0.137278  -0.019813  0.743000
0.139067  -0.019867  0.745000
0.140486  -0.019867  0.745000
0.141905  -0.019867  0.745000
0.143324  -0.019867  0.745000
0.144743  -0.019867  0.745000
0.163848  -0.019947  0.748000
0.165051  -0.019920  0.747000
0.166474  -0.019920  0.747000
0.170743  -0.019920  0.747000
0.172166  -0.019920  0.747000
0.173821  -0.019947  0.748000
0.176670  -0.019947  0.748000
0.178095  -0.019947  0.748000
0.179520  -0.019947  0.748000
0.180945  -0.019947  0.748000
0.181638  -0.019867  0.745000
0.180846  -0.019627  0.736000
0.181752  -0.019573  0.734000
0.183150  -0.019573  0.734000
0.186057  -0.019733  0.740000
0.187467  -0.019733  0.740000
0.186069  -0.019440  0.729000
0.187457  -0.019440  0.729000
0.189364  -0.019493  0.731000
0.191017  -0.019520  0.732000
0.192937  -0.019573  0.734000
0.193806  -0.019520  0.732000
0.194933  -0.019493  0.731000
0.196326  -0.019493  0.731000
0.197718  -0.019493  0.731000
0.199110  -0.019493  0.731000
0.200777  -0.019520  0.732000
0.202171  -0.019520  0.732000
0.203566  -0.019520  0.732000
0.204960  -0.019520  0.732000
0.206354  -0.019520  0.732000
0.207749  -0.019520  0.732000
0.210286  -0.019627  0.736000
-0.306990  -0.020286  0.710000
-0.305638  -0.020286  0.710000
-0.304714  -0.020314  0.711000
-0.302933  -0.020286  0.710000
-0.300731  -0.020229  0.708000
-0.299383  -0.020229  0.708000
-0.298876  -0.020286  0.710000
-0.297943  -0.020314  0.711000
-0.296171  -0.020286  0.710000
-0.294819  -0.020286  0.710000
-0.293467  -0.020286  0.710000
-0.293760  -0.020400  0.714000
-0.292400  -0.020400  0.714000
-0.291040  -0.020400  0.714000
-0.290491  -0.020457  0.716000
-0.291954  -0.020657  0.723000
-0.291783  -0.020743  0.726000
-0.290400  -0.020743  0.726000
-0.291008  -0.020886  0.731000
-0.283886  -0.020571  0.720000
-0.282514  -0.020571  0.720000
-0.160469  -0.021114  0.739000
-0.159061  -0.021114  0.739000
-0.157653  -0.021114  0.739000
-0.156457  -0.021143  0.740000
-0.155048  -0.021143  0.740000
-0.141400  -0.020200  0.707000
-0.138707  -0.020200  0.707000
-0.136206  -0.020229  0.708000
-0.134857  -0.020229  0.708000
-0.133320  -0.020200  0.707000
-0.127749  -0.020829  0.729000
-0.126360  -0.020829  0.729000
-0.124971  -0.020829  0.729000
-0.123583  -0.020829  0.729000
-0.122027  -0.020800  0.728000
-0.120640  -0.020800  0.728000
-0.119253  -0.020800  0.728000
-0.117867  -0.020800  0.728000
-0.116160  -0.020743  0.726000
-0.114777  -0.020743  0.726000
-0.112926  -0.020657  0.723000
-0.111549  -0.020657  0.723000
-0.110476  -0.020714  0.725000
-0.109246  -0.020743  0.726000
0.056931  -0.020829  0.729000
0.058320  -0.020829  0.729000
0.059709  -0.020829  0.729000
0.061097  -0.020829  0.729000
0.062486  -0.020829  0.729000
0.063611  -0.020743  0.726000
0.064994  -0.020743  0.726000
0.066377  -0.020743  0.726000
0.067760  -0.020743  0.726000
0.069429  -0.020829  0.729000
0.071011  -0.020886  0.731000
0.131617  -0.021229  0.743000
0.133032  -0.021229  0.743000
0.134448  -0.021229  0.743000
0.135863  -0.021229  0.743000
0.137278  -0.021229  0.743000
0.139067  -0.021286  0.745000
0.140486  -0.021286  0.745000
0.141905  -0.021286  0.745000
0.143324  -0.021286  0.745000
0.145131  -0.021343  0.747000
0.176670  -0.021371  0.748000
0.178095  -0.021371  0.748000
0.179520  -0.021371  0.748000
0.176107  -0.020800  0.728000
0.177493  -0.020800  0.728000
0.178880  -0.020800  0.728000
0.181010  -0.020886  0.731000
0.182402  -0.020886  0.731000
0.183794  -0.020886  0.731000
0.184680  -0.020829  0.729000
0.186069  -0.020829  0.729000
0.187457  -0.020829  0.729000
0.189364  -0.020886  0.731000
0.191017  -0.020914  0.732000
0.192937  -0.020971  0.734000
0.193541  -0.020886  0.731000
0.194933  -0.020886  0.731000
0.196326  -0.020886  0.731000
0.197718  -0.020886  0.731000
0.199110  -0.020886  0.731000
0.200503  -0.020886  0.731000
0.201895  -0.020886  0.731000
0.203288  -0.020886  0.731000
0.204680  -0.020886  0.731000
0.206072  -0.020886  0.731000
0.207465  -0.020886  0.731000
0.209143  -0.020914  0.732000
-0.306126  -0.021577  0.708000
-0.304777  -0.021577  0.708000
-0.303429  -0.021577  0.708000
-0.302080  -0.021577  0.708000
-0.300307  -0.021547  0.707000
-0.298960  -0.021547  0.707000
-0.298034  -0.021577  0.708000
-0.297524  -0.021638  0.710000
-0.296171  -0.021638  0.710000
-0.294819  -0.021638  0.710000
-0.293880  -0.021669  0.711000
-0.292114  -0.021638  0.710000
-0.290762  -0.021638  0.710000
-0.289410  -0.021638  0.710000
-0.288057  -0.021638  0.710000
-0.142747  -0.021547  0.707000
-0.141400  -0.021547  0.707000
-0.140053  -0.021547  0.707000
-0.138707  -0.021547  0.707000
-0.136206  -0.021577  0.708000
-0.127933  -0.021547  0.707000
-0.126587  -0.021547  0.707000
-0.127048  -0.022095  0.725000
-0.125667  -0.022095  0.725000
-0.124286  -0.022095  0.725000
-0.123074  -0.022126  0.726000
-0.121691  -0.022126  0.726000
-0.120309  -0.022126  0.726000
-0.118926  -0.022126  0.726000
-0.117543  -0.022126  0.726000
-0.116480  -0.022187  0.728000
-0.115093  -0.022187  0.728000
-0.113707  -0.022187  0.728000
-0.112783  -0.022278  0.731000
0.062486  -0.022217  0.729000
0.063524  -0.022095  0.725000
0.064905  -0.022095  0.725000
0.066377  -0.022126  0.726000
0.067760  -0.022126  0.726000
0.137648  -0.022705  0.745000
0.139067  -0.022705  0.745000
0.140486  -0.022705  0.745000
0.141905  -0.022705  0.745000
0.143324  -0.022705  0.745000
0.145131  -0.022766  0.747000
0.173520  -0.022034  0.723000
0.175623  -0.022126  0.726000
0.177006  -0.022126  0.726000
0.178389  -0.022126  0.726000
0.180514  -0.022217  0.729000
0.181903  -0.022217  0.729000
0.183291  -0.022217  0.729000
0.183920  -0.022126  0.726000
0.185303  -0.022126  0.726000
0.186686  -0.022126  0.726000
0.189364  -0.022278  0.731000
0.190756  -0.022278  0.731000
0.192411  -0.022309  0.732000
0.193011  -0.022217  0.729000
0.194400  -0.022217  0.729000
0.195789  -0.022217  0.729000
0.197718  -0.022278  0.731000
0.199110  -0.022278  0.731000
0.200503  -0.022278  0.731000
0.201895  -0.022278  0.731000
0.203288  -0.022278  0.731000
0.204680  -0.022278  0.731000
0.206072  -0.022278  0.731000
0.207465  -0.022278  0.731000
0.209143  -0.022309  0.732000
-0.309695  -0.022990  0.710000
-0.307474  -0.022926  0.708000
-0.306126  -0.022926  0.708000
-0.304777  -0.022926  0.708000
-0.303429  -0.022926  0.708000
-0.301653  -0.022893  0.707000
-0.300307  -0.022893  0.707000
-0.298960  -0.022893  0.707000
-0.297613  -0.022893  0.707000
-0.296686  -0.022926  0.708000
-0.295337  -0.022926  0.708000
-0.293989  -0.022926  0.708000
-0.293880  -0.023023  0.711000
-0.292114  -0.022990  0.710000
-0.290762  -0.022990  0.710000
-0.288594  -0.022926  0.708000
-0.287246  -0.022926  0.708000
-0.144705  -0.022990  0.710000
-0.142949  -0.022926  0.708000
-0.141400  -0.022893  0.707000
-0.140053  -0.022893  0.707000
-0.138707  -0.022893  0.707000
-0.137360  -0.022893  0.707000
-0.136206  -0.022926  0.708000
-0.134857  -0.022926  0.708000
-0.133320  -0.022893  0.707000
-0.131973  -0.022893  0.707000
-0.130627  -0.022893  0.707000
-0.129463  -0.022926  0.708000
-0.127933  -0.022893  0.707000
-0.126587  -0.022893  0.707000
-0.125240  -0.022893  0.707000
-0.123893  -0.022893  0.707000
-0.122547  -0.022893  0.707000
-0.121371  -0.022926  0.708000
-0.122905  -0.023476  0.725000
-0.121691  -0.023509  0.726000
-0.120309  -0.023509  0.726000
-0.118926  -0.023509  0.726000
-0.117543  -0.023509  0.726000
-0.116640  -0.023606  0.729000
-0.115251  -0.023606  0.729000
-0.114175  -0.023670  0.731000
0.063524  -0.023476  0.725000
0.064905  -0.023476  0.725000
0.173520  -0.023411  0.723000
0.174897  -0.023411  0.723000
0.176762  -0.023476  0.725000
0.178389  -0.023509  0.726000
0.180267  -0.023573  0.728000
0.181903  -0.023606  0.729000
0.181783  -0.023411  0.723000
0.183160  -0.023411  0.723000
0.184537  -0.023411  0.723000
0.186429  -0.023476  0.725000
0.188587  -0.023573  0.728000
0.189973  -0.023573  0.728000
0.189783  -0.023379  0.722000
0.191158  -0.023379  0.722000
0.193600  -0.023509  0.726000
0.195520  -0.023573  0.728000
0.197177  -0.023606  0.729000
0.198566  -0.023606  0.729000
0.199954  -0.023606  0.729000
0.201343  -0.023606  0.729000
0.202731  -0.023606  0.729000
0.204120  -0.023606  0.729000
0.205509  -0.023606  0.729000
0.206897  -0.023606  0.729000
-0.311990  -0.023897  0.697000
-0.310663  -0.023897  0.697000
-0.309335  -0.023897  0.697000
-0.308008  -0.023897  0.697000
-0.306680  -0.023897  0.697000
-0.305352  -0.023897  0.697000
-0.305770  -0.024034  0.701000
-0.305303  -0.024103  0.703000
-0.303964  -0.024103  0.703000
-0.303486  -0.024171  0.705000
-0.302143  -0.024171  0.705000
-0.300800  -0.024171  0.705000
-0.299457  -0.024171  0.705000
-0.298114  -0.024171  0.705000
-0.296350  -0.024137  0.704000
-0.295010  -0.024137  0.704000
-0.293669  -0.024137  0.704000
-0.293989  -0.024274  0.708000
-0.288187  -0.024240  0.707000
-0.286840  -0.024240  0.707000
-0.144297  -0.024274  0.708000
-0.142747  -0.024240  0.707000
-0.141000  -0.024171  0.705000
-0.139657  -0.024171  0.705000
-0.138707  -0.024240  0.707000
