# .PCD v.5 - Point Cloud Data file format
FIELDS x y z 
SIZE 4 4 4 
TYPE F F F
COUNT 1 1 1 
WIDTH 1739
HEIGHT 1
POINTS 1739
DATA ascii
0.034760 0.281390 0.869000
0.036415 0.281390 0.869000
0.037983 0.280743 0.867000
0.039634 0.280743 0.867000
0.041286 0.280743 0.867000
0.042937 0.280743 0.867000
0.044589 0.280743 0.867000
0.046347 0.281390 0.869000
0.047891 0.280743 0.867000
0.049543 0.280743 0.867000
0.051194 0.280743 0.867000
0.052968 0.281390 0.869000
0.054623 0.281390 0.869000
0.056278 0.281390 0.869000
0.057933 0.281390 0.869000
0.059726 0.282038 0.871000
0.061385 0.282038 0.871000
0.063044 0.282038 0.871000
0.064703 0.282038 0.871000
0.066362 0.282038 0.871000
0.068177 0.282686 0.873000
0.069840 0.282686 0.873000
0.071339 0.282038 0.871000
0.072998 0.282038 0.871000
0.074657 0.282038 0.871000
0.076491 0.282686 0.873000
0.078154 0.282686 0.873000
0.079634 0.282038 0.871000
0.081107 0.281390 0.869000
0.082571 0.280743 0.867000
0.084223 0.280743 0.867000
0.085676 0.280095 0.865000
0.087324 0.280095 0.865000
0.089177 0.280743 0.867000
0.090829 0.280743 0.867000
0.092480 0.280743 0.867000
0.094131 0.280743 0.867000
0.096225 0.282038 0.871000
0.097884 0.282038 0.871000
0.099543 0.282038 0.871000
0.101202 0.282038 0.871000
0.102861 0.282038 0.871000
0.104520 0.282038 0.871000
0.106179 0.282038 0.871000
0.107838 0.282038 0.871000
0.109497 0.282038 0.871000
0.111156 0.282038 0.871000
0.112815 0.282038 0.871000
0.114474 0.282038 0.871000
0.115867 0.281390 0.869000
0.117251 0.280743 0.867000
0.118903 0.280743 0.867000
0.120554 0.280743 0.867000
0.122206 0.280743 0.867000
0.123857 0.280743 0.867000
0.125798 0.281390 0.869000
0.127453 0.281390 0.869000
0.129109 0.281390 0.869000
0.131065 0.282038 0.871000
0.132724 0.282038 0.871000
0.134383 0.282038 0.871000
0.136042 0.282038 0.871000
0.137701 0.282038 0.871000
0.139680 0.282686 0.873000
0.141343 0.282686 0.873000
0.143006 0.282686 0.873000
0.144669 0.282686 0.873000
0.146331 0.282686 0.873000
0.147994 0.282686 0.873000
0.149657 0.282686 0.873000
0.151320 0.282686 0.873000
0.152983 0.282686 0.873000
0.154646 0.282686 0.873000
0.156309 0.282686 0.873000
0.157971 0.282686 0.873000
0.159634 0.282686 0.873000
0.161297 0.282686 0.873000
0.162960 0.282686 0.873000
0.164623 0.282686 0.873000
0.166286 0.282686 0.873000
0.167949 0.282686 0.873000
0.169611 0.282686 0.873000
0.170882 0.282038 0.871000
0.172541 0.282038 0.871000
0.174200 0.282038 0.871000
0.175859 0.282038 0.871000
0.177518 0.282038 0.871000
0.178354 0.280743 0.867000
0.180006 0.280743 0.867000
0.181657 0.280743 0.867000
0.183309 0.280743 0.867000
0.185387 0.281390 0.869000
0.187042 0.281390 0.869000
0.188697 0.281390 0.869000
0.190352 0.281390 0.869000
0.192008 0.281390 0.869000
0.193217 0.280743 0.867000
0.194869 0.280743 0.867000
0.196520 0.280743 0.867000
0.198171 0.280743 0.867000
0.199823 0.280743 0.867000
0.201010 0.280095 0.865000
0.202657 0.280095 0.865000
0.204777 0.280743 0.867000
0.207381 0.282038 0.871000
0.209040 0.282038 0.871000
0.210699 0.282038 0.871000
0.212358 0.282038 0.871000
0.213526 0.281390 0.869000
0.215181 0.281390 0.869000
0.217335 0.282038 0.871000
0.218994 0.282038 0.871000
0.220653 0.282038 0.871000
0.222312 0.282038 0.871000
0.223971 0.282038 0.871000
0.225630 0.282038 0.871000
0.227290 0.282038 0.871000
0.229474 0.282686 0.873000
0.231137 0.282686 0.873000
0.232800 0.282686 0.873000
0.234463 0.282686 0.873000
0.235585 0.282038 0.871000
0.237244 0.282038 0.871000
0.238903 0.282038 0.871000
0.240562 0.282038 0.871000
0.242221 0.282038 0.871000
0.243880 0.282038 0.871000
0.246103 0.282686 0.873000
0.247766 0.282686 0.873000
0.249429 0.282686 0.873000
0.251091 0.282686 0.873000
0.252754 0.282686 0.873000
0.254417 0.282686 0.873000
0.256080 0.282686 0.873000
0.257743 0.282686 0.873000
0.259406 0.282686 0.873000
0.261069 0.282686 0.873000
0.250091 0.269086 0.831000
0.251674 0.269086 0.831000
0.253257 0.269086 0.831000
0.254840 0.269086 0.831000
0.256423 0.269086 0.831000
0.258006 0.269086 0.831000
0.259589 0.269086 0.831000
0.261171 0.269086 0.831000
0.262754 0.269086 0.831000
0.264337 0.269086 0.831000
0.259200 0.262286 0.810000
0.260099 0.261638 0.808000
0.260990 0.260990 0.806000
0.261223 0.259695 0.802000
0.261112 0.258076 0.797000
0.261312 0.256781 0.793000
0.262823 0.256781 0.793000
0.264333 0.256781 0.793000
0.265844 0.256781 0.793000
0.267354 0.256781 0.793000
0.268187 0.256133 0.791000
0.269693 0.256133 0.791000
0.270514 0.255486 0.789000
0.270293 0.253867 0.784000
0.270400 0.252571 0.780000
0.271537 0.252248 0.779000
0.273021 0.252248 0.779000
0.273800 0.251600 0.777000
0.275280 0.251600 0.777000
0.276760 0.251600 0.777000
0.278956 0.252248 0.779000
0.279720 0.251600 0.777000
0.281200 0.251600 0.777000
0.282680 0.251600 0.777000
0.284160 0.251600 0.777000
0.285640 0.251600 0.777000
0.287120 0.251600 0.777000
0.288600 0.251600 0.777000
0.290080 0.251600 0.777000
0.290810 0.250952 0.775000
0.292286 0.250952 0.775000
0.293762 0.250952 0.775000
0.295238 0.250952 0.775000
0.296714 0.250952 0.775000
0.298960 0.251600 0.777000
0.300440 0.251600 0.777000
0.301920 0.251600 0.777000
0.303400 0.251600 0.777000
0.304880 0.251600 0.777000
0.306360 0.251600 0.777000
0.307840 0.251600 0.777000
0.309320 0.251600 0.777000
0.310800 0.251600 0.777000
0.312280 0.251600 0.777000
0.313760 0.251600 0.777000
0.315240 0.251600 0.777000
0.317535 0.252248 0.779000
0.319019 0.252248 0.779000
0.320503 0.252248 0.779000
0.321987 0.252248 0.779000
0.323470 0.252248 0.779000
0.325371 0.252571 0.780000
0.328533 0.253867 0.784000
0.374143 0.282686 0.873000
0.375806 0.282686 0.873000
0.377469 0.282686 0.873000
0.379131 0.282686 0.873000
-0.479638 0.275229 0.845000
-0.478029 0.275229 0.845000
-0.476419 0.275229 0.845000
-0.477619 0.276857 0.850000
-0.474880 0.276206 0.848000
-0.473265 0.276206 0.848000
-0.472762 0.276857 0.850000
-0.471143 0.276857 0.850000
-0.469524 0.276857 0.850000
-0.467905 0.276857 0.850000
-0.465189 0.276206 0.848000
-0.463573 0.276206 0.848000
-0.463048 0.276857 0.850000
-0.462514 0.277509 0.852000
-0.459810 0.276857 0.850000
-0.458190 0.276857 0.850000
-0.457646 0.277509 0.852000
-0.456023 0.277509 0.852000
-0.454400 0.277509 0.852000
-0.453840 0.278160 0.854000
-0.451154 0.277509 0.852000
-0.449531 0.277509 0.852000
-0.447909 0.277509 0.852000
-0.446286 0.277509 0.852000
-0.444663 0.277509 0.852000
-0.443040 0.277509 0.852000
-0.441417 0.277509 0.852000
-0.439794 0.277509 0.852000
-0.438171 0.277509 0.852000
-0.437573 0.278160 0.854000
-0.436968 0.278811 0.856000
-0.435337 0.278811 0.856000
-0.432693 0.278160 0.854000
-0.431067 0.278160 0.854000
-0.429440 0.278160 0.854000
-0.427813 0.278160 0.854000
-0.425189 0.277509 0.852000
-0.423566 0.277509 0.852000
-0.421943 0.277509 0.852000
-0.420320 0.277509 0.852000
-0.417714 0.276857 0.850000
-0.416095 0.276857 0.850000
-0.414476 0.276857 0.850000
-0.412857 0.276857 0.850000
-0.411238 0.276857 0.850000
-0.409619 0.276857 0.850000
-0.408000 0.276857 0.850000
-0.405425 0.276206 0.848000
-0.403810 0.276206 0.848000
-0.403143 0.276857 0.850000
-0.401524 0.276857 0.850000
-0.398964 0.276206 0.848000
-0.397349 0.276206 0.848000
-0.396667 0.276857 0.850000
-0.395977 0.277509 0.852000
-0.395280 0.278160 0.854000
-0.393653 0.278160 0.854000
-0.391109 0.277509 0.852000
-0.388571 0.276857 0.850000
-0.386952 0.276857 0.850000
-0.385333 0.276857 0.850000
-0.383714 0.276857 0.850000
-0.381196 0.276206 0.848000
-0.379581 0.276206 0.848000
-0.377966 0.276206 0.848000
-0.376350 0.276206 0.848000
-0.375619 0.276857 0.850000
-0.374880 0.277509 0.852000
-0.374133 0.278160 0.854000
-0.372507 0.278160 0.854000
-0.370880 0.278160 0.854000
-0.370983 0.279463 0.858000
-0.368488 0.278811 0.856000
-0.366000 0.278160 0.854000
-0.364373 0.278160 0.854000
-0.362747 0.278160 0.854000
-0.360274 0.277509 0.852000
-0.358651 0.277509 0.852000
-0.357029 0.277509 0.852000
-0.355406 0.277509 0.852000
-0.354613 0.278160 0.854000
-0.352987 0.278160 0.854000
-0.351360 0.278160 0.854000
-0.349733 0.278160 0.854000
-0.348107 0.278160 0.854000
-0.346480 0.278160 0.854000
-0.345661 0.278811 0.856000
-0.344030 0.278811 0.856000
-0.342400 0.278811 0.856000
-0.340770 0.278811 0.856000
-0.339139 0.278811 0.856000
-0.338297 0.279463 0.858000
-0.336663 0.279463 0.858000
-0.335810 0.280114 0.860000
-0.333394 0.279463 0.858000
-0.331760 0.279463 0.858000
-0.329356 0.278811 0.856000
-0.327726 0.278811 0.856000
-0.326095 0.278811 0.856000
-0.324465 0.278811 0.856000
-0.322834 0.278811 0.856000
-0.320453 0.278160 0.854000
-0.318827 0.278160 0.854000
-0.317200 0.278160 0.854000
-0.315573 0.278160 0.854000
-0.314682 0.278811 0.856000
-0.313051 0.278811 0.856000
-0.311421 0.278811 0.856000
-0.309790 0.278811 0.856000
-0.308160 0.278811 0.856000
-0.307246 0.279463 0.858000
-0.304899 0.278811 0.856000
-0.303269 0.278811 0.856000
-0.301638 0.278811 0.856000
-0.298606 0.277509 0.852000
-0.296983 0.277509 0.852000
-0.296053 0.278160 0.854000
-0.294427 0.278160 0.854000
-0.292800 0.278160 0.854000
-0.291173 0.278160 0.854000
-0.290225 0.278811 0.856000
-0.288594 0.278811 0.856000
-0.286964 0.278811 0.856000
-0.285333 0.278811 0.856000
-0.283703 0.278811 0.856000
-0.282731 0.279463 0.858000
-0.281097 0.279463 0.858000
-0.279463 0.279463 0.858000
-0.278476 0.280114 0.860000
-0.276838 0.280114 0.860000
-0.275200 0.280114 0.860000
-0.272926 0.279463 0.858000
-0.270659 0.278811 0.856000
-0.269029 0.278811 0.856000
-0.266773 0.278160 0.854000
-0.265147 0.278160 0.854000
-0.263520 0.278160 0.854000
-0.261893 0.278160 0.854000
-0.260267 0.278160 0.854000
-0.258640 0.278160 0.854000
-0.257013 0.278160 0.854000
-0.255387 0.278160 0.854000
-0.253760 0.278160 0.854000
-0.252724 0.278811 0.856000
-0.251093 0.278811 0.856000
-0.248880 0.278160 0.854000
-0.247253 0.278160 0.854000
-0.245627 0.278160 0.854000
-0.244000 0.278160 0.854000
-0.242941 0.278811 0.856000
-0.241310 0.278811 0.856000
-0.239680 0.278811 0.856000
-0.238050 0.278811 0.856000
-0.236419 0.278811 0.856000
-0.234789 0.278811 0.856000
-0.232613 0.278160 0.854000
-0.230446 0.277509 0.852000
-0.228823 0.277509 0.852000
-0.227200 0.277509 0.852000
-0.225577 0.277509 0.852000
-0.204766 0.253731 0.779000
-0.202760 0.253080 0.777000
-0.201280 0.253080 0.777000
-0.199800 0.253080 0.777000
-0.197810 0.252429 0.775000
-0.196333 0.252429 0.775000
-0.194354 0.251777 0.773000
-0.192632 0.251451 0.772000
-0.189924 0.249823 0.767000
-0.187971 0.249171 0.765000
-0.185539 0.247869 0.761000
-0.184090 0.247869 0.761000
-0.181440 0.246240 0.756000
-0.180000 0.246240 0.756000
-0.178324 0.245914 0.755000
-0.176886 0.245914 0.755000
-0.174983 0.245263 0.753000
-0.173318 0.244937 0.752000
-0.171886 0.244937 0.752000
-0.170000 0.244286 0.750000
-0.168122 0.243634 0.748000
-0.166029 0.242657 0.745000
-0.164168 0.242006 0.743000
-0.162533 0.241680 0.742000
-0.160686 0.241029 0.740000
-0.159061 0.240703 0.739000
-0.157653 0.240703 0.739000
-0.155823 0.240051 0.737000
-0.154419 0.240051 0.737000
-0.153015 0.240051 0.737000
-0.151611 0.240051 0.737000
-0.150208 0.240051 0.737000
-0.148804 0.240051 0.737000
-0.147400 0.240051 0.737000
-0.145996 0.240051 0.737000
-0.144985 0.240703 0.739000
-0.143771 0.241029 0.740000
-0.142747 0.241680 0.742000
-0.141333 0.241680 0.742000
-0.140109 0.242006 0.743000
-0.139067 0.242657 0.745000
-0.138017 0.243309 0.747000
-0.136777 0.243634 0.748000
-0.135714 0.244286 0.750000
-0.134286 0.244286 0.750000
-0.133211 0.244937 0.752000
-0.131779 0.244937 0.752000
-0.130520 0.245263 0.753000
-0.129429 0.245914 0.755000
-0.127990 0.245914 0.755000
-0.126720 0.246240 0.756000
-0.125280 0.246240 0.756000
-0.123840 0.246240 0.756000
-0.122724 0.246891 0.758000
-0.121600 0.247543 0.760000
-0.120310 0.247869 0.761000
-0.119173 0.248520 0.763000
-0.118337 0.249823 0.767000
-0.116876 0.249823 0.767000
-0.115566 0.250149 0.768000
-0.114103 0.250149 0.768000
-0.112933 0.250800 0.770000
-0.111467 0.250800 0.770000
-0.110286 0.251451 0.772000
-0.108956 0.251777 0.773000
-0.107762 0.252429 0.775000
-0.106286 0.252429 0.775000
-0.105080 0.253080 0.777000
-0.103600 0.253080 0.777000
-0.102514 0.254057 0.780000
-0.101029 0.254057 0.780000
-0.099798 0.254709 0.782000
-0.098309 0.254709 0.782000
-0.097067 0.255360 0.784000
-0.095573 0.255360 0.784000
-0.094320 0.256011 0.786000
-0.093059 0.256663 0.788000
-0.091558 0.256663 0.788000
-0.090171 0.256989 0.789000
-0.088893 0.257640 0.791000
-0.087608 0.258291 0.793000
-0.086097 0.258291 0.793000
-0.084800 0.258943 0.795000
-0.083495 0.259594 0.797000
-0.082080 0.259920 0.798000
-0.080560 0.259920 0.798000
-0.079040 0.259920 0.798000
-0.077714 0.260571 0.800000
-0.076381 0.261223 0.802000
-0.075040 0.261874 0.804000
-0.073509 0.261874 0.804000
-0.072156 0.262526 0.806000
-0.070796 0.263177 0.808000
-0.069429 0.263829 0.810000
-0.068053 0.264480 0.812000
-0.066507 0.264480 0.812000
-0.064960 0.264480 0.812000
-0.063648 0.265457 0.815000
-0.062095 0.265457 0.815000
-0.060691 0.266109 0.817000
-0.059280 0.266760 0.819000
-0.058002 0.268063 0.823000
-0.056571 0.268714 0.825000
-0.055133 0.269366 0.827000
-0.053688 0.270017 0.829000
-0.052109 0.270017 0.829000
-0.050530 0.270017 0.829000
-0.048950 0.270017 0.829000
-0.047486 0.270669 0.831000
-0.045903 0.270669 0.831000
-0.045653 0.278811 0.856000
-0.044023 0.278811 0.856000
-0.042392 0.278811 0.856000
-0.040857 0.279463 0.858000
-0.039314 0.280114 0.860000
-0.037676 0.280114 0.860000
-0.036038 0.280114 0.860000
-0.034400 0.280114 0.860000
-0.032762 0.280114 0.860000
-0.031196 0.280766 0.862000
-0.029554 0.280766 0.862000
-0.027912 0.280766 0.862000
-0.026270 0.280766 0.862000
-0.024714 0.281743 0.865000
-0.023067 0.281743 0.865000
-0.021419 0.281743 0.865000
-0.019771 0.281743 0.865000
-0.018124 0.281743 0.865000
-0.016476 0.281743 0.865000
-0.014863 0.282394 0.867000
-0.013211 0.282394 0.867000
-0.011493 0.280766 0.862000
-0.009851 0.280766 0.862000
-0.008210 0.280766 0.862000
-0.006590 0.281743 0.865000
-0.004943 0.281743 0.865000
-0.003295 0.281743 0.865000
-0.001648 0.281743 0.865000
0.000000 0.281743 0.865000
0.001648 0.281743 0.865000
0.003295 0.281743 0.865000
0.004943 0.281743 0.865000
0.006606 0.282394 0.867000
0.008257 0.282394 0.867000
0.009931 0.283046 0.869000
0.011587 0.283046 0.869000
0.013211 0.282394 0.867000
0.014863 0.282394 0.867000
0.016514 0.282394 0.867000
0.018208 0.283046 0.869000
0.019817 0.282394 0.867000
0.021419 0.281743 0.865000
0.023067 0.281743 0.865000
0.024714 0.281743 0.865000
0.026362 0.281743 0.865000
0.028010 0.281743 0.865000
0.029657 0.281743 0.865000
0.031305 0.281743 0.865000
0.032952 0.281743 0.865000
0.034480 0.280766 0.862000
0.036122 0.280766 0.862000
0.037895 0.281743 0.865000
0.039543 0.281743 0.865000
0.041190 0.281743 0.865000
0.042838 0.281743 0.865000
0.044486 0.281743 0.865000
0.046133 0.281743 0.865000
0.047781 0.281743 0.865000
0.049429 0.281743 0.865000
0.051076 0.281743 0.865000
0.052846 0.282394 0.867000
0.054497 0.282394 0.867000
0.056149 0.282394 0.867000
0.057800 0.282394 0.867000
0.059451 0.282394 0.867000
0.061244 0.283046 0.869000
0.062899 0.283046 0.869000
0.064554 0.283046 0.869000
0.066210 0.283046 0.869000
0.067865 0.283046 0.869000
0.069520 0.283046 0.869000
0.070848 0.281743 0.865000
0.072495 0.281743 0.865000
0.074314 0.282394 0.867000
0.075966 0.282394 0.867000
0.077617 0.282394 0.867000
0.079086 0.281743 0.865000
0.080733 0.281743 0.865000
0.082381 0.281743 0.865000
0.084029 0.281743 0.865000
0.085676 0.281743 0.865000
0.087324 0.281743 0.865000
0.088971 0.281743 0.865000
0.090619 0.281743 0.865000
0.092267 0.281743 0.865000
0.094131 0.282394 0.867000
0.096004 0.283046 0.869000
0.097659 0.283046 0.869000
0.099314 0.283046 0.869000
0.100970 0.283046 0.869000
0.102625 0.283046 0.869000
0.104280 0.283046 0.869000
0.105935 0.283046 0.869000
0.107590 0.283046 0.869000
0.109246 0.283046 0.869000
0.110901 0.283046 0.869000
0.112556 0.283046 0.869000
0.113949 0.282394 0.867000
0.115600 0.282394 0.867000
0.116981 0.281743 0.865000
0.118629 0.281743 0.865000
0.120276 0.281743 0.865000
0.121924 0.281743 0.865000
0.123571 0.281743 0.865000
0.125509 0.282394 0.867000
0.127160 0.282394 0.867000
0.128811 0.282394 0.867000
0.130463 0.282394 0.867000
0.132114 0.282394 0.867000
0.133766 0.282394 0.867000
0.135417 0.282394 0.867000
0.137069 0.282394 0.867000
0.139040 0.283046 0.869000
0.140695 0.283046 0.869000
0.142350 0.283046 0.869000
0.144006 0.283046 0.869000
0.145996 0.283697 0.871000
0.147655 0.283697 0.871000
0.149314 0.283697 0.871000
0.150973 0.283697 0.871000
0.152632 0.283697 0.871000
0.154291 0.283697 0.871000
0.155950 0.283697 0.871000
0.157610 0.283697 0.871000
0.159269 0.283697 0.871000
0.160928 0.283697 0.871000
0.162587 0.283697 0.871000
0.163869 0.283046 0.869000
0.165524 0.283046 0.869000
0.167179 0.283046 0.869000
0.168834 0.283046 0.869000
0.170490 0.283046 0.869000
0.172145 0.283046 0.869000
0.173800 0.283046 0.869000
0.175051 0.282394 0.867000
0.176703 0.282394 0.867000
0.177943 0.281743 0.865000
0.179590 0.281743 0.865000
0.181238 0.281743 0.865000
0.182886 0.281743 0.865000
0.184960 0.282394 0.867000
0.186611 0.282394 0.867000
0.188263 0.282394 0.867000
0.189914 0.282394 0.867000
0.191566 0.282394 0.867000
0.193217 0.282394 0.867000
0.194869 0.282394 0.867000
0.196067 0.281743 0.865000
0.197714 0.281743 0.865000
0.199823 0.282394 0.867000
0.201010 0.281743 0.865000
0.202657 0.281743 0.865000
0.204777 0.282394 0.867000
0.206429 0.282394 0.867000
0.208080 0.282394 0.867000
0.209731 0.282394 0.867000
0.211383 0.282394 0.867000
0.213034 0.282394 0.867000
0.214686 0.282394 0.867000
0.216337 0.282394 0.867000
0.217989 0.282394 0.867000
0.219640 0.282394 0.867000
0.221802 0.283046 0.869000
0.223457 0.283046 0.869000
0.225112 0.283046 0.869000
0.227290 0.283697 0.871000
0.228949 0.283697 0.871000
0.230608 0.283697 0.871000
0.232267 0.283697 0.871000
0.233926 0.283697 0.871000
0.235044 0.283046 0.869000
0.236699 0.283046 0.869000
0.238354 0.283046 0.869000
0.239457 0.282394 0.867000
0.241109 0.282394 0.867000
0.243320 0.283046 0.869000
0.245539 0.283697 0.871000
0.246630 0.283046 0.869000
0.248286 0.283046 0.869000
0.249941 0.283046 0.869000
0.251596 0.283046 0.869000
0.253251 0.283046 0.869000
0.254907 0.283046 0.869000
0.257152 0.283697 0.871000
0.258811 0.283697 0.871000
0.260470 0.283697 0.871000
0.250091 0.270669 0.831000
0.251674 0.270669 0.831000
0.253257 0.270669 0.831000
0.254840 0.270669 0.831000
0.256423 0.270669 0.831000
0.258006 0.270669 0.831000
0.258964 0.270017 0.829000
0.259914 0.269366 0.827000
0.257379 0.265131 0.814000
0.257657 0.263829 0.810000
0.259200 0.263829 0.810000
0.260099 0.263177 0.808000
0.260990 0.262526 0.806000
0.260571 0.260571 0.800000
0.260457 0.258943 0.795000
0.261312 0.258291 0.793000
0.262823 0.258291 0.793000
0.264333 0.258291 0.793000
0.265844 0.258291 0.793000
0.267354 0.258291 0.793000
0.268187 0.257640 0.791000
0.269011 0.256989 0.789000
0.269486 0.256011 0.786000
0.270293 0.255360 0.784000
0.270400 0.254057 0.780000
0.271537 0.253731 0.779000
0.273021 0.253731 0.779000
0.274505 0.253731 0.779000
0.275989 0.253731 0.779000
0.276760 0.253080 0.777000
0.278240 0.253080 0.777000
0.279720 0.253080 0.777000
0.281200 0.253080 0.777000
0.282680 0.253080 0.777000
0.284160 0.253080 0.777000
0.285640 0.253080 0.777000
0.287120 0.253080 0.777000
0.288600 0.253080 0.777000
0.290080 0.253080 0.777000
0.291560 0.253080 0.777000
0.292286 0.252429 0.775000
0.293762 0.252429 0.775000
0.295238 0.252429 0.775000
0.296714 0.252429 0.775000
0.298960 0.253080 0.777000
0.300440 0.253080 0.777000
0.301920 0.253080 0.777000
0.303400 0.253080 0.777000
0.304880 0.253080 0.777000
0.306360 0.253080 0.777000
0.307840 0.253080 0.777000
0.309320 0.253080 0.777000
0.310800 0.253080 0.777000
0.312280 0.253080 0.777000
0.314568 0.253731 0.779000
0.316051 0.253731 0.779000
0.317535 0.253731 0.779000
0.319019 0.253731 0.779000
0.320503 0.253731 0.779000
0.322400 0.254057 0.780000
0.323886 0.254057 0.780000
0.325371 0.254057 0.780000
0.328533 0.255360 0.784000
0.330027 0.255360 0.784000
0.373286 0.283697 0.871000
0.374084 0.283046 0.869000
0.375739 0.283046 0.869000
0.375657 0.281743 0.865000
0.377305 0.281743 0.865000
0.378952 0.281743 0.865000
0.380600 0.281743 0.865000
-0.484467 0.276838 0.845000
-0.482857 0.276838 0.845000
-0.481248 0.276838 0.845000
-0.479638 0.276838 0.845000
-0.478029 0.276838 0.845000
-0.476419 0.276838 0.845000
-0.476495 0.277821 0.848000
-0.473200 0.276838 0.845000
-0.471590 0.276838 0.845000
-0.469981 0.276838 0.845000
-0.468371 0.276838 0.845000
-0.466762 0.276838 0.845000
-0.466804 0.277821 0.848000
-0.462446 0.276183 0.843000
-0.460840 0.276183 0.843000
-0.455966 0.274217 0.837000
-0.454371 0.274217 0.837000
-0.454941 0.275528 0.841000
-0.454417 0.276183 0.843000
-0.453886 0.276838 0.845000
-0.454952 0.278476 0.850000
-0.453333 0.278476 0.850000
-0.451714 0.278476 0.850000
-0.450095 0.278476 0.850000
-0.448476 0.278476 0.850000
-0.446857 0.278476 0.850000
-0.445238 0.278476 0.850000
-0.443619 0.278476 0.850000
-0.442000 0.278476 0.850000
-0.440381 0.278476 0.850000
-0.437730 0.277821 0.848000
-0.436114 0.277821 0.848000
-0.435524 0.278476 0.850000
-0.432884 0.277821 0.848000
-0.429743 0.276838 0.845000
-0.428133 0.276838 0.845000
-0.426524 0.276838 0.845000
-0.424914 0.276838 0.845000
-0.423305 0.276838 0.845000
-0.421695 0.276838 0.845000
-0.420086 0.276838 0.845000
-0.418476 0.276838 0.845000
-0.416867 0.276838 0.845000
-0.415257 0.276838 0.845000
-0.413648 0.276838 0.845000
-0.412038 0.276838 0.845000
-0.410429 0.276838 0.845000
-0.408819 0.276838 0.845000
-0.407210 0.276838 0.845000
-0.405600 0.276838 0.845000
-0.403990 0.276838 0.845000
-0.402381 0.276838 0.845000
-0.402194 0.277821 0.848000
-0.400579 0.277821 0.848000
-0.397552 0.276838 0.845000
-0.395943 0.276838 0.845000
-0.395733 0.277821 0.848000
-0.394118 0.277821 0.848000
-0.393429 0.278476 0.850000
-0.391810 0.278476 0.850000
-0.390190 0.278476 0.850000
-0.387657 0.277821 0.848000
-0.386042 0.277821 0.848000
-0.384427 0.277821 0.848000
-0.382811 0.277821 0.848000
-0.381196 0.277821 0.848000
-0.379581 0.277821 0.848000
-0.377966 0.277821 0.848000
-0.376350 0.277821 0.848000
-0.374735 0.277821 0.848000
-0.374000 0.278476 0.850000
-0.373257 0.279131 0.852000
-0.371634 0.279131 0.852000
-0.370011 0.279131 0.852000
-0.368389 0.279131 0.852000
-0.365905 0.278476 0.850000
-0.364286 0.278476 0.850000
-0.362667 0.278476 0.850000
-0.361048 0.278476 0.850000
-0.359429 0.278476 0.850000
-0.357810 0.278476 0.850000
-0.356190 0.278476 0.850000
-0.354571 0.278476 0.850000
-0.353783 0.279131 0.852000
-0.352160 0.279131 0.852000
-0.350537 0.279131 0.852000
-0.348914 0.279131 0.852000
-0.347291 0.279131 0.852000
-0.345669 0.279131 0.852000
-0.344046 0.279131 0.852000
-0.343227 0.279787 0.854000
-0.341600 0.279787 0.854000
-0.339973 0.279787 0.854000
-0.338347 0.279787 0.854000
-0.336720 0.279787 0.854000
-0.335093 0.279787 0.854000
-0.333467 0.279787 0.854000
-0.331840 0.279787 0.854000
-0.330213 0.279787 0.854000
-0.328587 0.279787 0.854000
-0.326960 0.279787 0.854000
-0.325333 0.279787 0.854000
-0.323707 0.279787 0.854000
-0.321326 0.279131 0.852000
-0.318952 0.278476 0.850000
-0.316587 0.277821 0.848000
-0.314971 0.277821 0.848000
-0.314834 0.279131 0.852000
-0.313211 0.279131 0.852000
-0.311589 0.279131 0.852000
-0.310693 0.279787 0.854000
-0.309067 0.279787 0.854000
-0.307440 0.279787 0.854000
-0.305813 0.279787 0.854000
-0.303474 0.279131 0.852000
-0.301851 0.279131 0.852000
-0.300229 0.279131 0.852000
-0.298606 0.279131 0.852000
-0.296983 0.279131 0.852000
-0.294667 0.278476 0.850000
-0.293048 0.278476 0.850000
-0.291429 0.278476 0.850000
-0.290491 0.279131 0.852000
-0.289547 0.279787 0.854000
-0.287920 0.279787 0.854000
-0.286293 0.279787 0.854000
-0.284000 0.279131 0.852000
-0.282377 0.279131 0.852000
-0.281413 0.279787 0.854000
-0.279131 0.279131 0.852000
-0.277509 0.279131 0.852000
-0.275886 0.279131 0.852000
-0.274263 0.279131 0.852000
-0.272640 0.279131 0.852000
-0.271017 0.279131 0.852000
-0.269394 0.279131 0.852000
-0.267771 0.279131 0.852000
-0.265524 0.278476 0.850000
-0.263905 0.278476 0.850000
-0.262286 0.278476 0.850000
-0.260667 0.278476 0.850000
-0.259048 0.278476 0.850000
-0.258034 0.279131 0.852000
-0.255810 0.278476 0.850000
-0.254190 0.278476 0.850000
-0.253166 0.279131 0.852000
-0.252133 0.279787 0.854000
-0.250507 0.279787 0.854000
-0.248297 0.279131 0.852000
-0.246674 0.279131 0.852000
-0.245627 0.279787 0.854000
-0.244000 0.279787 0.854000
-0.242373 0.279787 0.854000
-0.240747 0.279787 0.854000
-0.239120 0.279787 0.854000
-0.236937 0.279131 0.852000
-0.235314 0.279131 0.852000
-0.233691 0.279131 0.852000
-0.232069 0.279131 0.852000
-0.229905 0.278476 0.850000
-0.228286 0.278476 0.850000
-0.226667 0.278476 0.850000
-0.225048 0.278476 0.850000
-0.204766 0.255215 0.779000
-0.202760 0.254560 0.777000
-0.201280 0.254560 0.777000
-0.199800 0.254560 0.777000
-0.197810 0.253905 0.775000
-0.196333 0.253905 0.775000
-0.194354 0.253250 0.773000
-0.192632 0.252922 0.772000
-0.190171 0.251611 0.768000
-0.188463 0.251284 0.767000
-0.186027 0.249973 0.763000
-0.184090 0.249318 0.761000
-0.181440 0.247680 0.756000
-0.180000 0.247680 0.756000
-0.178324 0.247352 0.755000
-0.176886 0.247352 0.755000
-0.174983 0.246697 0.753000
-0.173549 0.246697 0.753000
-0.172114 0.246697 0.753000
-0.170453 0.246370 0.752000
-0.168122 0.245059 0.748000
-0.166029 0.244076 0.745000
-0.164168 0.243421 0.743000
-0.162533 0.243093 0.742000
-0.160686 0.242438 0.740000
-0.159061 0.242110 0.739000
-0.157653 0.242110 0.739000
-0.155823 0.241455 0.737000
-0.154419 0.241455 0.737000
-0.153015 0.241455 0.737000
-0.151611 0.241455 0.737000
-0.150208 0.241455 0.737000
-0.148804 0.241455 0.737000
-0.147400 0.241455 0.737000
-0.146392 0.242110 0.739000
-0.144985 0.242110 0.739000
-0.143771 0.242438 0.740000
-0.142747 0.243093 0.742000
-0.141524 0.243421 0.743000
-0.140109 0.243421 0.743000
-0.139067 0.244076 0.745000
-0.138017 0.244731 0.747000
-0.136777 0.245059 0.748000
-0.135714 0.245714 0.750000
-0.134286 0.245714 0.750000
-0.133211 0.246370 0.752000
-0.131954 0.246697 0.753000
-0.130520 0.246697 0.753000
-0.129429 0.247352 0.755000
-0.127990 0.247352 0.755000
-0.126720 0.247680 0.756000
-0.125280 0.247680 0.756000
-0.124168 0.248335 0.758000
-0.123048 0.248990 0.760000
-0.121760 0.249318 0.761000
-0.120627 0.249973 0.763000
-0.119486 0.250629 0.765000
-0.118337 0.251284 0.767000
-0.116876 0.251284 0.767000
-0.115566 0.251611 0.768000
-0.114103 0.251611 0.768000
-0.112933 0.252267 0.770000
-0.111756 0.252922 0.772000
-0.110429 0.253250 0.773000
-0.108956 0.253250 0.773000
-0.107762 0.253905 0.775000
-0.106560 0.254560 0.777000
-0.105080 0.254560 0.777000
-0.103867 0.255215 0.779000
-0.102514 0.255543 0.780000
-0.101029 0.255543 0.780000
-0.099798 0.256198 0.782000
-0.098309 0.256198 0.782000
-0.097067 0.256853 0.784000
-0.095573 0.256853 0.784000
-0.094320 0.257509 0.786000
-0.093059 0.258164 0.788000
-0.091674 0.258491 0.789000
-0.090400 0.259147 0.791000
-0.088893 0.259147 0.791000
-0.087608 0.259802 0.793000
-0.086314 0.260457 0.795000
-0.084800 0.260457 0.795000
-0.083495 0.261112 0.797000
-0.082080 0.261440 0.798000
-0.080560 0.261440 0.798000
-0.079238 0.262095 0.800000
-0.077714 0.262095 0.800000
-0.076381 0.262750 0.802000
-0.075040 0.263406 0.804000
-0.073509 0.263406 0.804000
-0.072156 0.264061 0.806000
-0.070796 0.264716 0.808000
-0.069429 0.265371 0.810000
-0.068053 0.266027 0.812000
-0.066507 0.266027 0.812000
-0.065120 0.266682 0.814000
-0.063648 0.267010 0.815000
-0.062095 0.267010 0.815000
-0.060691 0.267665 0.817000
-0.059280 0.268320 0.819000
-0.058002 0.269630 0.823000
-0.056571 0.270286 0.825000
-0.055133 0.270941 0.827000
-0.053688 0.271596 0.829000
-0.052109 0.271596 0.829000
-0.050530 0.271596 0.829000
-0.048950 0.271596 0.829000
-0.047371 0.271596 0.829000
-0.047173 0.279787 0.854000
-0.045547 0.279787 0.854000
-0.043920 0.279787 0.854000
-0.042293 0.279787 0.854000
-0.040762 0.280442 0.856000
-0.039131 0.280442 0.856000
-0.037501 0.280442 0.856000
-0.035870 0.280442 0.856000
-0.034240 0.280442 0.856000
-0.032610 0.280442 0.856000
-0.031051 0.281097 0.858000
-0.029417 0.281097 0.858000
-0.027783 0.281097 0.858000
-0.026149 0.281097 0.858000
-0.024571 0.281752 0.860000
-0.022933 0.281752 0.860000
-0.021345 0.282408 0.862000
-0.019657 0.281752 0.860000
-0.018019 0.281752 0.860000
-0.016381 0.281752 0.860000
-0.014674 0.280442 0.856000
-0.013044 0.280442 0.856000
-0.011440 0.281097 0.858000
-0.009806 0.281097 0.858000
-0.008171 0.281097 0.858000
-0.006537 0.281097 0.858000
-0.004914 0.281752 0.860000
-0.003276 0.281752 0.860000
-0.001638 0.281752 0.860000
0.000000 0.281752 0.860000
0.001638 0.281752 0.860000
0.003284 0.282408 0.862000
0.004926 0.282408 0.862000
0.006568 0.282408 0.862000
0.008238 0.283390 0.865000
0.009886 0.283390 0.865000
0.011533 0.283390 0.865000
0.013181 0.283390 0.865000
0.014829 0.283390 0.865000
0.016476 0.283390 0.865000
0.018124 0.283390 0.865000
0.019703 0.282408 0.862000
0.021345 0.282408 0.862000
0.022987 0.282408 0.862000
0.024629 0.282408 0.862000
0.026210 0.281752 0.860000
0.027848 0.281752 0.860000
0.029417 0.281097 0.858000
0.031051 0.281097 0.858000
0.032762 0.281752 0.860000
0.034320 0.281097 0.858000
0.035954 0.281097 0.858000
0.037764 0.282408 0.862000
0.039406 0.282408 0.862000
0.041048 0.282408 0.862000
0.042690 0.282408 0.862000
0.044331 0.282408 0.862000
0.045867 0.281752 0.860000
0.047505 0.281752 0.860000
0.049143 0.281752 0.860000
0.050781 0.281752 0.860000
0.052419 0.281752 0.860000
0.054183 0.282408 0.862000
0.055825 0.282408 0.862000
0.057467 0.282408 0.862000
0.059109 0.282408 0.862000
0.060962 0.283390 0.865000
0.062610 0.283390 0.865000
0.064257 0.283390 0.865000
0.065676 0.282408 0.862000
0.067318 0.282408 0.862000
0.068960 0.282408 0.862000
0.070438 0.281752 0.860000
0.072076 0.281752 0.860000
0.073714 0.281752 0.860000
0.075352 0.281752 0.860000
0.077170 0.282408 0.862000
0.078811 0.282408 0.862000
0.080453 0.282408 0.862000
0.082095 0.282408 0.862000
0.083737 0.282408 0.862000
0.085379 0.282408 0.862000
0.087021 0.282408 0.862000
0.088663 0.282408 0.862000
0.090305 0.282408 0.862000
0.091947 0.282408 0.862000
0.093589 0.282408 0.862000
0.095562 0.283390 0.865000
0.097434 0.284046 0.867000
0.099086 0.284046 0.867000
0.100737 0.284046 0.867000
0.102625 0.284701 0.869000
0.104280 0.284701 0.869000
0.105935 0.284701 0.869000
0.107343 0.284046 0.867000
0.108994 0.284046 0.867000
0.110646 0.284046 0.867000
0.112038 0.283390 0.865000
0.113686 0.283390 0.865000
0.115333 0.283390 0.865000
0.116981 0.283390 0.865000
0.118629 0.283390 0.865000
0.120276 0.283390 0.865000
0.121924 0.283390 0.865000
0.123571 0.283390 0.865000
0.125219 0.283390 0.865000
0.126867 0.283390 0.865000
0.128514 0.283390 0.865000
0.130162 0.283390 0.865000
0.131810 0.283390 0.865000
0.133457 0.283390 0.865000
0.135105 0.283390 0.865000
0.136752 0.283390 0.865000
0.138400 0.283390 0.865000
0.140048 0.283390 0.865000
0.141695 0.283390 0.865000
0.143343 0.283390 0.865000
0.145326 0.284046 0.867000
0.146977 0.284046 0.867000
0.148629 0.284046 0.867000
0.150280 0.284046 0.867000
0.151931 0.284046 0.867000
0.153583 0.284046 0.867000
0.155592 0.284701 0.869000
0.157248 0.284701 0.869000
0.158537 0.284046 0.867000
0.160189 0.284046 0.867000
0.161840 0.284046 0.867000
0.163114 0.283390 0.865000
0.164762 0.283390 0.865000
0.166410 0.283390 0.865000
0.168057 0.283390 0.865000
0.169705 0.283390 0.865000
0.171352 0.283390 0.865000
0.173000 0.283390 0.865000
0.174042 0.282408 0.862000
0.175684 0.282408 0.862000
0.177326 0.282408 0.862000
0.179590 0.283390 0.865000
0.181238 0.283390 0.865000
0.182886 0.283390 0.865000
0.184533 0.283390 0.865000
0.186181 0.283390 0.865000
0.187829 0.283390 0.865000
0.189476 0.283390 0.865000
0.191124 0.283390 0.865000
0.192771 0.283390 0.865000
0.194419 0.283390 0.865000
0.195387 0.282408 0.862000
0.197029 0.282408 0.862000
0.198670 0.282408 0.862000
0.200312 0.282408 0.862000
0.201954 0.282408 0.862000
0.204305 0.283390 0.865000
0.205952 0.283390 0.865000
0.207600 0.283390 0.865000
0.209248 0.283390 0.865000
0.210895 0.283390 0.865000
0.212543 0.283390 0.865000
0.214190 0.283390 0.865000
0.215838 0.283390 0.865000
0.217989 0.284046 0.867000
0.219640 0.284046 0.867000
0.221291 0.284046 0.867000
0.222943 0.284046 0.867000
0.224594 0.284046 0.867000
0.226246 0.284046 0.867000
0.228423 0.284701 0.869000
0.229549 0.284046 0.867000
0.230667 0.283390 0.865000
0.232314 0.283390 0.865000
0.234503 0.284046 0.867000
0.236154 0.284046 0.867000
0.237257 0.283390 0.865000
0.238905 0.283390 0.865000
0.240552 0.283390 0.865000
0.242760 0.284046 0.867000
0.244411 0.284046 0.867000
0.246063 0.284046 0.867000
0.247714 0.284046 0.867000
0.249366 0.284046 0.867000
0.251017 0.284046 0.867000
0.253251 0.284701 0.869000
0.254907 0.284701 0.869000
0.256562 0.284701 0.869000
0.258811 0.285356 0.871000
0.260470 0.285356 0.871000
0.250091 0.272251 0.831000
0.251069 0.271596 0.829000
0.252648 0.271596 0.829000
0.254227 0.271596 0.829000
0.255806 0.271596 0.829000
0.257385 0.271596 0.829000
0.257090 0.269630 0.823000
0.257400 0.268320 0.819000
0.257379 0.266682 0.814000
0.257657 0.265371 0.810000
0.259200 0.265371 0.810000
0.259455 0.264061 0.806000
0.260343 0.263406 0.804000
0.259594 0.261112 0.797000
0.260457 0.260457 0.795000
0.261312 0.259802 0.793000
0.262823 0.259802 0.793000
0.264333 0.259802 0.793000
0.265173 0.259147 0.791000
0.266680 0.259147 0.791000
0.267509 0.258491 0.789000
0.268670 0.258164 0.788000
0.268800 0.256853 0.784000
0.269604 0.256198 0.782000
0.270400 0.255543 0.780000
0.271537 0.255215 0.779000
0.273021 0.255215 0.779000
0.274505 0.255215 0.779000
0.275989 0.255215 0.779000
0.276760 0.254560 0.777000
0.278240 0.254560 0.777000
0.279720 0.254560 0.777000
0.281200 0.254560 0.777000
0.282680 0.254560 0.777000
0.284160 0.254560 0.777000
0.285640 0.254560 0.777000
0.287120 0.254560 0.777000
0.288600 0.254560 0.777000
0.290080 0.254560 0.777000
0.291560 0.254560 0.777000
0.293040 0.254560 0.777000
0.294520 0.254560 0.777000
0.296000 0.254560 0.777000
0.297480 0.254560 0.777000
0.298960 0.254560 0.777000
0.300440 0.254560 0.777000
0.301920 0.254560 0.777000
0.303400 0.254560 0.777000
0.304880 0.254560 0.777000
0.307149 0.255215 0.779000
0.307840 0.254560 0.777000
0.309320 0.254560 0.777000
0.311600 0.255215 0.779000
0.313084 0.255215 0.779000
0.314568 0.255215 0.779000
0.316051 0.255215 0.779000
0.317535 0.255215 0.779000
0.319019 0.255215 0.779000
0.320914 0.255543 0.780000
0.322400 0.255543 0.780000
0.323886 0.255543 0.780000
0.325371 0.255543 0.780000
0.327695 0.256198 0.782000
0.329185 0.256198 0.782000
0.369920 0.284046 0.867000
0.371571 0.284046 0.867000
0.372362 0.283390 0.865000
0.374010 0.283390 0.865000
0.374354 0.282408 0.862000
0.375996 0.282408 0.862000
0.377638 0.282408 0.862000
0.379280 0.282408 0.862000
0.380038 0.281752 0.860000
0.381676 0.281752 0.860000
-0.484467 0.278448 0.845000
-0.482857 0.278448 0.845000
-0.480109 0.277789 0.843000
-0.478503 0.277789 0.843000
-0.476897 0.277789 0.843000
-0.476419 0.278448 0.845000
-0.473686 0.277789 0.843000
-0.472080 0.277789 0.843000
-0.470474 0.277789 0.843000
-0.467756 0.277130 0.841000
-0.463937 0.275811 0.837000
-0.461238 0.275152 0.835000
-0.459648 0.275152 0.835000
-0.458057 0.275152 0.835000
-0.456467 0.275152 0.835000
-0.454876 0.275152 0.835000
-0.454371 0.275811 0.837000
-0.452777 0.275811 0.837000
-0.452261 0.276470 0.839000
-0.450663 0.276470 0.839000
-0.449065 0.276470 0.839000
-0.447467 0.276470 0.839000
-0.445869 0.276470 0.839000
-0.444270 0.276470 0.839000
-0.444783 0.277789 0.843000
-0.443177 0.277789 0.843000
-0.441571 0.277789 0.843000
-0.439966 0.277789 0.843000
-0.438360 0.277789 0.843000
-0.436754 0.277789 0.843000
-0.435149 0.277789 0.843000
-0.433543 0.277789 0.843000
-0.430912 0.277130 0.841000
-0.429311 0.277130 0.841000
-0.428726 0.277789 0.843000
-0.427120 0.277789 0.843000
-0.425514 0.277789 0.843000
-0.423909 0.277789 0.843000
-0.422303 0.277789 0.843000
-0.420697 0.277789 0.843000
-0.419091 0.277789 0.843000
-0.417486 0.277789 0.843000
-0.415880 0.277789 0.843000
-0.414274 0.277789 0.843000
-0.412669 0.277789 0.843000
-0.411063 0.277789 0.843000
-0.409457 0.277789 0.843000
-0.407851 0.277789 0.843000
-0.406246 0.277789 0.843000
-0.404640 0.277789 0.843000
-0.403034 0.277789 0.843000
-0.401429 0.277789 0.843000
-0.400771 0.278448 0.845000
-0.399162 0.278448 0.845000
-0.397552 0.278448 0.845000
-0.395943 0.278448 0.845000
-0.394333 0.278448 0.845000
-0.392724 0.278448 0.845000
-0.392503 0.279436 0.848000
-0.390888 0.279436 0.848000
-0.389272 0.279436 0.848000
-0.386286 0.278448 0.845000
-0.384676 0.278448 0.845000
-0.384427 0.279436 0.848000
-0.381457 0.278448 0.845000
-0.379848 0.278448 0.845000
-0.378238 0.278448 0.845000
-0.376629 0.278448 0.845000
-0.375019 0.278448 0.845000
-0.373410 0.278448 0.845000
-0.373120 0.279436 0.848000
-0.371505 0.279436 0.848000
-0.369890 0.279436 0.848000
-0.366971 0.278448 0.845000
-0.365362 0.278448 0.845000
-0.363752 0.278448 0.845000
-0.363429 0.279436 0.848000
-0.361813 0.279436 0.848000
-0.360198 0.279436 0.848000
-0.357314 0.278448 0.845000
-0.355705 0.278448 0.845000
-0.355352 0.279436 0.848000
-0.353737 0.279436 0.848000
-0.352952 0.280095 0.850000
-0.350507 0.279436 0.848000
-0.348891 0.279436 0.848000
-0.347276 0.279436 0.848000
-0.346476 0.280095 0.850000
-0.344857 0.280095 0.850000
-0.343238 0.280095 0.850000
-0.341619 0.280095 0.850000
-0.340000 0.280095 0.850000
-0.339177 0.280754 0.852000
-0.336762 0.280095 0.850000
-0.335143 0.280095 0.850000
-0.332739 0.279436 0.848000
-0.331124 0.279436 0.848000
-0.330286 0.280095 0.850000
-0.328667 0.280095 0.850000
-0.327048 0.280095 0.850000
-0.325429 0.280095 0.850000
-0.323048 0.279436 0.848000
-0.321432 0.279436 0.848000
-0.319817 0.279436 0.848000
-0.318202 0.279436 0.848000
-0.315467 0.278448 0.845000
-0.313857 0.278448 0.845000
-0.313356 0.279436 0.848000
-0.311741 0.279436 0.848000
-0.310126 0.279436 0.848000
-0.309238 0.280095 0.850000
-0.307619 0.280095 0.850000
-0.306720 0.280754 0.852000
-0.304381 0.280095 0.850000
-0.302050 0.279436 0.848000
-0.300434 0.279436 0.848000
-0.298819 0.279436 0.848000
-0.297204 0.279436 0.848000
-0.295589 0.279436 0.848000
-0.293973 0.279436 0.848000
-0.292358 0.279436 0.848000
-0.290743 0.279436 0.848000
-0.289128 0.279436 0.848000
-0.287512 0.279436 0.848000
-0.286571 0.280095 0.850000
-0.284952 0.280095 0.850000
-0.282667 0.279436 0.848000
-0.281051 0.279436 0.848000
-0.280095 0.280095 0.850000
-0.278476 0.280095 0.850000
-0.276206 0.279436 0.848000
-0.274590 0.279436 0.848000
-0.272975 0.279436 0.848000
-0.271360 0.279436 0.848000
-0.269745 0.279436 0.848000
-0.268130 0.279436 0.848000
-0.266514 0.279436 0.848000
-0.264899 0.279436 0.848000
-0.263284 0.279436 0.848000
-0.261669 0.279436 0.848000
-0.260053 0.279436 0.848000
-0.258438 0.279436 0.848000
-0.256823 0.279436 0.848000
-0.255208 0.279436 0.848000
-0.253592 0.279436 0.848000
-0.252571 0.280095 0.850000
-0.251543 0.280754 0.852000
-0.249920 0.280754 0.852000
-0.248297 0.280754 0.852000
-0.246674 0.280754 0.852000
-0.245051 0.280754 0.852000
-0.243429 0.280754 0.852000
-0.241806 0.280754 0.852000
-0.240183 0.280754 0.852000
-0.238560 0.280754 0.852000
-0.236381 0.280095 0.850000
-0.234762 0.280095 0.850000
-0.233143 0.280095 0.850000
-0.231524 0.280095 0.850000
-0.229905 0.280095 0.850000
-0.227749 0.279436 0.848000
-0.226133 0.279436 0.848000
-0.224518 0.279436 0.848000
-0.204766 0.256699 0.779000
-0.202760 0.256040 0.777000
-0.201280 0.256040 0.777000
-0.199800 0.256040 0.777000
-0.198320 0.256040 0.777000
-0.196333 0.255381 0.775000
-0.194857 0.255381 0.775000
-0.192882 0.254722 0.773000
-0.190667 0.253733 0.770000
-0.188463 0.252745 0.767000
-0.186027 0.251427 0.763000
-0.184090 0.250768 0.761000
-0.181440 0.249120 0.756000
-0.180000 0.249120 0.756000
-0.178324 0.248790 0.755000
-0.176886 0.248790 0.755000
-0.174983 0.248131 0.753000
-0.173549 0.248131 0.753000
-0.172114 0.248131 0.753000
-0.170453 0.247802 0.752000
-0.168571 0.247143 0.750000
-0.166474 0.246154 0.747000
-0.164168 0.244836 0.743000
-0.162533 0.244507 0.742000
-0.160686 0.243848 0.740000
-0.159061 0.243518 0.739000
-0.157653 0.243518 0.739000
-0.155823 0.242859 0.737000
-0.154419 0.242859 0.737000
-0.153015 0.242859 0.737000
-0.151611 0.242859 0.737000
-0.150208 0.242859 0.737000
-0.148804 0.242859 0.737000
-0.147400 0.242859 0.737000
-0.146392 0.243518 0.739000
-0.144985 0.243518 0.739000
-0.143771 0.243848 0.740000
-0.142747 0.244507 0.742000
-0.141524 0.244836 0.743000
-0.140109 0.244836 0.743000
-0.139067 0.245495 0.745000
-0.138017 0.246154 0.747000
-0.136777 0.246484 0.748000
-0.135714 0.247143 0.750000
-0.134286 0.247143 0.750000
-0.133211 0.247802 0.752000
-0.131779 0.247802 0.752000
-0.130520 0.248131 0.753000
-0.129429 0.248790 0.755000
-0.128160 0.249120 0.756000
-0.126720 0.249120 0.756000
-0.125280 0.249120 0.756000
-0.124168 0.249779 0.758000
-0.123048 0.250438 0.760000
-0.121760 0.250768 0.761000
-0.120627 0.251427 0.763000
-0.119486 0.252086 0.765000
-0.118337 0.252745 0.767000
-0.116876 0.252745 0.767000
-0.115566 0.253074 0.768000
-0.114103 0.253074 0.768000
-0.112933 0.253733 0.770000
-0.111756 0.254392 0.772000
-0.110429 0.254722 0.773000
-0.109238 0.255381 0.775000
-0.107762 0.255381 0.775000
-0.106560 0.256040 0.777000
-0.105080 0.256040 0.777000
-0.103867 0.256699 0.779000
-0.102514 0.257029 0.780000
-0.101029 0.257029 0.780000
-0.099798 0.257688 0.782000
-0.098560 0.258347 0.784000
-0.097067 0.258347 0.784000
-0.095573 0.258347 0.784000
-0.094320 0.259006 0.786000
-0.093059 0.259665 0.788000
-0.091674 0.259994 0.789000
-0.090400 0.260653 0.791000
-0.089118 0.261312 0.793000
-0.087608 0.261312 0.793000
-0.086314 0.261971 0.795000
-0.085013 0.262630 0.797000
-0.083495 0.262630 0.797000
-0.082080 0.262960 0.798000
-0.080560 0.262960 0.798000
-0.079238 0.263619 0.800000
-0.077714 0.263619 0.800000
-0.076571 0.264937 0.804000
-0.075040 0.264937 0.804000
-0.073691 0.265596 0.806000
-0.072156 0.265596 0.806000
-0.070971 0.266914 0.810000
-0.069429 0.266914 0.810000
-0.068053 0.267573 0.812000
-0.066670 0.268232 0.814000
-0.065120 0.268232 0.814000
-0.063648 0.268562 0.815000
-0.062095 0.268562 0.815000
-0.060691 0.269221 0.817000
-0.059280 0.269880 0.819000
-0.058002 0.271198 0.823000
-0.056571 0.271857 0.825000
-0.055133 0.272516 0.827000
-0.053688 0.273175 0.829000
-0.052109 0.273175 0.829000
-0.050530 0.273175 0.829000
-0.048950 0.273175 0.829000
-0.047486 0.273834 0.831000
-0.046952 0.280095 0.850000
-0.045333 0.280095 0.850000
-0.043817 0.280754 0.852000
-0.042293 0.281413 0.854000
-0.040667 0.281413 0.854000
-0.039040 0.281413 0.854000
-0.037413 0.281413 0.854000
-0.035787 0.281413 0.854000
-0.034160 0.281413 0.854000
-0.032533 0.281413 0.854000
-0.030979 0.282072 0.856000
-0.029349 0.282072 0.856000
-0.027718 0.282072 0.856000
-0.026088 0.282072 0.856000
-0.024457 0.282072 0.856000
-0.022880 0.282731 0.858000
-0.021246 0.282731 0.858000
-0.019566 0.282072 0.856000
-0.017935 0.282072 0.856000
-0.016305 0.282072 0.856000
-0.014674 0.282072 0.856000
-0.013044 0.282072 0.856000
-0.011413 0.282072 0.856000
-0.009783 0.282072 0.856000
-0.008152 0.282072 0.856000
-0.006522 0.282072 0.856000
-0.004903 0.282731 0.858000
-0.003261 0.282072 0.856000
-0.001630 0.282072 0.856000
0.000000 0.282731 0.858000
0.001634 0.282731 0.858000
0.003261 0.282072 0.856000
0.004891 0.282072 0.856000
0.006537 0.282731 0.858000
0.008171 0.282731 0.858000
0.009806 0.282731 0.858000
0.011440 0.282731 0.858000
0.013135 0.284050 0.862000
0.014777 0.284050 0.862000
0.016419 0.284050 0.862000
0.018061 0.284050 0.862000
0.019657 0.283390 0.860000
0.021295 0.283390 0.860000
0.022933 0.283390 0.860000
0.024514 0.282731 0.858000
0.026149 0.282731 0.858000
0.027783 0.282731 0.858000
0.029417 0.282731 0.858000
0.031051 0.282731 0.858000
0.032686 0.282731 0.858000
0.034320 0.282731 0.858000
0.035954 0.282731 0.858000
0.037676 0.283390 0.860000
0.039314 0.283390 0.860000
0.040952 0.283390 0.860000
0.042590 0.283390 0.860000
0.044126 0.282731 0.858000
0.045760 0.282731 0.858000
0.047394 0.282731 0.858000
0.049029 0.282731 0.858000
0.050663 0.282731 0.858000
0.052297 0.282731 0.858000
0.053931 0.282731 0.858000
0.055566 0.282731 0.858000
0.057200 0.282731 0.858000
0.058971 0.283390 0.860000
0.060610 0.283390 0.860000
0.062248 0.283390 0.860000
0.063737 0.282731 0.858000
0.065371 0.282731 0.858000
0.067006 0.282731 0.858000
0.068640 0.282731 0.858000
0.070274 0.282731 0.858000
0.071909 0.282731 0.858000
0.073543 0.282731 0.858000
0.075177 0.282731 0.858000
0.076811 0.282731 0.858000
0.078629 0.283390 0.860000
0.080267 0.283390 0.860000
0.081905 0.283390 0.860000
0.083349 0.282731 0.858000
0.084983 0.282731 0.858000
0.086819 0.283390 0.860000
0.088457 0.283390 0.860000
0.090095 0.283390 0.860000
0.091733 0.283390 0.860000
0.093371 0.283390 0.860000
0.095230 0.284050 0.862000
0.096872 0.284050 0.862000
0.098857 0.285038 0.865000
0.100505 0.285038 0.865000
0.102152 0.285038 0.865000
0.103800 0.285038 0.865000
0.105448 0.285038 0.865000
0.107095 0.285038 0.865000
0.108366 0.284050 0.862000
0.110008 0.284050 0.862000
0.111650 0.284050 0.862000
0.113291 0.284050 0.862000
0.114933 0.284050 0.862000
0.116575 0.284050 0.862000
0.118217 0.284050 0.862000
0.119859 0.284050 0.862000
0.121501 0.284050 0.862000
0.123143 0.284050 0.862000
0.124785 0.284050 0.862000
0.126133 0.283390 0.860000
0.127771 0.283390 0.860000
0.129710 0.284050 0.862000
0.131352 0.284050 0.862000
0.132994 0.284050 0.862000
0.134636 0.284050 0.862000
0.136278 0.284050 0.862000
0.137920 0.284050 0.862000
0.139562 0.284050 0.862000
0.141204 0.284050 0.862000
0.142846 0.284050 0.862000
0.144488 0.284050 0.862000
0.146130 0.284050 0.862000
0.147771 0.284050 0.862000
0.149413 0.284050 0.862000
0.151055 0.284050 0.862000
0.152697 0.284050 0.862000
0.154339 0.284050 0.862000
0.156524 0.285038 0.865000
0.157623 0.284050 0.862000
0.159265 0.284050 0.862000
0.160533 0.283390 0.860000
0.162171 0.283390 0.860000
0.163810 0.283390 0.860000
0.165448 0.283390 0.860000
0.167086 0.283390 0.860000
0.168724 0.283390 0.860000
0.169966 0.282731 0.858000
0.171600 0.282731 0.858000
0.173638 0.283390 0.860000
0.175276 0.283390 0.860000
0.176914 0.283390 0.860000
0.178552 0.283390 0.860000
0.180610 0.284050 0.862000
0.182251 0.284050 0.862000
0.183893 0.284050 0.862000
0.185535 0.284050 0.862000
0.187177 0.284050 0.862000
0.188819 0.284050 0.862000
0.190019 0.283390 0.860000
0.191657 0.283390 0.860000
0.193295 0.283390 0.860000
0.194933 0.283390 0.860000
0.196571 0.283390 0.860000
0.198210 0.283390 0.860000
0.199848 0.283390 0.860000
0.201486 0.283390 0.860000
0.203124 0.283390 0.860000
0.204762 0.283390 0.860000
0.206400 0.283390 0.860000
0.208038 0.283390 0.860000
0.210164 0.284050 0.862000
0.211806 0.284050 0.862000
0.213448 0.284050 0.862000
0.215090 0.284050 0.862000
0.216731 0.284050 0.862000
0.219133 0.285038 0.865000
0.220015 0.284050 0.862000
0.221657 0.284050 0.862000
0.223299 0.284050 0.862000
0.223897 0.282731 0.858000
0.225531 0.282731 0.858000
0.227166 0.282731 0.858000
0.228800 0.282731 0.858000
0.230434 0.282731 0.858000
0.232069 0.282731 0.858000
0.234248 0.283390 0.860000
0.235886 0.283390 0.860000
0.237524 0.283390 0.860000
0.239718 0.284050 0.862000
0.242200 0.285038 0.865000
0.243848 0.285038 0.865000
0.245495 0.285038 0.865000
0.247143 0.285038 0.865000
0.248790 0.285038 0.865000
0.250438 0.285038 0.865000
0.252669 0.285697 0.867000
0.254320 0.285697 0.867000
0.256562 0.286356 0.869000
0.258811 0.287015 0.871000
0.248509 0.273834 0.831000
0.250091 0.273834 0.831000
0.251069 0.273175 0.829000
0.252038 0.272516 0.827000
0.253613 0.272516 0.827000
0.255189 0.272516 0.827000
0.256764 0.272516 0.827000
0.256465 0.270539 0.821000
0.257400 0.269880 0.819000
0.258328 0.269221 0.817000
0.257657 0.266914 0.810000
0.259200 0.266914 0.810000
0.259455 0.265596 0.806000
0.260343 0.264937 0.804000
0.259594 0.262630 0.797000
0.260457 0.261971 0.795000
0.261312 0.261312 0.793000
