# .PCD v.5 - Point Cloud Data file format
FIELDS x y z 
SIZE 4 4 4
TYPE F F F
COUNT 1 1 1
WIDTH 1625
HEIGHT 1
POINTS 1625
DATA ascii
-0.281752  0.075352  0.860000
-0.280114  0.075352  0.860000
-0.278476  0.075352  0.860000
-0.276838  0.075352  0.860000
-0.275200  0.075352  0.860000
-0.273562  0.075352  0.860000
-0.271924  0.075352  0.860000
-0.270286  0.075352  0.860000
-0.268648  0.075352  0.860000
-0.267010  0.075352  0.860000
-0.265371  0.075352  0.860000
-0.263733  0.075352  0.860000
-0.262095  0.075352  0.860000
-0.261063  0.075528  0.862000
-0.259421  0.075528  0.862000
-0.257779  0.075528  0.862000
-0.256137  0.075528  0.862000
-0.254495  0.075528  0.862000
-0.252853  0.075528  0.862000
-0.251211  0.075528  0.862000
-0.249570  0.075528  0.862000
-0.247928  0.075528  0.862000
-0.246286  0.075528  0.862000
-0.245495  0.075790  0.865000
-0.244411  0.075966  0.867000
-0.243320  0.076141  0.869000
-0.241665  0.076141  0.869000
-0.240010  0.076141  0.869000
-0.238903  0.076316  0.871000
-0.237244  0.076316  0.871000
-0.235585  0.076316  0.871000
-0.234463  0.076491  0.873000
-0.233333  0.076667  0.875000
-0.231667  0.076667  0.875000
-0.230789  0.076930  0.878000
-0.229638  0.077105  0.880000
-0.227962  0.077105  0.880000
-0.226800  0.077280  0.882000
-0.225630  0.077455  0.884000
-0.223947  0.077455  0.884000
-0.222263  0.077455  0.884000
-0.221328  0.077718  0.887000
-0.136366  0.082537  0.942000
-0.134571  0.082537  0.942000
-0.132777  0.082537  0.942000
-0.130983  0.082537  0.942000
-0.129600  0.082800  0.945000
-0.127394  0.082537  0.942000
-0.125333  0.082362  0.940000
-0.123543  0.082362  0.940000
-0.121364  0.082099  0.937000
-0.119579  0.082099  0.937000
-0.117794  0.082099  0.937000
-0.115762  0.081924  0.935000
-0.113981  0.081924  0.935000
-0.112200  0.081924  0.935000
-0.110419  0.081924  0.935000
-0.108638  0.081924  0.935000
-0.106857  0.081924  0.935000
-0.105076  0.081924  0.935000
-0.103295  0.081924  0.935000
-0.101514  0.081924  0.935000
-0.099733  0.081924  0.935000
-0.098162  0.082099  0.937000
-0.096171  0.081924  0.935000
-0.094390  0.081924  0.935000
-0.092808  0.082099  0.937000
-0.091023  0.082099  0.937000
-0.089238  0.082099  0.937000
-0.087453  0.082099  0.937000
-0.085669  0.082099  0.937000
-0.083884  0.082099  0.937000
-0.082099  0.082099  0.937000
-0.080571  0.082362  0.940000
-0.078781  0.082362  0.940000
-0.077154  0.082537  0.942000
-0.075360  0.082537  0.942000
-0.073800  0.082800  0.945000
-0.072000  0.082800  0.945000
-0.070423  0.083063  0.948000
-0.068617  0.083063  0.948000
-0.066811  0.083063  0.948000
-0.065006  0.083063  0.948000
-0.063333  0.083238  0.950000
-0.001663  0.076491  0.873000
0.000000  0.076491  0.873000
0.021617  0.076491  0.873000
0.023227  0.076316  0.871000
0.024886  0.076316  0.871000
0.026484  0.076141  0.869000
0.028074  0.075966  0.867000
0.029726  0.075966  0.867000
0.031377  0.075966  0.867000
0.032952  0.075790  0.865000
0.034480  0.075528  0.862000
0.036038  0.075352  0.860000
0.037238  0.074476  0.850000
0.038766  0.074301  0.848000
0.040238  0.074038  0.845000
0.041749  0.073863  0.843000
0.043354  0.073863  0.843000
0.044853  0.073688  0.841000
0.046345  0.073512  0.839000
0.047714  0.073162  0.835000
0.049069  0.072811  0.831000
0.050408  0.072461  0.827000
0.051857  0.072286  0.825000
0.053299  0.072110  0.823000
0.054867  0.072110  0.823000
0.056297  0.071935  0.821000
0.057720  0.071760  0.819000
0.059135  0.071585  0.817000
0.060543  0.071410  0.815000
0.062019  0.071322  0.814000
0.063257  0.070971  0.810000
0.064640  0.070796  0.808000
0.066179  0.070796  0.808000
0.067550  0.070621  0.806000
0.069086  0.070621  0.806000
0.070446  0.070446  0.804000
0.071619  0.070095  0.800000
0.072960  0.069920  0.798000
0.074480  0.069920  0.798000
0.075714  0.069657  0.795000
0.077034  0.069482  0.793000
0.078149  0.069131  0.789000
0.079651  0.069131  0.789000
0.080846  0.068869  0.786000
0.081924  0.068518  0.782000
0.083093  0.068255  0.779000
0.084577  0.068255  0.779000
0.086061  0.068255  0.779000
0.087320  0.068080  0.777000
0.088571  0.067905  0.775000
0.090048  0.067905  0.775000
0.091524  0.067905  0.775000
0.092400  0.067467  0.770000
0.093867  0.067467  0.770000
0.094962  0.067204  0.767000
0.095920  0.066853  0.763000
0.097118  0.066678  0.761000
0.098179  0.066415  0.758000
0.099360  0.066240  0.756000
0.100667  0.066152  0.755000
0.101834  0.065977  0.753000
0.103269  0.065977  0.753000
0.104286  0.065714  0.750000
0.105291  0.065451  0.747000
0.106429  0.065276  0.745000
0.107558  0.065101  0.743000
0.108973  0.065101  0.743000
0.110240  0.065013  0.742000
0.111202  0.064750  0.739000
0.112305  0.064575  0.737000
0.113554  0.064488  0.736000
0.114331  0.064137  0.732000
0.115568  0.064050  0.731000
0.116640  0.063874  0.729000
0.117867  0.063787  0.728000
0.118926  0.063611  0.726000
0.119811  0.063349  0.723000
0.121021  0.063261  0.722000
0.121888  0.062998  0.719000
0.122914  0.062823  0.717000
0.124107  0.062735  0.716000
0.125470  0.062735  0.716000
0.126480  0.062560  0.714000
0.127840  0.062560  0.714000
0.129200  0.062560  0.714000
0.130377  0.062472  0.713000
0.131735  0.062472  0.713000
0.133093  0.062472  0.713000
0.134451  0.062472  0.713000
0.136000  0.062560  0.714000
0.137360  0.062560  0.714000
0.138720  0.062560  0.714000
0.140472  0.062735  0.716000
0.142034  0.062823  0.717000
0.143800  0.062998  0.719000
0.145371  0.063086  0.720000
0.146743  0.063086  0.720000
0.148731  0.063349  0.723000
0.150109  0.063349  0.723000
0.151486  0.063349  0.723000
0.153286  0.063524  0.725000
0.154880  0.063611  0.726000
0.156263  0.063611  0.726000
0.158080  0.063787  0.728000
0.159686  0.063874  0.729000
0.161074  0.063874  0.729000
0.162909  0.064050  0.731000
0.164301  0.064050  0.731000
0.165693  0.064050  0.731000
0.167086  0.064050  0.731000
0.168709  0.064137  0.732000
0.170103  0.064137  0.732000
0.171966  0.064312  0.734000
0.173836  0.064488  0.736000
0.175476  0.064575  0.737000
0.176880  0.064575  0.737000
0.178768  0.064750  0.739000
0.180175  0.064750  0.739000
0.181583  0.064750  0.739000
0.183238  0.064838  0.740000
0.185396  0.065101  0.743000
0.186811  0.065101  0.743000
0.188733  0.065276  0.745000
0.190152  0.065276  0.745000
0.191571  0.065276  0.745000
0.193509  0.065451  0.747000
0.194931  0.065451  0.747000
-0.299598  0.077796  0.869000
-0.297943  0.077796  0.869000
-0.295606  0.077617  0.867000
-0.293954  0.077617  0.867000
-0.291629  0.077438  0.865000
-0.289981  0.077438  0.865000
-0.287333  0.077170  0.862000
-0.285029  0.076990  0.860000
-0.283390  0.076990  0.860000
-0.281752  0.076990  0.860000
-0.280114  0.076990  0.860000
-0.278476  0.076990  0.860000
-0.276838  0.076990  0.860000
-0.275200  0.076990  0.860000
-0.273562  0.076990  0.860000
-0.271924  0.076990  0.860000
-0.270286  0.076990  0.860000
-0.268648  0.076990  0.860000
-0.267010  0.076990  0.860000
-0.265371  0.076990  0.860000
-0.263733  0.076990  0.860000
-0.262095  0.076990  0.860000
-0.260457  0.076990  0.860000
-0.258819  0.076990  0.860000
-0.257779  0.077170  0.862000
-0.256137  0.077170  0.862000
-0.254495  0.077170  0.862000
-0.252853  0.077170  0.862000
-0.251211  0.077170  0.862000
-0.248990  0.076990  0.860000
-0.247352  0.076990  0.860000
-0.246286  0.077170  0.862000
-0.245495  0.077438  0.865000
-0.244411  0.077617  0.867000
-0.242760  0.077617  0.867000
-0.241665  0.077796  0.869000
-0.240010  0.077796  0.869000
-0.238903  0.077975  0.871000
-0.237244  0.077975  0.871000
-0.235585  0.077975  0.871000
-0.234463  0.078154  0.873000
-0.233333  0.078333  0.875000
-0.232461  0.078602  0.878000
-0.230789  0.078602  0.878000
-0.229638  0.078781  0.880000
-0.227962  0.078781  0.880000
-0.226800  0.078960  0.882000
-0.225630  0.079139  0.884000
-0.223947  0.079139  0.884000
-0.222263  0.079139  0.884000
-0.139040  0.084869  0.948000
-0.136366  0.084331  0.942000
-0.134571  0.084331  0.942000
-0.133200  0.084600  0.945000
-0.131400  0.084600  0.945000
-0.129600  0.084600  0.945000
-0.127394  0.084331  0.942000
-0.125600  0.084331  0.942000
-0.123543  0.084152  0.940000
-0.121752  0.084152  0.940000
-0.119579  0.083884  0.937000
-0.117794  0.083884  0.937000
-0.115762  0.083705  0.935000
-0.113981  0.083705  0.935000
-0.112200  0.083705  0.935000
-0.110419  0.083705  0.935000
-0.108638  0.083705  0.935000
-0.106857  0.083705  0.935000
-0.105076  0.083705  0.935000
-0.103295  0.083705  0.935000
-0.101514  0.083705  0.935000
-0.099947  0.083884  0.937000
-0.098162  0.083884  0.937000
-0.096377  0.083884  0.937000
-0.094592  0.083884  0.937000
-0.092808  0.083884  0.937000
-0.091023  0.083884  0.937000
-0.089238  0.083884  0.937000
-0.087453  0.083884  0.937000
-0.085669  0.083884  0.937000
-0.083884  0.083884  0.937000
-0.082099  0.083884  0.937000
-0.080571  0.084152  0.940000
-0.078781  0.084152  0.940000
-0.077154  0.084331  0.942000
-0.075360  0.084331  0.942000
-0.073800  0.084600  0.945000
-0.072000  0.084600  0.945000
-0.070423  0.084869  0.948000
-0.068617  0.084869  0.948000
-0.066811  0.084869  0.948000
-0.065006  0.084869  0.948000
-0.063333  0.085048  0.950000
-0.001663  0.078154  0.873000
0.000000  0.078154  0.873000
0.001663  0.078154  0.873000
0.023227  0.077975  0.871000
0.024829  0.077796  0.869000
0.026423  0.077617  0.867000
0.028074  0.077617  0.867000
0.029726  0.077617  0.867000
0.031305  0.077438  0.865000
0.032952  0.077438  0.865000
0.034480  0.077170  0.862000
0.036038  0.076990  0.860000
0.037238  0.076095  0.850000
0.038766  0.075916  0.848000
0.040238  0.075648  0.845000
0.041749  0.075469  0.843000
0.043354  0.075469  0.843000
0.044960  0.075469  0.843000
0.046345  0.075110  0.839000
0.047714  0.074752  0.835000
0.049069  0.074394  0.831000
0.050408  0.074036  0.827000
0.051857  0.073857  0.825000
0.053299  0.073678  0.823000
0.054867  0.073678  0.823000
0.056297  0.073499  0.821000
0.057720  0.073320  0.819000
0.059135  0.073141  0.817000
0.060543  0.072962  0.815000
0.062019  0.072872  0.814000
0.063257  0.072514  0.810000
0.064640  0.072335  0.808000
0.066179  0.072335  0.808000
0.067550  0.072156  0.806000
0.069086  0.072156  0.806000
0.070270  0.071798  0.802000
0.071619  0.071619  0.800000
0.072960  0.071440  0.798000
0.074480  0.071440  0.798000
0.075524  0.070992  0.793000
0.076840  0.070813  0.791000
0.078149  0.070634  0.789000
0.079550  0.070545  0.788000
0.080640  0.070187  0.784000
0.081924  0.070008  0.782000
0.083093  0.069739  0.779000
0.084577  0.069739  0.779000
0.086061  0.069739  0.779000
0.087320  0.069560  0.777000
0.088800  0.069560  0.777000
0.090280  0.069560  0.777000
0.091524  0.069381  0.775000
0.092640  0.069112  0.772000
0.094110  0.069112  0.772000
0.094962  0.068665  0.767000
0.096171  0.068486  0.765000
0.097118  0.068128  0.761000
0.098179  0.067859  0.758000
0.099360  0.067680  0.756000
0.100267  0.067322  0.752000
0.101699  0.067322  0.752000
0.103269  0.067411  0.753000
0.104286  0.067143  0.750000
0.105291  0.066874  0.747000
0.106429  0.066695  0.745000
0.107558  0.066516  0.743000
0.108973  0.066516  0.743000
0.110240  0.066427  0.742000
0.111202  0.066158  0.739000
0.112305  0.065979  0.737000
0.113554  0.065890  0.736000
0.114331  0.065531  0.732000
0.115568  0.065442  0.731000
0.116640  0.065263  0.729000
0.117867  0.065173  0.728000
0.118762  0.064905  0.725000
0.119646  0.064636  0.722000
0.120686  0.064457  0.720000
0.121549  0.064189  0.717000
0.122743  0.064099  0.716000
0.124107  0.064099  0.716000
0.125470  0.064099  0.716000
0.126480  0.063920  0.714000
0.127840  0.063920  0.714000
0.129200  0.063920  0.714000
0.130560  0.063920  0.714000
0.131920  0.063920  0.714000
0.133280  0.063920  0.714000
0.134640  0.063920  0.714000
0.136000  0.063920  0.714000
0.137360  0.063920  0.714000
0.139109  0.064099  0.716000
0.140472  0.064099  0.716000
0.142034  0.064189  0.717000
0.143800  0.064368  0.719000
0.145371  0.064457  0.720000
0.146743  0.064457  0.720000
0.148731  0.064726  0.723000
0.150109  0.064726  0.723000
0.151486  0.064726  0.723000
0.153286  0.064905  0.725000
0.154880  0.064994  0.726000
0.156263  0.064994  0.726000
0.158080  0.065173  0.728000
0.159686  0.065263  0.729000
0.161074  0.065263  0.729000
0.162909  0.065442  0.731000
0.164301  0.065442  0.731000
0.165693  0.065442  0.731000
0.167086  0.065442  0.731000
0.168709  0.065531  0.732000
0.170103  0.065531  0.732000
0.171966  0.065710  0.734000
0.173836  0.065890  0.736000
0.175476  0.065979  0.737000
0.176880  0.065979  0.737000
0.178768  0.066158  0.739000
0.180175  0.066158  0.739000
0.181829  0.066248  0.740000
0.183238  0.066248  0.740000
0.185396  0.066516  0.743000
0.186811  0.066516  0.743000
0.188733  0.066695  0.745000
0.190152  0.066695  0.745000
0.191571  0.066695  0.745000
0.193768  0.066964  0.748000
0.195714  0.067143  0.750000
-0.301947  0.079634  0.871000
-0.299598  0.079451  0.869000
-0.297943  0.079451  0.869000
-0.296288  0.079451  0.869000
-0.293954  0.079269  0.867000
-0.291629  0.079086  0.865000
-0.289981  0.079086  0.865000
-0.287333  0.078811  0.862000
-0.285691  0.078811  0.862000
-0.284050  0.078811  0.862000
-0.281752  0.078629  0.860000
-0.280114  0.078629  0.860000
-0.278476  0.078629  0.860000
-0.276838  0.078629  0.860000
-0.275200  0.078629  0.860000
-0.272926  0.078446  0.858000
-0.271291  0.078446  0.858000
-0.269657  0.078446  0.858000
-0.268023  0.078446  0.858000
-0.267010  0.078629  0.860000
-0.265371  0.078629  0.860000
-0.263733  0.078629  0.860000
-0.262095  0.078629  0.860000
-0.260457  0.078629  0.860000
-0.258819  0.078629  0.860000
-0.257779  0.078811  0.862000
-0.256137  0.078811  0.862000
-0.254495  0.078811  0.862000
-0.252853  0.078811  0.862000
-0.251211  0.078811  0.862000
-0.248990  0.078629  0.860000
-0.247352  0.078629  0.860000
-0.246286  0.078811  0.862000
-0.245495  0.079086  0.865000
-0.244411  0.079269  0.867000
-0.242760  0.079269  0.867000
-0.241665  0.079451  0.869000
-0.240010  0.079451  0.869000
-0.238903  0.079634  0.871000
-0.237244  0.079634  0.871000
-0.236126  0.079817  0.873000
-0.235000  0.080000  0.875000
-0.233333  0.080000  0.875000
-0.232461  0.080274  0.878000
-0.230789  0.080274  0.878000
-0.229638  0.080457  0.880000
-0.228480  0.080640  0.882000
-0.226800  0.080640  0.882000
-0.226396  0.081097  0.887000
-0.224707  0.081097  0.887000
-0.223017  0.081097  0.887000
-0.139040  0.086674  0.948000
-0.136800  0.086400  0.945000
-0.135000  0.086400  0.945000
-0.133200  0.086400  0.945000
-0.131400  0.086400  0.945000
-0.129600  0.086400  0.945000
-0.127394  0.086126  0.942000
-0.125600  0.086126  0.942000
-0.123543  0.085943  0.940000
-0.121752  0.085943  0.940000
-0.119579  0.085669  0.937000
-0.117794  0.085669  0.937000
-0.116010  0.085669  0.937000
-0.114225  0.085669  0.937000
-0.112200  0.085486  0.935000
-0.110419  0.085486  0.935000
-0.108638  0.085486  0.935000
-0.106857  0.085486  0.935000
-0.105076  0.085486  0.935000
-0.103295  0.085486  0.935000
-0.101514  0.085486  0.935000
-0.099947  0.085669  0.937000
-0.098162  0.085669  0.937000
-0.096377  0.085669  0.937000
-0.094592  0.085669  0.937000
-0.092808  0.085669  0.937000
-0.091023  0.085669  0.937000
-0.089238  0.085669  0.937000
-0.087453  0.085669  0.937000
-0.085669  0.085669  0.937000
-0.083884  0.085669  0.937000
-0.082362  0.085943  0.940000
-0.080571  0.085943  0.940000
-0.078949  0.086126  0.942000
-0.077154  0.086126  0.942000
-0.075360  0.086126  0.942000
-0.073800  0.086400  0.945000
-0.072000  0.086400  0.945000
-0.070423  0.086674  0.948000
-0.068617  0.086674  0.948000
-0.066811  0.086674  0.948000
-0.065006  0.086674  0.948000
-0.063333  0.086857  0.950000
-0.061848  0.087314  0.955000
-0.001663  0.079817  0.873000
0.000000  0.079817  0.873000
0.001667  0.080000  0.875000
0.003345  0.080274  0.878000
0.005029  0.080457  0.880000
0.006720  0.080640  0.882000
0.008419  0.080823  0.884000
0.023227  0.079634  0.871000
0.024829  0.079451  0.869000
0.026423  0.079269  0.867000
0.028074  0.079269  0.867000
0.029726  0.079269  0.867000
0.031305  0.079086  0.865000
0.032952  0.079086  0.865000
0.034480  0.078811  0.862000
0.036038  0.078629  0.860000
0.037413  0.078080  0.854000
0.038857  0.077714  0.850000
0.040381  0.077531  0.848000
0.041848  0.077257  0.845000
0.043354  0.077074  0.843000
0.044853  0.076891  0.841000
0.046345  0.076709  0.839000
0.047714  0.076343  0.835000
0.049069  0.075977  0.831000
0.050530  0.075794  0.829000
0.051857  0.075429  0.825000
0.053299  0.075246  0.823000
0.054867  0.075246  0.823000
0.056297  0.075063  0.821000
0.057861  0.075063  0.821000
0.059280  0.074880  0.819000
0.060543  0.074514  0.815000
0.062019  0.074423  0.814000
0.063257  0.074057  0.810000
0.064640  0.073874  0.808000
0.066179  0.073874  0.808000
0.067550  0.073691  0.806000
0.069086  0.073691  0.806000
0.070270  0.073326  0.802000
0.071440  0.072960  0.798000
0.072960  0.072960  0.798000
0.074387  0.072869  0.797000
0.075524  0.072503  0.793000
0.076840  0.072320  0.791000
0.078149  0.072137  0.789000
0.079550  0.072046  0.788000
0.080640  0.071680  0.784000
0.081924  0.071497  0.782000
0.083200  0.071314  0.780000
0.084686  0.071314  0.780000
0.086061  0.071223  0.779000
0.087320  0.071040  0.777000
0.088800  0.071040  0.777000
0.090280  0.071040  0.777000
0.091524  0.070857  0.775000
0.092640  0.070583  0.772000
0.094110  0.070583  0.772000
0.094962  0.070126  0.767000
0.096171  0.069943  0.765000
0.097373  0.069760  0.763000
0.098568  0.069577  0.761000
0.098966  0.068846  0.753000
0.100267  0.068754  0.752000
0.101699  0.068754  0.752000
0.103131  0.068754  0.752000
0.104008  0.068389  0.748000
0.105432  0.068389  0.748000
0.106429  0.068114  0.745000
0.107848  0.068114  0.745000
0.108973  0.067931  0.743000
0.110240  0.067840  0.742000
0.111202  0.067566  0.739000
0.112305  0.067383  0.737000
0.113554  0.067291  0.736000
0.114331  0.066926  0.732000
0.115568  0.066834  0.731000
0.116640  0.066651  0.729000
0.118029  0.066651  0.729000
0.118762  0.066286  0.725000
0.119646  0.066011  0.722000
0.120686  0.065829  0.720000
0.121549  0.065554  0.717000
0.122743  0.065463  0.716000
0.124107  0.065463  0.716000
0.125470  0.065463  0.716000
0.126834  0.065463  0.716000
0.127840  0.065280  0.714000
0.129200  0.065280  0.714000
0.130560  0.065280  0.714000
0.131920  0.065280  0.714000
0.133280  0.065280  0.714000
0.134640  0.065280  0.714000
0.136000  0.065280  0.714000
0.137360  0.065280  0.714000
0.139109  0.065463  0.716000
0.140472  0.065463  0.716000
0.142034  0.065554  0.717000
0.143800  0.065737  0.719000
0.145371  0.065829  0.720000
0.146743  0.065829  0.720000
0.148731  0.066103  0.723000
0.150109  0.066103  0.723000
0.151905  0.066286  0.725000
0.153286  0.066286  0.725000
0.154880  0.066377  0.726000
0.156693  0.066560  0.728000
0.158080  0.066560  0.728000
0.159686  0.066651  0.729000
0.161074  0.066651  0.729000
0.162909  0.066834  0.731000
0.164301  0.066834  0.731000
0.165693  0.066834  0.731000
0.167086  0.066834  0.731000
0.168709  0.066926  0.732000
0.170568  0.067109  0.734000
0.171966  0.067109  0.734000
0.173836  0.067291  0.736000
0.175476  0.067383  0.737000
0.176880  0.067383  0.737000
0.178768  0.067566  0.739000
0.180175  0.067566  0.739000
0.181829  0.067657  0.740000
0.183238  0.067657  0.740000
0.185396  0.067931  0.743000
0.186811  0.067931  0.743000
0.188227  0.067931  0.743000
0.190152  0.068114  0.745000
0.192086  0.068297  0.747000
0.193768  0.068389  0.748000
0.195714  0.068571  0.750000
-0.301947  0.081293  0.871000
-0.299598  0.081107  0.869000
-0.297943  0.081107  0.869000
-0.296288  0.081107  0.869000
-0.293954  0.080920  0.867000
-0.292303  0.080920  0.867000
-0.288975  0.080453  0.862000
-0.287333  0.080453  0.862000
-0.285691  0.080453  0.862000
-0.283390  0.080267  0.860000
-0.281752  0.080267  0.860000
-0.280114  0.080267  0.860000
-0.278476  0.080267  0.860000
-0.276838  0.080267  0.860000
-0.275200  0.080267  0.860000
-0.272926  0.080080  0.858000
-0.271291  0.080080  0.858000
-0.269657  0.080080  0.858000
-0.268023  0.080080  0.858000
-0.267010  0.080267  0.860000
-0.265371  0.080267  0.860000
-0.263733  0.080267  0.860000
-0.262095  0.080267  0.860000
-0.261063  0.080453  0.862000
-0.259421  0.080453  0.862000
-0.257779  0.080453  0.862000
-0.256137  0.080453  0.862000
-0.254495  0.080453  0.862000
-0.252853  0.080453  0.862000
-0.251211  0.080453  0.862000
-0.249570  0.080453  0.862000
-0.247928  0.080453  0.862000
-0.246286  0.080453  0.862000
-0.245495  0.080733  0.865000
-0.244411  0.080920  0.867000
-0.242760  0.080920  0.867000
-0.241665  0.081107  0.869000
-0.240010  0.081107  0.869000
-0.238903  0.081293  0.871000
-0.237244  0.081293  0.871000
-0.236126  0.081480  0.873000
-0.235000  0.081667  0.875000
-0.234133  0.081947  0.878000
-0.232461  0.081947  0.878000
-0.231314  0.082133  0.880000
-0.229638  0.082133  0.880000
-0.228480  0.082320  0.882000
-0.226800  0.082320  0.882000
-0.226396  0.082787  0.887000
-0.224707  0.082787  0.887000
-0.223520  0.082973  0.889000
-0.141589  0.088947  0.953000
-0.139333  0.088667  0.950000
-0.137234  0.088480  0.948000
-0.135000  0.088200  0.945000
-0.133200  0.088200  0.945000
-0.131400  0.088200  0.945000
-0.129600  0.088200  0.945000
-0.127394  0.087920  0.942000
-0.125600  0.087920  0.942000
-0.123543  0.087733  0.940000
-0.121752  0.087733  0.940000
-0.119962  0.087733  0.940000
-0.117794  0.087453  0.937000
-0.116010  0.087453  0.937000
-0.114225  0.087453  0.937000
-0.112200  0.087267  0.935000
-0.110419  0.087267  0.935000
-0.108638  0.087267  0.935000
-0.106857  0.087267  0.935000
-0.105076  0.087267  0.935000
-0.103295  0.087267  0.935000
-0.101514  0.087267  0.935000
-0.099733  0.087267  0.935000
-0.098162  0.087453  0.937000
-0.096377  0.087453  0.937000
-0.094592  0.087453  0.937000
-0.092808  0.087453  0.937000
-0.091023  0.087453  0.937000
-0.089238  0.087453  0.937000
-0.087453  0.087453  0.937000
-0.085669  0.087453  0.937000
-0.083884  0.087453  0.937000
-0.082362  0.087733  0.940000
-0.080571  0.087733  0.940000
-0.078949  0.087920  0.942000
-0.077154  0.087920  0.942000
-0.075600  0.088200  0.945000
-0.073800  0.088200  0.945000
-0.072229  0.088480  0.948000
-0.070423  0.088480  0.948000
-0.068762  0.088667  0.950000
-0.066952  0.088667  0.950000
-0.065349  0.088947  0.953000
-0.063533  0.088947  0.953000
-0.061848  0.089133  0.955000
-0.003326  0.081480  0.873000
-0.001663  0.081480  0.873000
0.000000  0.081480  0.873000
0.001667  0.081667  0.875000
0.003345  0.081947  0.878000
0.005017  0.081947  0.878000
0.006705  0.082133  0.880000
0.008400  0.082320  0.882000
0.010080  0.082320  0.882000
0.011760  0.082320  0.882000
0.013440  0.082320  0.882000
0.024886  0.081293  0.871000
0.026484  0.081107  0.869000
0.028074  0.080920  0.867000
0.029657  0.080733  0.865000
0.031305  0.080733  0.865000
0.032952  0.080733  0.865000
0.034480  0.080453  0.862000
0.036038  0.080267  0.860000
0.037676  0.080267  0.860000
0.038857  0.079333  0.850000
0.040381  0.079147  0.848000
0.041848  0.078867  0.845000
0.043354  0.078680  0.843000
0.044853  0.078493  0.841000
0.046345  0.078307  0.839000
0.047714  0.077933  0.835000
0.049187  0.077747  0.833000
0.050530  0.077373  0.829000
0.051857  0.077000  0.825000
0.053429  0.077000  0.825000
0.054867  0.076813  0.823000
0.056434  0.076813  0.823000
0.057861  0.076627  0.821000
0.059280  0.076440  0.819000
0.060543  0.076067  0.815000
0.062019  0.075973  0.814000
0.063413  0.075787  0.812000
0.064640  0.075413  0.808000
0.066179  0.075413  0.808000
0.067550  0.075227  0.806000
0.068914  0.075040  0.804000
0.070095  0.074667  0.800000
0.071440  0.074480  0.798000
0.072869  0.074387  0.797000
0.074387  0.074387  0.797000
0.075524  0.074013  0.793000
0.076840  0.073827  0.791000
0.078149  0.073640  0.789000
0.079651  0.073640  0.789000
0.080640  0.073173  0.784000
0.081924  0.072987  0.782000
0.083093  0.072707  0.779000
0.084577  0.072707  0.779000
0.086061  0.072707  0.779000
0.087320  0.072520  0.777000
0.088800  0.072520  0.777000
0.090280  0.072520  0.777000
0.091288  0.072147  0.773000
0.092400  0.071867  0.770000
0.093867  0.071867  0.770000
0.094962  0.071587  0.767000
0.096171  0.071400  0.765000
0.097373  0.071213  0.763000
0.098827  0.071213  0.763000
0.098966  0.070280  0.753000
0.100267  0.070187  0.752000
0.101699  0.070187  0.752000
0.103131  0.070187  0.752000
0.103869  0.069720  0.747000
0.105291  0.069720  0.747000
0.106429  0.069533  0.745000
0.107848  0.069533  0.745000
0.108973  0.069347  0.743000
0.110389  0.069347  0.743000
0.111202  0.068973  0.739000
0.112305  0.068787  0.737000
0.113554  0.068693  0.736000
0.114331  0.068320  0.732000
0.115726  0.068320  0.732000
0.116960  0.068227  0.731000
0.118352  0.068227  0.731000
0.119253  0.067947  0.728000
0.119646  0.067387  0.722000
0.120686  0.067200  0.720000
0.121549  0.066920  0.717000
0.122743  0.066827  0.716000
0.124107  0.066827  0.716000
0.125470  0.066827  0.716000
0.126834  0.066827  0.716000
0.127840  0.066640  0.714000
0.129200  0.066640  0.714000
0.130560  0.066640  0.714000
0.131920  0.066640  0.714000
0.133280  0.066640  0.714000
0.134640  0.066640  0.714000
0.136000  0.066640  0.714000
0.137745  0.066827  0.716000
0.139109  0.066827  0.716000
0.140472  0.066827  0.716000
0.142034  0.066920  0.717000
0.143800  0.067107  0.719000
0.145371  0.067200  0.720000
0.146743  0.067200  0.720000
0.148731  0.067480  0.723000
0.150109  0.067480  0.723000
0.151905  0.067667  0.725000
0.153497  0.067760  0.726000
0.155307  0.067947  0.728000
0.156693  0.067947  0.728000
0.158080  0.067947  0.728000
0.159686  0.068040  0.729000
0.161074  0.068040  0.729000
0.162909  0.068227  0.731000
0.164301  0.068227  0.731000
0.165693  0.068227  0.731000
0.167314  0.068320  0.732000
0.168709  0.068320  0.732000
0.170568  0.068507  0.734000
0.172434  0.068693  0.736000
0.173836  0.068693  0.736000
0.175476  0.068787  0.737000
0.176880  0.068787  0.737000
0.178768  0.068973  0.739000
0.180175  0.068973  0.739000
0.181829  0.069067  0.740000
0.183238  0.069067  0.740000
0.185396  0.069347  0.743000
0.186811  0.069347  0.743000
0.188227  0.069347  0.743000
0.190152  0.069533  0.745000
0.192086  0.069720  0.747000
0.193768  0.069813  0.748000
0.195714  0.070000  0.750000
-0.301947  0.082952  0.871000
-0.299598  0.082762  0.869000
-0.297943  0.082762  0.869000
-0.296288  0.082762  0.869000
-0.293954  0.082571  0.867000
-0.292303  0.082571  0.867000
-0.288975  0.082095  0.862000
-0.287333  0.082095  0.862000
-0.285691  0.082095  0.862000
-0.283390  0.081905  0.860000
-0.281752  0.081905  0.860000
-0.280114  0.081905  0.860000
-0.278476  0.081905  0.860000
-0.276838  0.081905  0.860000
-0.275200  0.081905  0.860000
-0.272926  0.081714  0.858000
-0.271291  0.081714  0.858000
-0.269657  0.081714  0.858000
-0.268023  0.081714  0.858000
-0.267010  0.081905  0.860000
-0.265371  0.081905  0.860000
-0.263733  0.081905  0.860000
-0.262705  0.082095  0.862000
-0.261063  0.082095  0.862000
-0.259421  0.082095  0.862000
-0.257779  0.082095  0.862000
-0.256137  0.082095  0.862000
-0.254495  0.082095  0.862000
-0.252853  0.082095  0.862000
-0.251211  0.082095  0.862000
-0.249570  0.082095  0.862000
-0.247928  0.082095  0.862000
-0.247143  0.082381  0.865000
-0.245495  0.082381  0.865000
-0.244411  0.082571  0.867000
-0.242760  0.082571  0.867000
-0.241665  0.082762  0.869000
-0.240562  0.082952  0.871000
-0.238903  0.082952  0.871000
-0.237789  0.083143  0.873000
-0.236667  0.083333  0.875000
-0.235000  0.083333  0.875000
-0.234133  0.083619  0.878000
-0.232461  0.083619  0.878000
-0.231314  0.083810  0.880000
-0.229638  0.083810  0.880000
-0.228480  0.084000  0.882000
-0.227314  0.084190  0.884000
-0.226396  0.084476  0.887000
-0.225213  0.084667  0.889000
-0.223520  0.084667  0.889000
-0.222326  0.084857  0.891000
-0.143404  0.090762  0.953000
-0.141589  0.090762  0.953000
-0.139333  0.090476  0.950000
-0.137234  0.090286  0.948000
-0.135429  0.090286  0.948000
-0.133623  0.090286  0.948000
-0.131400  0.090000  0.945000
-0.129600  0.090000  0.945000
-0.127800  0.090000  0.945000
-0.125600  0.089714  0.942000
-0.123806  0.089714  0.942000
-0.121752  0.089524  0.940000
-0.119962  0.089524  0.940000
-0.117794  0.089238  0.937000
-0.116010  0.089238  0.937000
-0.114225  0.089238  0.937000
-0.112200  0.089048  0.935000
-0.110419  0.089048  0.935000
-0.108638  0.089048  0.935000
-0.106857  0.089048  0.935000
-0.105076  0.089048  0.935000
-0.103295  0.089048  0.935000
-0.101514  0.089048  0.935000
-0.099733  0.089048  0.935000
-0.097952  0.089048  0.935000
-0.096377  0.089238  0.937000
-0.094592  0.089238  0.937000
-0.092808  0.089238  0.937000
-0.091023  0.089238  0.937000
-0.089238  0.089238  0.937000
-0.087453  0.089238  0.937000
-0.085669  0.089238  0.937000
-0.084152  0.089524  0.940000
-0.082362  0.089524  0.940000
-0.080571  0.089524  0.940000
-0.078949  0.089714  0.942000
-0.077154  0.089714  0.942000
-0.075600  0.090000  0.945000
-0.073800  0.090000  0.945000
-0.072229  0.090286  0.948000
-0.070423  0.090286  0.948000
-0.068762  0.090476  0.950000
-0.067305  0.090952  0.955000
-0.065486  0.090952  0.955000
-0.063867  0.091238  0.958000
-0.062236  0.091524  0.961000
-0.003326  0.083143  0.873000
-0.001663  0.083143  0.873000
0.000000  0.083143  0.873000
0.001667  0.083333  0.875000
0.003345  0.083619  0.878000
0.005017  0.083619  0.878000
0.006690  0.083619  0.878000
0.008381  0.083810  0.880000
0.010057  0.083810  0.880000
0.011733  0.083810  0.880000
0.013440  0.084000  0.882000
0.026362  0.082381  0.865000
0.028010  0.082381  0.865000
0.029657  0.082381  0.865000
0.031196  0.082095  0.862000
0.032838  0.082095  0.862000
0.034480  0.082095  0.862000
0.036038  0.081905  0.860000
0.037676  0.081905  0.860000
0.039131  0.081524  0.856000
0.040381  0.080762  0.848000
0.041848  0.080476  0.845000
0.043354  0.080286  0.843000
0.044960  0.080286  0.843000
0.046455  0.080095  0.841000
0.047829  0.079714  0.837000
0.049305  0.079524  0.835000
0.050651  0.079143  0.831000
0.051857  0.078571  0.825000
0.053429  0.078571  0.825000
0.054867  0.078381  0.823000
0.056434  0.078381  0.823000
0.057861  0.078190  0.821000
0.059280  0.078000  0.819000
0.060691  0.077810  0.817000
0.062019  0.077524  0.814000
0.063413  0.077333  0.812000
0.064640  0.076952  0.808000
0.066179  0.076952  0.808000
0.067550  0.076762  0.806000
0.068914  0.076571  0.804000
0.070095  0.076190  0.800000
0.071440  0.076000  0.798000
0.072869  0.075905  0.797000
0.074387  0.075905  0.797000
0.075524  0.075524  0.793000
0.076840  0.075333  0.791000
0.078149  0.075143  0.789000
0.079651  0.075143  0.789000
0.080640  0.074667  0.784000
0.081924  0.074476  0.782000
0.083093  0.074190  0.779000
0.084577  0.074190  0.779000
0.085840  0.074000  0.777000
0.087095  0.073810  0.775000
0.088571  0.073810  0.775000
0.090048  0.073810  0.775000
0.091288  0.073619  0.773000
0.092400  0.073333  0.770000
0.093867  0.073333  0.770000
0.094962  0.073048  0.767000
0.096171  0.072857  0.765000
0.097373  0.072667  0.763000
0.098827  0.072667  0.763000
0.098177  0.071143  0.747000
0.099600  0.071143  0.747000
0.101429  0.071429  0.750000
0.103131  0.071619  0.752000
0.103869  0.071143  0.747000
0.105291  0.071143  0.747000
0.106429  0.070952  0.745000
0.107848  0.070952  0.745000
0.109267  0.070952  0.745000
0.110389  0.070762  0.743000
0.111653  0.070667  0.742000
0.112762  0.070476  0.740000
0.113709  0.070190  0.737000
0.114331  0.069714  0.732000
0.115726  0.069714  0.732000
0.116960  0.069619  0.731000
0.118352  0.069619  0.731000
0.119417  0.069429  0.729000
0.120309  0.069143  0.726000
0.121021  0.068762  0.722000
0.121549  0.068286  0.717000
0.122743  0.068190  0.716000
0.124107  0.068190  0.716000
0.125470  0.068190  0.716000
0.126834  0.068190  0.716000
0.128198  0.068190  0.716000
0.129200  0.068000  0.714000
0.130560  0.068000  0.714000
0.131920  0.068000  0.714000
0.133280  0.068000  0.714000
0.134640  0.068000  0.714000
0.136000  0.068000  0.714000
0.137745  0.068190  0.716000
0.139109  0.068190  0.716000
0.140472  0.068190  0.716000
0.142034  0.068286  0.717000
0.143800  0.068476  0.719000
0.145371  0.068571  0.720000
0.146743  0.068571  0.720000
0.148731  0.068857  0.723000
0.150524  0.069048  0.725000
0.151905  0.069048  0.725000
0.153497  0.069143  0.726000
0.155307  0.069333  0.728000
0.156693  0.069333  0.728000
0.158297  0.069429  0.729000
0.159686  0.069429  0.729000
0.161516  0.069619  0.731000
0.162909  0.069619  0.731000
0.164301  0.069619  0.731000
0.165693  0.069619  0.731000
0.167314  0.069714  0.732000
0.168709  0.069714  0.732000
0.170568  0.069905  0.734000
0.172434  0.070095  0.736000
0.173836  0.070095  0.736000
0.175476  0.070190  0.737000
0.176880  0.070190  0.737000
0.178768  0.070381  0.739000
0.180175  0.070381  0.739000
0.181829  0.070476  0.740000
0.183733  0.070667  0.742000
0.185396  0.070762  0.743000
0.186811  0.070762  0.743000
0.188733  0.070952  0.745000
0.190152  0.070952  0.745000
0.192086  0.071143  0.747000
0.194286  0.071429  0.750000
0.195714  0.071429  0.750000
0.197669  0.071619  0.752000
-0.419179  0.093354  0.961000
-0.417349  0.093354  0.961000
-0.415518  0.093354  0.961000
-0.299598  0.084417  0.869000
-0.297943  0.084417  0.869000
-0.296288  0.084417  0.869000
-0.293954  0.084223  0.867000
-0.292303  0.084223  0.867000
-0.289981  0.084029  0.865000
-0.288333  0.084029  0.865000
-0.285691  0.083737  0.862000
-0.284050  0.083737  0.862000
-0.281752  0.083543  0.860000
-0.280114  0.083543  0.860000
-0.278476  0.083543  0.860000
-0.276838  0.083543  0.860000
-0.275200  0.083543  0.860000
-0.272926  0.083349  0.858000
-0.271291  0.083349  0.858000
-0.270286  0.083543  0.860000
-0.268648  0.083543  0.860000
-0.267010  0.083543  0.860000
-0.265989  0.083737  0.862000
-0.264347  0.083737  0.862000
-0.262705  0.083737  0.862000
-0.261063  0.083737  0.862000
-0.259421  0.083737  0.862000
-0.257779  0.083737  0.862000
-0.256137  0.083737  0.862000
-0.254495  0.083737  0.862000
-0.252853  0.083737  0.862000
-0.251211  0.083737  0.862000
-0.249570  0.083737  0.862000
-0.248790  0.084029  0.865000
-0.247143  0.084029  0.865000
-0.246063  0.084223  0.867000
-0.244411  0.084223  0.867000
-0.243320  0.084417  0.869000
-0.241665  0.084417  0.869000
-0.240562  0.084611  0.871000
-0.238903  0.084611  0.871000
-0.237789  0.084806  0.873000
-0.236667  0.085000  0.875000
-0.235806  0.085291  0.878000
-0.234133  0.085291  0.878000
-0.232461  0.085291  0.878000
-0.231314  0.085486  0.880000
-0.229638  0.085486  0.880000
-0.228480  0.085680  0.882000
-0.227314  0.085874  0.884000
-0.226396  0.086166  0.887000
-0.225213  0.086360  0.889000
-0.223520  0.086360  0.889000
-0.222326  0.086554  0.891000
-0.221371  0.086846  0.894000
-0.144762  0.092286  0.950000
-0.142952  0.092286  0.950000
-0.141589  0.092577  0.953000
-0.139773  0.092577  0.953000
-0.137524  0.092286  0.950000
-0.135429  0.092091  0.948000
-0.133623  0.092091  0.948000
-0.131400  0.091800  0.945000
-0.129600  0.091800  0.945000
-0.127394  0.091509  0.942000
-0.125600  0.091509  0.942000
-0.123806  0.091509  0.942000
-0.121752  0.091314  0.940000
-0.119579  0.091023  0.937000
-0.117794  0.091023  0.937000
-0.116010  0.091023  0.937000
-0.114225  0.091023  0.937000
-0.112200  0.090829  0.935000
-0.110419  0.090829  0.935000
-0.108638  0.090829  0.935000
-0.106857  0.090829  0.935000
-0.105076  0.090829  0.935000
-0.103295  0.090829  0.935000
-0.101514  0.090829  0.935000
-0.099733  0.090829  0.935000
-0.097952  0.090829  0.935000
-0.096377  0.091023  0.937000
-0.094592  0.091023  0.937000
-0.092808  0.091023  0.937000
-0.091023  0.091023  0.937000
-0.089238  0.091023  0.937000
-0.087733  0.091314  0.940000
-0.085943  0.091314  0.940000
-0.084152  0.091314  0.940000
-0.082537  0.091509  0.942000
-0.080743  0.091509  0.942000
-0.078949  0.091509  0.942000
-0.077400  0.091800  0.945000
-0.075600  0.091800  0.945000
-0.074034  0.092091  0.948000
-0.072229  0.092091  0.948000
-0.070571  0.092286  0.950000
-0.068762  0.092286  0.950000
-0.067305  0.092771  0.955000
-0.065486  0.092771  0.955000
-0.063867  0.093063  0.958000
-0.062236  0.093354  0.961000
-0.001663  0.084806  0.873000
0.000000  0.084806  0.873000
0.001672  0.085291  0.878000
0.003345  0.085291  0.878000
0.005017  0.085291  0.878000
0.006690  0.085291  0.878000
0.008381  0.085486  0.880000
0.010057  0.085486  0.880000
0.011733  0.085486  0.880000
0.024771  0.084223  0.867000
0.026362  0.084029  0.865000
0.028010  0.084029  0.865000
0.029657  0.084029  0.865000
0.031196  0.083737  0.862000
0.032838  0.083737  0.862000
0.034400  0.083543  0.860000
0.036038  0.083543  0.860000
0.037589  0.083349  0.858000
0.039131  0.083154  0.856000
0.040476  0.082571  0.850000
0.041848  0.082086  0.845000
0.043457  0.082086  0.845000
0.044747  0.081503  0.839000
0.046345  0.081503  0.839000
0.047829  0.081309  0.837000
0.049305  0.081114  0.835000
0.050651  0.080726  0.831000
0.052109  0.080531  0.829000
0.053429  0.080143  0.825000
0.054867  0.079949  0.823000
0.056297  0.079754  0.821000
0.057861  0.079754  0.821000
0.059280  0.079560  0.819000
0.060543  0.079171  0.815000
0.062019  0.079074  0.814000
0.063413  0.078880  0.812000
0.064640  0.078491  0.808000
0.066179  0.078491  0.808000
0.067550  0.078297  0.806000
0.068914  0.078103  0.804000
0.070095  0.077714  0.800000
0.071440  0.077520  0.798000
0.072869  0.077423  0.797000
0.074387  0.077423  0.797000
0.075524  0.077034  0.793000
0.076840  0.076840  0.791000
0.078149  0.076646  0.789000
0.079651  0.076646  0.789000
0.080640  0.076160  0.784000
0.081924  0.075966  0.782000
0.083200  0.075771  0.780000
0.084686  0.075771  0.780000
0.085840  0.075480  0.777000
0.087095  0.075286  0.775000
0.088571  0.075286  0.775000
0.090048  0.075286  0.775000
0.091288  0.075091  0.773000
0.092400  0.074800  0.770000
0.093867  0.074800  0.770000
0.095086  0.074606  0.768000
0.096549  0.074606  0.768000
0.097629  0.074314  0.765000
0.099086  0.074314  0.765000
0.097914  0.072371  0.745000
0.099333  0.072371  0.745000
0.101023  0.072566  0.747000
0.103131  0.073051  0.752000
0.103869  0.072566  0.747000
0.105291  0.072566  0.747000
0.106429  0.072371  0.745000
0.107848  0.072371  0.745000
0.109267  0.072371  0.745000
0.110389  0.072177  0.743000
0.111653  0.072080  0.742000
0.112762  0.071886  0.740000
0.113554  0.071497  0.736000
0.114331  0.071109  0.732000
0.115726  0.071109  0.732000
0.117120  0.071109  0.732000
0.118352  0.071011  0.731000
0.119253  0.070720  0.728000
0.120309  0.070526  0.726000
0.121524  0.070429  0.725000
0.122566  0.070234  0.723000
0.123257  0.069846  0.719000
0.124627  0.069846  0.719000
0.125646  0.069651  0.717000
0.127011  0.069651  0.717000
0.128198  0.069554  0.716000
0.129562  0.069554  0.716000
0.130926  0.069554  0.716000
0.131920  0.069360  0.714000
0.133280  0.069360  0.714000
0.135017  0.069554  0.716000
0.136381  0.069554  0.716000
0.137745  0.069554  0.716000
0.139109  0.069554  0.716000
0.140472  0.069554  0.716000
0.142034  0.069651  0.717000
0.143800  0.069846  0.719000
0.145371  0.069943  0.720000
0.146743  0.069943  0.720000
0.148731  0.070234  0.723000
0.150524  0.070429  0.725000
0.152114  0.070526  0.726000
0.153497  0.070526  0.726000
0.155307  0.070720  0.728000
0.156693  0.070720  0.728000
0.158297  0.070817  0.729000
0.159686  0.070817  0.729000
0.161516  0.071011  0.731000
0.162909  0.071011  0.731000
0.164301  0.071011  0.731000
0.165693  0.071011  0.731000
0.167314  0.071109  0.732000
0.168709  0.071109  0.732000
0.170568  0.071303  0.734000
0.172434  0.071497  0.736000
0.174072  0.071594  0.737000
0.175476  0.071594  0.737000
0.177360  0.071789  0.739000
0.178768  0.071789  0.739000
0.180175  0.071789  0.739000
0.181829  0.071886  0.740000
0.183733  0.072080  0.742000
0.185396  0.072177  0.743000
0.186811  0.072177  0.743000
0.188733  0.072371  0.745000
0.190152  0.072371  0.745000
0.192343  0.072663  0.748000
0.194286  0.072857  0.750000
0.196236  0.073051  0.752000
0.197669  0.073051  0.752000
-0.426880  0.095680  0.966000
-0.425040  0.095680  0.966000
-0.423200  0.095680  0.966000
-0.419179  0.095185  0.961000
-0.417349  0.095185  0.961000
-0.415518  0.095185  0.961000
-0.414549  0.095383  0.963000
-0.301253  0.086072  0.869000
-0.299598  0.086072  0.869000
-0.297943  0.086072  0.869000
-0.296288  0.086072  0.869000
-0.293954  0.085874  0.867000
-0.292303  0.085874  0.867000
-0.289981  0.085676  0.865000
-0.288333  0.085676  0.865000
-0.285691  0.085379  0.862000
-0.284050  0.085379  0.862000
-0.282408  0.085379  0.862000
-0.280114  0.085181  0.860000
-0.278476  0.085181  0.860000
-0.276838  0.085181  0.860000
-0.275200  0.085181  0.860000
-0.273562  0.085181  0.860000
-0.271924  0.085181  0.860000
-0.270286  0.085181  0.860000
-0.268648  0.085181  0.860000
-0.267010  0.085181  0.860000
-0.265989  0.085379  0.862000
-0.264347  0.085379  0.862000
-0.262705  0.085379  0.862000
-0.261063  0.085379  0.862000
-0.259421  0.085379  0.862000
-0.257779  0.085379  0.862000
-0.256137  0.085379  0.862000
-0.254495  0.085379  0.862000
-0.252853  0.085379  0.862000
-0.251211  0.085379  0.862000
-0.249570  0.085379  0.862000
-0.248790  0.085676  0.865000
-0.247143  0.085676  0.865000
-0.246063  0.085874  0.867000
-0.244411  0.085874  0.867000
-0.243320  0.086072  0.869000
-0.241665  0.086072  0.869000
-0.240562  0.086270  0.871000
-0.238903  0.086270  0.871000
-0.237789  0.086469  0.873000
-0.236667  0.086667  0.875000
-0.235806  0.086964  0.878000
-0.234133  0.086964  0.878000
-0.232990  0.087162  0.880000
-0.231314  0.087162  0.880000
-0.230160  0.087360  0.882000
-0.228998  0.087558  0.884000
-0.227314  0.087558  0.884000
-0.226396  0.087855  0.887000
-0.225213  0.088053  0.889000
-0.223520  0.088053  0.889000
-0.222326  0.088251  0.891000
-0.221371  0.088549  0.894000
-0.146263  0.093897  0.948000
-0.144457  0.093897  0.948000
-0.142952  0.094095  0.950000
-0.141143  0.094095  0.950000
-0.139773  0.094392  0.953000
-0.137524  0.094095  0.950000
-0.135429  0.093897  0.948000
-0.133623  0.093897  0.948000
-0.131400  0.093600  0.945000
-0.129600  0.093600  0.945000
-0.127394  0.093303  0.942000
-0.125600  0.093303  0.942000
-0.123806  0.093303  0.942000
-0.121752  0.093105  0.940000
-0.119579  0.092808  0.937000
-0.117794  0.092808  0.937000
-0.116010  0.092808  0.937000
-0.114225  0.092808  0.937000
-0.112200  0.092610  0.935000
-0.110419  0.092610  0.935000
-0.108870  0.092808  0.937000
-0.107086  0.092808  0.937000
-0.105076  0.092610  0.935000
-0.103295  0.092610  0.935000
-0.101514  0.092610  0.935000
-0.099733  0.092610  0.935000
-0.097952  0.092610  0.935000
-0.096377  0.092808  0.937000
-0.094592  0.092808  0.937000
-0.092808  0.092808  0.937000
-0.091023  0.092808  0.937000
-0.089524  0.093105  0.940000
-0.087733  0.093105  0.940000
-0.085943  0.093105  0.940000
-0.084331  0.093303  0.942000
-0.082537  0.093303  0.942000
-0.080743  0.093303  0.942000
-0.079200  0.093600  0.945000
-0.077400  0.093600  0.945000
-0.075600  0.093600  0.945000
-0.074034  0.093897  0.948000
-0.072229  0.093897  0.948000
-0.070571  0.094095  0.950000
-0.068979  0.094392  0.953000
-0.067164  0.094392  0.953000
-0.065486  0.094590  0.955000
-0.063867  0.094888  0.958000
-0.062236  0.095185  0.961000
0.006705  0.087162  0.880000
0.008381  0.087162  0.880000
0.010034  0.086964  0.878000
0.011707  0.086964  0.878000
0.024629  0.085379  0.862000
0.026270  0.085379  0.862000
0.027912  0.085379  0.862000
0.029657  0.085676  0.865000
0.031196  0.085379  0.862000
0.032838  0.085379  0.862000
0.034400  0.085181  0.860000
0.036038  0.085181  0.860000
0.037589  0.084983  0.858000
0.039040  0.084587  0.854000
0.040476  0.084190  0.850000
0.041996  0.083992  0.848000
0.043251  0.083299  0.841000
0.044747  0.083101  0.839000
0.046345  0.083101  0.839000
0.047829  0.082903  0.837000
0.049305  0.082705  0.835000
0.050651  0.082309  0.831000
0.052234  0.082309  0.831000
0.053429  0.081714  0.825000
0.054867  0.081516  0.823000
0.056297  0.081318  0.821000
0.057720  0.081120  0.819000
0.059135  0.080922  0.817000
0.060543  0.080724  0.815000
0.062019  0.080625  0.814000
0.063413  0.080427  0.812000
0.064640  0.080030  0.808000
0.066179  0.080030  0.808000
0.067550  0.079832  0.806000
0.068743  0.079436  0.802000
0.070095  0.079238  0.800000
0.071440  0.079040  0.798000
0.072869  0.078941  0.797000
0.074387  0.078941  0.797000
0.075524  0.078545  0.793000
0.076840  0.078347  0.791000
0.078149  0.078149  0.789000
0.079550  0.078050  0.788000
0.080640  0.077653  0.784000
0.081924  0.077455  0.782000
0.083200  0.077257  0.780000
0.084686  0.077257  0.780000
0.086061  0.077158  0.779000
0.087320  0.076960  0.777000
0.088800  0.076960  0.777000
0.090280  0.076960  0.777000
0.091524  0.076762  0.775000
0.092760  0.076564  0.773000
0.094110  0.076465  0.772000
0.095333  0.076267  0.770000
0.096549  0.076069  0.768000
0.097629  0.075771  0.765000
0.099086  0.075771  0.765000
0.097914  0.073790  0.745000
0.099333  0.073790  0.745000
0.101023  0.073989  0.747000
0.103131  0.074484  0.752000
0.104008  0.074088  0.748000
0.105432  0.074088  0.748000
0.106714  0.073989  0.747000
0.108137  0.073989  0.747000
0.109267  0.073790  0.745000
0.110686  0.073790  0.745000
0.111653  0.073493  0.742000
0.112762  0.073295  0.740000
0.113554  0.072899  0.736000
0.114331  0.072503  0.732000
0.115726  0.072503  0.732000
0.117120  0.072503  0.732000
0.118352  0.072404  0.731000
0.119253  0.072107  0.728000
0.120309  0.071909  0.726000
0.121524  0.071810  0.725000
0.122566  0.071611  0.723000
0.123429  0.071314  0.720000
0.124800  0.071314  0.720000
0.125996  0.071215  0.719000
0.127011  0.071017  0.717000
0.128198  0.070918  0.716000
0.129562  0.070918  0.716000
0.130926  0.070918  0.716000
0.131920  0.070720  0.714000
0.133280  0.070720  0.714000
0.135017  0.070918  0.716000
0.136381  0.070918  0.716000
0.137745  0.070918  0.716000
0.139109  0.070918  0.716000
0.140472  0.070918  0.716000
0.142034  0.071017  0.717000
0.143800  0.071215  0.719000
0.145371  0.071314  0.720000
0.146743  0.071314  0.720000
0.148731  0.071611  0.723000
0.150524  0.071810  0.725000
0.152114  0.071909  0.726000
0.153497  0.071909  0.726000
0.155307  0.072107  0.728000
0.156693  0.072107  0.728000
0.158297  0.072206  0.729000
0.159686  0.072206  0.729000
0.161516  0.072404  0.731000
0.162909  0.072404  0.731000
0.164301  0.072404  0.731000
0.165693  0.072404  0.731000
0.167314  0.072503  0.732000
0.168709  0.072503  0.732000
0.170568  0.072701  0.734000
0.172434  0.072899  0.736000
0.174072  0.072998  0.737000
0.175952  0.073196  0.739000
0.177360  0.073196  0.739000
0.178768  0.073196  0.739000
0.180419  0.073295  0.740000
0.182320  0.073493  0.742000
0.183733  0.073493  0.742000
0.185396  0.073592  0.743000
0.186811  0.073592  0.743000
0.188733  0.073790  0.745000
0.190152  0.073790  0.745000
0.192857  0.074286  0.750000
0.194286  0.074286  0.750000
0.195714  0.074286  0.750000
0.197143  0.074286  0.750000
-0.425170  0.096712  0.958000
-0.423345  0.096712  0.958000
-0.421520  0.096712  0.958000
-0.419695  0.096712  0.958000
-0.417870  0.096712  0.958000
-0.416046  0.096712  0.958000
-0.415518  0.097015  0.961000
-0.413688  0.097015  0.961000
-0.411857  0.097015  0.961000
-0.410027  0.097015  0.961000
-0.341314  0.091362  0.905000
-0.339590  0.091362  0.905000
-0.337867  0.091362  0.905000
-0.336143  0.091362  0.905000
-0.334419  0.091362  0.905000
-0.333798  0.091665  0.908000
-0.301253  0.087728  0.869000
-0.299598  0.087728  0.869000
-0.297943  0.087728  0.869000
-0.296288  0.087728  0.869000
-0.294632  0.087728  0.869000
-0.292303  0.087526  0.867000
-0.289981  0.087324  0.865000
-0.288333  0.087324  0.865000
-0.286686  0.087324  0.865000
-0.284050  0.087021  0.862000
-0.282408  0.087021  0.862000
-0.280766  0.087021  0.862000
-0.279124  0.087021  0.862000
-0.276838  0.086819  0.860000
-0.275200  0.086819  0.860000
-0.273562  0.086819  0.860000
-0.271924  0.086819  0.860000
-0.270286  0.086819  0.860000
-0.268648  0.086819  0.860000
