# .PCD v.5 - Point Cloud Data file format
FIELDS x y z 
SIZE 4 4 4
TYPE F F F
COUNT 1 1 1
WIDTH 1559
HEIGHT 1
POINTS 1559
DATA ascii
-0.255476  -0.054619  0.925000
-0.251520  -0.054147  0.917000
-0.249773  -0.054147  0.917000
-0.248027  -0.054147  0.917000
-0.246280  -0.054147  0.917000
-0.222667  -0.049305  0.835000
-0.221076  -0.049305  0.835000
-0.219486  -0.049305  0.835000
-0.217373  -0.049187  0.833000
-0.215787  -0.049187  0.833000
-0.214200  -0.049187  0.833000
-0.212103  -0.049069  0.831000
-0.210520  -0.049069  0.831000
-0.208434  -0.048950  0.829000
-0.206855  -0.048950  0.829000
-0.205276  -0.048950  0.829000
-0.203206  -0.048832  0.827000
-0.201630  -0.048832  0.827000
-0.199571  -0.048714  0.825000
-0.197520  -0.048596  0.823000
-0.195952  -0.048596  0.823000
-0.194385  -0.048596  0.823000
-0.192817  -0.048596  0.823000
-0.191250  -0.048596  0.823000
-0.189682  -0.048596  0.823000
-0.188114  -0.048596  0.823000
-0.186547  -0.048596  0.823000
-0.184979  -0.048596  0.823000
-0.183411  -0.048596  0.823000
-0.181844  -0.048596  0.823000
-0.180276  -0.048596  0.823000
-0.178709  -0.048596  0.823000
-0.177141  -0.048596  0.823000
-0.175573  -0.048596  0.823000
-0.174006  -0.048596  0.823000
-0.172438  -0.048596  0.823000
-0.170870  -0.048596  0.823000
-0.169714  -0.048714  0.825000
-0.168143  -0.048714  0.825000
-0.166975  -0.048832  0.827000
-0.165400  -0.048832  0.827000
-0.163825  -0.048832  0.827000
-0.162642  -0.048950  0.829000
-0.161063  -0.048950  0.829000
-0.159869  -0.049069  0.831000
-0.158286  -0.049069  0.831000
-0.157080  -0.049187  0.833000
-0.155493  -0.049187  0.833000
-0.154276  -0.049305  0.835000
-0.152686  -0.049305  0.835000
-0.151457  -0.049423  0.837000
-0.149863  -0.049423  0.837000
-0.148623  -0.049541  0.839000
-0.147025  -0.049541  0.839000
-0.145773  -0.049659  0.841000
-0.144514  -0.049777  0.843000
-0.143248  -0.049895  0.845000
-0.150411  -0.056863  0.963000
-0.147806  -0.056568  0.958000
-0.145524  -0.056390  0.955000
-0.143705  -0.056390  0.955000
-0.141886  -0.056390  0.955000
-0.140067  -0.056390  0.955000
-0.138248  -0.056390  0.955000
-0.136143  -0.056272  0.953000
-0.134328  -0.056272  0.953000
-0.130983  -0.055623  0.942000
-0.129189  -0.055623  0.942000
-0.127394  -0.055623  0.942000
-0.125600  -0.055623  0.942000
-0.123806  -0.055623  0.942000
-0.122011  -0.055623  0.942000
-0.120217  -0.055623  0.942000
-0.117166  -0.055032  0.932000
-0.115390  -0.055032  0.932000
-0.113371  -0.054914  0.930000
-0.111240  -0.054737  0.927000
-0.109474  -0.054737  0.927000
-0.108057  -0.054914  0.930000
-0.106286  -0.054914  0.930000
-0.104739  -0.055032  0.932000
-0.103295  -0.055210  0.935000
-0.101514  -0.055210  0.935000
-0.099733  -0.055210  0.935000
-0.097952  -0.055210  0.935000
-0.096377  -0.055328  0.937000
-0.094592  -0.055328  0.937000
-0.093105  -0.055505  0.940000
-0.091023  -0.055328  0.937000
-0.089238  -0.055328  0.937000
-0.087267  -0.055210  0.935000
-0.085486  -0.055210  0.935000
-0.083705  -0.055210  0.935000
-0.081661  -0.055032  0.932000
-0.079886  -0.055032  0.932000
-0.077943  -0.054914  0.930000
-0.076171  -0.054914  0.930000
-0.074560  -0.055032  0.932000
-0.073175  -0.055328  0.937000
-0.071771  -0.055623  0.942000
-0.070200  -0.055800  0.945000
-0.068400  -0.055800  0.945000
-0.066600  -0.055800  0.945000
-0.062880  -0.054147  0.917000
-0.061133  -0.054147  0.917000
-0.040524  -0.054619  0.925000
-0.038762  -0.054619  0.925000
-0.037080  -0.054737  0.927000
-0.035314  -0.054737  0.927000
-0.033549  -0.054737  0.927000
-0.031783  -0.054737  0.927000
-0.030114  -0.054914  0.930000
-0.028404  -0.055032  0.932000
-0.026629  -0.055032  0.932000
-0.024933  -0.055210  0.935000
-0.023400  -0.055800  0.945000
-0.021669  -0.055977  0.948000
-0.019905  -0.056095  0.950000
-0.018000  -0.055800  0.945000
-0.016200  -0.055800  0.945000
-0.014400  -0.055800  0.945000
-0.012533  -0.055505  0.940000
-0.010709  -0.055328  0.937000
-0.008924  -0.055328  0.937000
-0.007139  -0.055328  0.937000
-0.005354  -0.055328  0.937000
-0.003570  -0.055328  0.937000
-0.001794  -0.055623  0.942000
0.000000  -0.055977  0.948000
0.001815  -0.056272  0.953000
0.003630  -0.056272  0.953000
0.005457  -0.056390  0.955000
0.007223  -0.055977  0.948000
0.009000  -0.055800  0.945000
0.010766  -0.055623  0.942000
0.012533  -0.055505  0.940000
0.014324  -0.055505  0.940000
0.016114  -0.055505  0.940000
0.017905  -0.055505  0.940000
0.019695  -0.055505  0.940000
0.021486  -0.055505  0.940000
0.023648  -0.056390  0.955000
0.025467  -0.056390  0.955000
0.027286  -0.056390  0.955000
0.029105  -0.056390  0.955000
0.030924  -0.056390  0.955000
0.032743  -0.056390  0.955000
0.034562  -0.056390  0.955000
0.036381  -0.056390  0.955000
0.038320  -0.056568  0.958000
0.040145  -0.056568  0.958000
0.042189  -0.056863  0.963000
0.043794  -0.056568  0.958000
0.045619  -0.056568  0.958000
0.047048  -0.056095  0.950000
0.048754  -0.055977  0.948000
0.050240  -0.055623  0.942000
0.052034  -0.055623  0.942000
0.054286  -0.056095  0.950000
0.056095  -0.056095  0.950000
0.058088  -0.056272  0.953000
0.059211  -0.055623  0.942000
0.061006  -0.055623  0.942000
0.063200  -0.055977  0.948000
0.065006  -0.055977  0.948000
0.066811  -0.055977  0.948000
0.067821  -0.055328  0.937000
0.069606  -0.055328  0.937000
0.071390  -0.055328  0.937000
0.073566  -0.055623  0.942000
0.075360  -0.055623  0.942000
0.077154  -0.055623  0.942000
0.078949  -0.055623  0.942000
0.081000  -0.055800  0.945000
0.082800  -0.055800  0.945000
0.084869  -0.055977  0.948000
0.086857  -0.056095  0.950000
0.088480  -0.055977  0.948000
0.090000  -0.055800  0.945000
0.091800  -0.055800  0.945000
0.093600  -0.055800  0.945000
0.095703  -0.055977  0.948000
0.097714  -0.056095  0.950000
0.099314  -0.055977  0.948000
0.100800  -0.055800  0.945000
0.102600  -0.055800  0.945000
0.104952  -0.056095  0.950000
0.106762  -0.056095  0.950000
0.108571  -0.056095  0.950000
0.113371  -0.054914  0.930000
0.115143  -0.054914  0.930000
0.116914  -0.054914  0.930000
0.118941  -0.055032  0.932000
0.121105  -0.055210  0.935000
0.122886  -0.055210  0.935000
0.124267  -0.055032  0.932000
0.126042  -0.055032  0.932000
0.128229  -0.055210  0.935000
0.130288  -0.055328  0.937000
0.135032  -0.056568  0.958000
0.136857  -0.056568  0.958000
0.138682  -0.056568  0.958000
0.140507  -0.056568  0.958000
0.142777  -0.056745  0.961000
0.144608  -0.056745  0.961000
0.146438  -0.056745  0.961000
0.147806  -0.056568  0.958000
0.148850  -0.056272  0.953000
0.149874  -0.055977  0.948000
0.151680  -0.055977  0.948000
0.153486  -0.055977  0.948000
0.154309  -0.055623  0.942000
0.156103  -0.055623  0.942000
0.158400  -0.055800  0.945000
0.160200  -0.055800  0.945000
0.162857  -0.056095  0.950000
0.164667  -0.056095  0.950000
0.166476  -0.056095  0.950000
0.168286  -0.056095  0.950000
0.170095  -0.056095  0.950000
0.171905  -0.056095  0.950000
0.173714  -0.056095  0.950000
0.175524  -0.056095  0.950000
0.177333  -0.056095  0.950000
0.179143  -0.056095  0.950000
0.180952  -0.056095  0.950000
0.182762  -0.056095  0.950000
0.184183  -0.055977  0.948000
0.185989  -0.055977  0.948000
0.186210  -0.055505  0.940000
0.188000  -0.055505  0.940000
0.189790  -0.055505  0.940000
0.191581  -0.055505  0.940000
0.193783  -0.055623  0.942000
0.195577  -0.055623  0.942000
0.197371  -0.055623  0.942000
0.199800  -0.055800  0.945000
0.202667  -0.056095  0.950000
0.206198  -0.056568  0.958000
0.208023  -0.056568  0.958000
0.209848  -0.056568  0.958000
0.211010  -0.056390  0.955000
0.212383  -0.056272  0.953000
0.214198  -0.056272  0.953000
0.216467  -0.056390  0.955000
-0.545514  -0.055771  0.915000
-0.543771  -0.055771  0.915000
-0.540844  -0.055650  0.913000
-0.537333  -0.055467  0.910000
-0.535600  -0.055467  0.910000
-0.533867  -0.055467  0.910000
-0.533888  -0.055650  0.913000
-0.533314  -0.055771  0.915000
-0.531571  -0.055771  0.915000
-0.530987  -0.055893  0.917000
-0.529240  -0.055893  0.917000
-0.529219  -0.056076  0.920000
-0.528613  -0.056198  0.922000
-0.526857  -0.056198  0.922000
-0.523962  -0.056076  0.920000
-0.522210  -0.056076  0.920000
-0.520457  -0.056076  0.920000
-0.518705  -0.056076  0.920000
-0.516952  -0.056076  0.920000
-0.516320  -0.056198  0.922000
-0.514564  -0.056198  0.922000
-0.512808  -0.056198  0.922000
-0.511051  -0.056198  0.922000
-0.509295  -0.056198  0.922000
-0.509190  -0.056381  0.925000
-0.507429  -0.056381  0.925000
-0.504027  -0.056198  0.922000
-0.493010  -0.055162  0.905000
-0.491286  -0.055162  0.905000
-0.491185  -0.055345  0.908000
-0.489455  -0.055345  0.908000
-0.488800  -0.055467  0.910000
-0.487067  -0.055467  0.910000
-0.480533  -0.054918  0.901000
-0.478817  -0.054918  0.901000
-0.477101  -0.054918  0.901000
-0.476440  -0.055040  0.903000
-0.474720  -0.055040  0.903000
-0.479286  -0.055771  0.915000
-0.477543  -0.055771  0.915000
-0.475800  -0.055771  0.915000
-0.475093  -0.055893  0.917000
-0.473347  -0.055893  0.917000
-0.471600  -0.055893  0.917000
-0.469853  -0.055893  0.917000
-0.468107  -0.055893  0.917000
-0.466360  -0.055893  0.917000
-0.466133  -0.056076  0.920000
-0.461857  -0.055771  0.915000
-0.460114  -0.055771  0.915000
-0.458371  -0.055771  0.915000
-0.456629  -0.055771  0.915000
-0.454886  -0.055771  0.915000
-0.453143  -0.055771  0.915000
-0.451400  -0.055771  0.915000
-0.449657  -0.055771  0.915000
-0.447914  -0.055771  0.915000
-0.449585  -0.056198  0.922000
-0.449286  -0.056381  0.925000
-0.448491  -0.056503  0.927000
-0.448171  -0.056686  0.930000
-0.447360  -0.056808  0.932000
-0.445585  -0.056808  0.932000
-0.443810  -0.056808  0.932000
-0.445829  -0.057295  0.940000
-0.444038  -0.057295  0.940000
-0.435190  -0.056381  0.925000
-0.433429  -0.056381  0.925000
-0.430267  -0.056198  0.922000
-0.427581  -0.056076  0.920000
-0.423514  -0.055771  0.915000
-0.421771  -0.055771  0.915000
-0.420947  -0.055893  0.917000
-0.420571  -0.056076  0.920000
-0.419730  -0.056198  0.922000
-0.417973  -0.056198  0.922000
-0.419829  -0.056686  0.930000
-0.418057  -0.056686  0.930000
-0.417181  -0.056808  0.932000
-0.415406  -0.056808  0.932000
-0.412743  -0.056686  0.930000
-0.409646  -0.056503  0.927000
-0.405680  -0.056198  0.922000
-0.403048  -0.056076  0.920000
-0.401295  -0.056076  0.920000
-0.400411  -0.056198  0.922000
-0.398655  -0.056198  0.922000
-0.398190  -0.056381  0.925000
-0.396429  -0.056381  0.925000
-0.396800  -0.056686  0.930000
-0.395029  -0.056686  0.930000
-0.391989  -0.056503  0.927000
-0.389381  -0.056381  0.925000
-0.386362  -0.056198  0.922000
-0.384606  -0.056198  0.922000
-0.382850  -0.056198  0.922000
-0.380267  -0.056076  0.920000
-0.378514  -0.056076  0.920000
-0.377581  -0.056198  0.922000
-0.373787  -0.055893  0.917000
-0.372040  -0.055893  0.917000
-0.371505  -0.056076  0.920000
-0.371762  -0.056381  0.925000
-0.370000  -0.056381  0.925000
-0.369034  -0.056503  0.927000
-0.367269  -0.056503  0.927000
-0.366686  -0.056686  0.930000
-0.364914  -0.056686  0.930000
-0.363143  -0.056686  0.930000
-0.362149  -0.056808  0.932000
-0.360373  -0.056808  0.932000
-0.358598  -0.056808  0.932000
-0.356823  -0.056808  0.932000
-0.355048  -0.056808  0.932000
-0.353272  -0.056808  0.932000
-0.351497  -0.056808  0.932000
-0.344093  -0.055893  0.917000
-0.342347  -0.055893  0.917000
-0.343571  -0.056381  0.925000
-0.345505  -0.056990  0.935000
-0.343724  -0.056990  0.935000
-0.341943  -0.056990  0.935000
-0.339070  -0.056808  0.932000
-0.337295  -0.056808  0.932000
-0.334800  -0.056686  0.930000
-0.333029  -0.056686  0.930000
-0.330189  -0.056503  0.927000
-0.328423  -0.056503  0.927000
-0.324895  -0.056198  0.922000
-0.323139  -0.056198  0.922000
-0.321383  -0.056198  0.922000
-0.319627  -0.056198  0.922000
-0.327524  -0.057905  0.950000
-0.324000  -0.057600  0.945000
-0.322200  -0.057600  0.945000
-0.320400  -0.057600  0.945000
-0.315903  -0.057112  0.937000
-0.314118  -0.057112  0.937000
-0.311667  -0.056990  0.935000
-0.309886  -0.056990  0.935000
-0.307116  -0.056808  0.932000
-0.305341  -0.056808  0.932000
-0.303566  -0.056808  0.932000
-0.302762  -0.056990  0.935000
-0.300981  -0.056990  0.935000
-0.299200  -0.056990  0.935000
-0.297419  -0.056990  0.935000
-0.297219  -0.057295  0.940000
-0.294486  -0.057112  0.937000
-0.292701  -0.057112  0.937000
-0.290295  -0.056990  0.935000
-0.287589  -0.056808  0.932000
-0.285813  -0.056808  0.932000
-0.284038  -0.056808  0.932000
-0.282263  -0.056808  0.932000
-0.280488  -0.056808  0.932000
-0.279610  -0.056990  0.935000
-0.277829  -0.056990  0.935000
-0.276048  -0.056990  0.935000
-0.274267  -0.056990  0.935000
-0.272486  -0.056990  0.935000
-0.270705  -0.056990  0.935000
-0.268924  -0.056990  0.935000
-0.265714  -0.056686  0.930000
-0.263943  -0.056686  0.930000
-0.260762  -0.056381  0.925000
-0.259000  -0.056381  0.925000
-0.257238  -0.056381  0.925000
-0.255476  -0.056381  0.925000
-0.251520  -0.055893  0.917000
-0.249773  -0.055893  0.917000
-0.248027  -0.055893  0.917000
-0.246280  -0.055893  0.917000
-0.222133  -0.050773  0.833000
-0.220547  -0.050773  0.833000
-0.218960  -0.050773  0.833000
-0.217373  -0.050773  0.833000
-0.215787  -0.050773  0.833000
-0.214200  -0.050773  0.833000
-0.212103  -0.050651  0.831000
-0.210520  -0.050651  0.831000
-0.208937  -0.050651  0.831000
-0.206855  -0.050530  0.829000
-0.205276  -0.050530  0.829000
-0.203697  -0.050530  0.829000
-0.201630  -0.050408  0.827000
-0.200055  -0.050408  0.827000
-0.197520  -0.050164  0.823000
-0.195952  -0.050164  0.823000
-0.194385  -0.050164  0.823000
-0.192817  -0.050164  0.823000
-0.191250  -0.050164  0.823000
-0.189682  -0.050164  0.823000
-0.188114  -0.050164  0.823000
-0.186547  -0.050164  0.823000
-0.184979  -0.050164  0.823000
-0.183857  -0.050286  0.825000
-0.181844  -0.050164  0.823000
-0.180276  -0.050164  0.823000
-0.178709  -0.050164  0.823000
-0.177141  -0.050164  0.823000
-0.175573  -0.050164  0.823000
-0.174006  -0.050164  0.823000
-0.172438  -0.050164  0.823000
-0.170870  -0.050164  0.823000
-0.169714  -0.050286  0.825000
-0.168143  -0.050286  0.825000
-0.166975  -0.050408  0.827000
-0.165400  -0.050408  0.827000
-0.164221  -0.050530  0.829000
-0.162642  -0.050530  0.829000
-0.161063  -0.050530  0.829000
-0.159869  -0.050651  0.831000
-0.158667  -0.050773  0.833000
-0.157080  -0.050773  0.833000
-0.155493  -0.050773  0.833000
-0.154276  -0.050895  0.835000
-0.152686  -0.050895  0.835000
-0.151457  -0.051017  0.837000
-0.149863  -0.051017  0.837000
-0.148623  -0.051139  0.839000
-0.147375  -0.051261  0.841000
-0.145773  -0.051261  0.841000
-0.144857  -0.051505  0.845000
-0.143756  -0.051688  0.848000
-0.147806  -0.058392  0.958000
-0.145981  -0.058392  0.958000
-0.134629  -0.056686  0.930000
-0.132857  -0.056686  0.930000
-0.131086  -0.056686  0.930000
-0.128897  -0.056503  0.927000
-0.127131  -0.056503  0.927000
-0.125366  -0.056503  0.927000
-0.123600  -0.056503  0.927000
-0.121834  -0.056503  0.927000
-0.120069  -0.056503  0.927000
-0.118303  -0.056503  0.927000
-0.116537  -0.056503  0.927000
-0.114771  -0.056503  0.927000
-0.113006  -0.056503  0.927000
-0.111000  -0.056381  0.925000
-0.109238  -0.056381  0.925000
-0.107709  -0.056503  0.927000
-0.106286  -0.056686  0.930000
-0.104739  -0.056808  0.932000
-0.103295  -0.056990  0.935000
-0.101514  -0.056990  0.935000
-0.099733  -0.056990  0.935000
-0.097952  -0.056990  0.935000
-0.096377  -0.057112  0.937000
-0.094592  -0.057112  0.937000
-0.092808  -0.057112  0.937000
-0.090829  -0.056990  0.935000
-0.089048  -0.056990  0.935000
-0.086987  -0.056808  0.932000
-0.085211  -0.056808  0.932000
-0.083436  -0.056808  0.932000
-0.081661  -0.056808  0.932000
-0.079714  -0.056686  0.930000
-0.077943  -0.056686  0.930000
-0.076171  -0.056686  0.930000
-0.074400  -0.056686  0.930000
-0.073019  -0.056990  0.935000
-0.071771  -0.057417  0.942000
-0.070200  -0.057600  0.945000
-0.068400  -0.057600  0.945000
-0.064627  -0.055893  0.917000
-0.062880  -0.055893  0.917000
-0.061133  -0.055893  0.917000
-0.059387  -0.055893  0.917000
-0.044048  -0.056381  0.925000
-0.042286  -0.056381  0.925000
-0.040524  -0.056381  0.925000
-0.038762  -0.056381  0.925000
-0.037080  -0.056503  0.927000
-0.035314  -0.056503  0.927000
-0.033476  -0.056381  0.925000
-0.031714  -0.056381  0.925000
-0.030017  -0.056503  0.927000
-0.028251  -0.056503  0.927000
-0.026486  -0.056503  0.927000
-0.024800  -0.056686  0.930000
-0.023029  -0.056686  0.930000
-0.020960  -0.055893  0.917000
-0.019213  -0.055893  0.917000
-0.017524  -0.056076  0.920000
-0.015771  -0.056076  0.920000
-0.014248  -0.056990  0.935000
-0.012467  -0.056990  0.935000
-0.010686  -0.056990  0.935000
-0.008905  -0.056990  0.935000
-0.007124  -0.056990  0.935000
-0.005343  -0.056990  0.935000
-0.003570  -0.057112  0.937000
-0.001790  -0.057295  0.940000
0.000000  -0.057295  0.940000
0.001815  -0.058088  0.953000
0.003630  -0.058088  0.953000
0.005446  -0.058088  0.953000
0.007223  -0.057783  0.948000
0.008971  -0.057417  0.942000
0.010743  -0.057295  0.940000
0.012493  -0.057112  0.937000
0.014278  -0.057112  0.937000
0.016063  -0.057112  0.937000
0.017848  -0.057112  0.937000
0.019590  -0.056990  0.935000
0.021371  -0.056990  0.935000
0.023202  -0.057112  0.937000
0.025467  -0.058210  0.955000
0.027286  -0.058210  0.955000
0.029105  -0.058210  0.955000
0.030924  -0.058210  0.955000
0.032743  -0.058210  0.955000
0.034562  -0.058210  0.955000
0.036381  -0.058210  0.955000
0.038320  -0.058392  0.958000
0.040145  -0.058392  0.958000
0.041970  -0.058392  0.958000
0.043794  -0.058392  0.958000
0.045619  -0.058392  0.958000
0.046552  -0.057295  0.940000
0.048343  -0.057295  0.940000
0.050133  -0.057295  0.940000
0.051924  -0.057295  0.940000
0.054171  -0.057783  0.948000
0.055977  -0.057783  0.948000
0.057783  -0.057783  0.948000
0.059086  -0.057295  0.940000
0.060876  -0.057295  0.940000
0.063000  -0.057600  0.945000
0.063771  -0.056686  0.930000
0.065543  -0.056686  0.930000
0.067459  -0.056808  0.932000
0.069234  -0.056808  0.932000
0.071238  -0.056990  0.935000
0.073175  -0.057112  0.937000
0.075200  -0.057295  0.940000
0.076990  -0.057295  0.940000
0.078781  -0.057295  0.940000
0.080571  -0.057295  0.940000
0.082537  -0.057417  0.942000
0.084331  -0.057417  0.942000
0.086126  -0.057417  0.942000
0.087733  -0.057295  0.940000
0.089524  -0.057295  0.940000
0.091314  -0.057295  0.940000
0.093105  -0.057295  0.940000
0.095097  -0.057417  0.942000
0.096686  -0.057295  0.940000
0.098476  -0.057295  0.940000
0.100480  -0.057417  0.942000
0.102274  -0.057417  0.942000
0.104731  -0.057783  0.948000
0.106762  -0.057905  0.950000
0.108571  -0.057905  0.950000
0.108057  -0.056686  0.930000
0.109829  -0.056686  0.930000
0.111600  -0.056686  0.930000
0.113371  -0.056686  0.930000
0.115143  -0.056686  0.930000
0.116914  -0.056686  0.930000
0.118941  -0.056808  0.932000
0.121105  -0.056990  0.935000
0.122886  -0.056990  0.935000
0.124267  -0.056808  0.932000
0.126042  -0.056808  0.932000
0.128229  -0.056990  0.935000
0.130288  -0.057112  0.937000
0.132495  -0.057295  0.940000
0.136429  -0.058210  0.955000
0.138248  -0.058210  0.955000
0.140067  -0.058210  0.955000
0.142331  -0.058392  0.958000
0.144156  -0.058392  0.958000
0.145981  -0.058392  0.958000
0.147034  -0.058088  0.953000
0.148069  -0.057783  0.948000
0.149400  -0.057600  0.945000
0.150720  -0.057417  0.942000
0.152190  -0.057295  0.940000
0.153981  -0.057295  0.940000
0.155771  -0.057295  0.940000
0.157562  -0.057295  0.940000
0.158505  -0.056990  0.935000
0.160286  -0.056990  0.935000
0.164320  -0.057783  0.948000
0.166126  -0.057783  0.948000
0.167931  -0.057783  0.948000
0.169737  -0.057783  0.948000
0.171543  -0.057783  0.948000
0.173349  -0.057783  0.948000
0.175154  -0.057783  0.948000
0.176960  -0.057783  0.948000
0.178200  -0.057600  0.945000
0.180000  -0.057600  0.945000
0.181800  -0.057600  0.945000
0.182629  -0.057295  0.940000
0.183830  -0.057112  0.937000
0.185615  -0.057112  0.937000
0.187400  -0.057112  0.937000
0.189185  -0.057112  0.937000
0.191581  -0.057295  0.940000
0.193371  -0.057295  0.940000
0.194539  -0.057112  0.937000
0.196324  -0.057112  0.937000
0.198743  -0.057295  0.940000
0.200533  -0.057295  0.940000
0.206844  -0.058575  0.961000
0.208023  -0.058392  0.958000
0.205248  -0.057112  0.937000
0.207032  -0.057112  0.937000
0.209486  -0.057295  0.940000
0.214198  -0.058088  0.953000
0.216467  -0.058210  0.955000
-0.544322  -0.057389  0.913000
-0.542583  -0.057389  0.913000
-0.540844  -0.057389  0.913000
-0.537333  -0.057200  0.910000
-0.535600  -0.057200  0.910000
-0.533867  -0.057200  0.910000
-0.533888  -0.057389  0.913000
-0.532149  -0.057389  0.913000
-0.530410  -0.057389  0.913000
-0.528670  -0.057389  0.913000
-0.526931  -0.057389  0.913000
-0.523467  -0.057200  0.910000
-0.521733  -0.057200  0.910000
-0.517143  -0.056886  0.905000
-0.515419  -0.056886  0.905000
-0.518236  -0.057389  0.913000
-0.517629  -0.057514  0.915000
-0.514758  -0.057389  0.913000
-0.513019  -0.057389  0.913000
-0.511280  -0.057389  0.913000
-0.513448  -0.057829  0.920000
-0.510027  -0.057640  0.917000
-0.507171  -0.057514  0.915000
-0.502667  -0.057200  0.910000
-0.499832  -0.057074  0.908000
-0.498103  -0.057074  0.908000
-0.494733  -0.056886  0.905000
-0.493010  -0.056886  0.905000
-0.491286  -0.056886  0.905000
-0.489562  -0.056886  0.905000
-0.489455  -0.057074  0.908000
-0.487726  -0.057074  0.908000
-0.484390  -0.056886  0.905000
-0.480533  -0.056634  0.901000
-0.478817  -0.056634  0.901000
-0.477101  -0.056634  0.901000
-0.475385  -0.056634  0.901000
-0.474720  -0.056760  0.903000
-0.476667  -0.057200  0.910000
-0.474933  -0.057200  0.910000
-0.474760  -0.057389  0.913000
-0.473021  -0.057389  0.913000
-0.472314  -0.057514  0.915000
-0.470571  -0.057514  0.915000
-0.468829  -0.057514  0.915000
-0.467086  -0.057514  0.915000
-0.465343  -0.057514  0.915000
-0.463600  -0.057514  0.915000
-0.459333  -0.057200  0.910000
-0.457600  -0.057200  0.910000
-0.454865  -0.057074  0.908000
-0.453135  -0.057074  0.908000
-0.452400  -0.057200  0.910000
-0.450667  -0.057200  0.910000
-0.448933  -0.057200  0.910000
-0.447200  -0.057200  0.910000
-0.445467  -0.057200  0.910000
-0.445196  -0.057389  0.913000
-0.447829  -0.057954  0.922000
-0.446072  -0.057954  0.922000
-0.444316  -0.057954  0.922000
-0.442560  -0.057954  0.922000
-0.445585  -0.058583  0.932000
-0.443810  -0.058583  0.932000
-0.442034  -0.058583  0.932000
-0.432229  -0.057514  0.915000
-0.430486  -0.057514  0.915000
-0.429680  -0.057640  0.917000
-0.427933  -0.057640  0.917000
-0.426187  -0.057640  0.917000
-0.423514  -0.057514  0.915000
-0.421771  -0.057514  0.915000
-0.420029  -0.057514  0.915000
-0.418286  -0.057514  0.915000
-0.416543  -0.057514  0.915000
-0.414800  -0.057514  0.915000
-0.413960  -0.057640  0.917000
-0.408168  -0.057074  0.908000
-0.406438  -0.057074  0.908000
-0.412286  -0.058143  0.925000
-0.409192  -0.057954  0.922000
-0.405227  -0.057640  0.917000
-0.402600  -0.057514  0.915000
-0.400857  -0.057514  0.915000
-0.399114  -0.057514  0.915000
-0.398240  -0.057640  0.917000
-0.397790  -0.057829  0.920000
-0.396038  -0.057829  0.920000
-0.392143  -0.057514  0.915000
-0.390400  -0.057514  0.915000
-0.390781  -0.057829  0.920000
-0.389874  -0.057954  0.922000
-0.387276  -0.057829  0.920000
-0.384267  -0.057640  0.917000
-0.382520  -0.057640  0.917000
-0.380773  -0.057640  0.917000
-0.379027  -0.057640  0.917000
-0.377280  -0.057640  0.917000
-0.376762  -0.057829  0.920000
-0.373787  -0.057640  0.917000
-0.372040  -0.057640  0.917000
-0.370293  -0.057640  0.917000
-0.369752  -0.057829  0.920000
-0.368000  -0.057829  0.920000
-0.367044  -0.057954  0.922000
-0.366476  -0.058143  0.925000
-0.365503  -0.058269  0.927000
-0.363737  -0.058269  0.927000
-0.363143  -0.058457  0.930000
-0.361371  -0.058457  0.930000
-0.359600  -0.058457  0.930000
-0.357829  -0.058457  0.930000
-0.356823  -0.058583  0.932000
-0.355048  -0.058583  0.932000
-0.351377  -0.058269  0.927000
-0.345840  -0.057640  0.917000
-0.344093  -0.057640  0.917000
-0.342347  -0.057640  0.917000
-0.341714  -0.057829  0.920000
-0.339962  -0.057829  0.920000
-0.338210  -0.057829  0.920000
-0.340846  -0.058583  0.932000
-0.337251  -0.058269  0.927000
-0.335486  -0.058269  0.927000
-0.333720  -0.058269  0.927000
-0.331954  -0.058269  0.927000
-0.329476  -0.058143  0.925000
-0.327714  -0.058143  0.925000
-0.324895  -0.057954  0.922000
-0.323139  -0.057954  0.922000
-0.320686  -0.057829  0.920000
-0.318933  -0.057829  0.920000
-0.317181  -0.057829  0.920000
-0.315429  -0.057829  0.920000
-0.312653  -0.057640  0.917000
-0.310907  -0.057640  0.917000
-0.314217  -0.058583  0.932000
-0.312442  -0.058583  0.932000
-0.310667  -0.058583  0.932000
-0.308229  -0.058457  0.930000
-0.306457  -0.058457  0.930000
-0.304686  -0.058457  0.930000
-0.302914  -0.058457  0.930000
-0.301143  -0.058457  0.930000
-0.300981  -0.058771  0.935000
-0.296000  -0.058143  0.925000
-0.294238  -0.058143  0.925000
-0.292476  -0.058143  0.925000
-0.290714  -0.058143  0.925000
-0.290514  -0.058457  0.930000
-0.287811  -0.058269  0.927000
-0.286046  -0.058269  0.927000
-0.284280  -0.058269  0.927000
-0.282514  -0.058269  0.927000
-0.280749  -0.058269  0.927000
-0.279886  -0.058457  0.930000
-0.278114  -0.058457  0.930000
-0.276343  -0.058457  0.930000
-0.274571  -0.058457  0.930000
-0.273387  -0.058583  0.932000
-0.271611  -0.058583  0.932000
-0.270705  -0.058771  0.935000
-0.268061  -0.058583  0.932000
-0.265714  -0.058457  0.930000
-0.263091  -0.058269  0.927000
-0.260762  -0.058143  0.925000
-0.259000  -0.058143  0.925000
-0.255848  -0.057829  0.920000
-0.253267  -0.057640  0.917000
-0.251520  -0.057640  0.917000
-0.249773  -0.057640  0.917000
-0.248027  -0.057640  0.917000
-0.246280  -0.057640  0.917000
-0.222133  -0.052360  0.833000
-0.220547  -0.052360  0.833000
-0.218960  -0.052360  0.833000
-0.217895  -0.052486  0.835000
-0.215787  -0.052360  0.833000
-0.214200  -0.052360  0.833000
-0.212613  -0.052360  0.833000
-0.210520  -0.052234  0.831000
-0.208937  -0.052234  0.831000
-0.207354  -0.052234  0.831000
-0.205276  -0.052109  0.829000
-0.203697  -0.052109  0.829000
-0.202118  -0.052109  0.829000
-0.200055  -0.051983  0.827000
-0.198000  -0.051857  0.825000
-0.196429  -0.051857  0.825000
-0.194857  -0.051857  0.825000
-0.193286  -0.051857  0.825000
-0.191714  -0.051857  0.825000
-0.189682  -0.051731  0.823000
-0.188114  -0.051731  0.823000
-0.187000  -0.051857  0.825000
-0.185429  -0.051857  0.825000
-0.183857  -0.051857  0.825000
-0.181844  -0.051731  0.823000
-0.180276  -0.051731  0.823000
-0.178709  -0.051731  0.823000
-0.177141  -0.051731  0.823000
-0.175573  -0.051731  0.823000
-0.174006  -0.051731  0.823000
-0.172438  -0.051731  0.823000
-0.171286  -0.051857  0.825000
-0.169714  -0.051857  0.825000
-0.168550  -0.051983  0.827000
-0.166975  -0.051983  0.827000
-0.165800  -0.052109  0.829000
-0.164221  -0.052109  0.829000
-0.162642  -0.052109  0.829000
-0.161451  -0.052234  0.831000
-0.160253  -0.052360  0.833000
-0.158667  -0.052360  0.833000
-0.157080  -0.052360  0.833000
-0.155867  -0.052486  0.835000
-0.154276  -0.052486  0.835000
-0.152686  -0.052486  0.835000
-0.151457  -0.052611  0.837000
-0.150221  -0.052737  0.839000
-0.148623  -0.052737  0.839000
-0.147375  -0.052863  0.841000
-0.146120  -0.052989  0.843000
-0.144857  -0.053114  0.845000
-0.143756  -0.053303  0.848000
-0.142811  -0.053554  0.852000
-0.139943  -0.058457  0.930000
-0.136400  -0.058457  0.930000
-0.134629  -0.058457  0.930000
-0.132857  -0.058457  0.930000
-0.131086  -0.058457  0.930000
-0.128897  -0.058269  0.927000
-0.127131  -0.058269  0.927000
-0.125366  -0.058269  0.927000
-0.123600  -0.058269  0.927000
-0.121834  -0.058269  0.927000
-0.119810  -0.058143  0.925000
-0.117665  -0.057954  0.922000
-0.115909  -0.057954  0.922000
-0.114524  -0.058143  0.925000
-0.112396  -0.057954  0.922000
-0.110640  -0.057954  0.922000
-0.109238  -0.058143  0.925000
-0.107709  -0.058269  0.927000
-0.105943  -0.058269  0.927000
-0.104739  -0.058583  0.932000
-0.103295  -0.058771  0.935000
-0.101514  -0.058771  0.935000
-0.099733  -0.058771  0.935000
-0.097952  -0.058771  0.935000
-0.096377  -0.058897  0.937000
-0.091362  -0.056886  0.905000
-0.089638  -0.056886  0.905000
-0.089080  -0.057640  0.917000
-0.087333  -0.057640  0.917000
-0.086333  -0.058143  0.925000
-0.084571  -0.058143  0.925000
-0.082989  -0.058269  0.927000
-0.081223  -0.058269  0.927000
-0.079457  -0.058269  0.927000
-0.077691  -0.058269  0.927000
-0.075926  -0.058269  0.927000
-0.074160  -0.058269  0.927000
-0.072394  -0.058269  0.927000
-0.070629  -0.058269  0.927000
-0.067600  -0.057200  0.910000
-0.065867  -0.057200  0.910000
-0.064627  -0.057640  0.917000
-0.062880  -0.057640  0.917000
-0.061133  -0.057640  0.917000
-0.059387  -0.057640  0.917000
-0.057640  -0.057640  0.917000
-0.056198  -0.057954  0.922000
-0.043905  -0.057954  0.922000
-0.042149  -0.057954  0.922000
-0.040392  -0.057954  0.922000
-0.038762  -0.058143  0.925000
-0.037000  -0.058143  0.925000
-0.035238  -0.058143  0.925000
-0.033476  -0.058143  0.925000
-0.031714  -0.058143  0.925000
-0.029952  -0.058143  0.925000
-0.028190  -0.058143  0.925000
-0.026429  -0.058143  0.925000
-0.024533  -0.057829  0.920000
-0.022707  -0.057640  0.917000
-0.020960  -0.057640  0.917000
-0.019213  -0.057640  0.917000
-0.017524  -0.057829  0.920000
-0.015771  -0.057829  0.920000
-0.013973  -0.057640  0.917000
-0.012467  -0.058771  0.935000
-0.010686  -0.058771  0.935000
-0.008876  -0.058583  0.932000
-0.007101  -0.058583  0.932000
-0.005326  -0.058583  0.932000
-0.003562  -0.058771  0.935000
-0.001785  -0.058897  0.937000
0.000000  -0.058897  0.937000
0.001785  -0.058897  0.937000
0.003570  -0.058897  0.937000
0.005383  -0.059211  0.942000
0.007177  -0.059211  0.942000
0.008971  -0.059211  0.942000
0.010709  -0.058897  0.937000
0.012467  -0.058771  0.935000
0.014248  -0.058771  0.935000
0.016029  -0.058771  0.935000
0.017714  -0.058457  0.930000
0.019486  -0.058457  0.930000
0.021257  -0.058457  0.930000
0.023029  -0.058457  0.930000
0.024800  -0.058457  0.930000
0.026000  -0.057200  0.910000
0.027733  -0.057200  0.910000
0.029467  -0.057200  0.910000
0.031200  -0.057200  0.910000
0.032933  -0.057200  0.910000
0.034781  -0.057389  0.913000
0.036520  -0.057389  0.913000
0.038343  -0.057514  0.915000
0.040173  -0.057640  0.917000
0.041920  -0.057640  0.917000
0.043667  -0.057640  0.917000
0.046404  -0.058897  0.937000
0.048189  -0.058897  0.937000
0.049973  -0.058897  0.937000
0.051924  -0.059086  0.940000
0.054000  -0.059400  0.945000
0.055800  -0.059400  0.945000
0.057600  -0.059400  0.945000
0.058457  -0.058457  0.930000
0.060229  -0.058457  0.930000
0.061800  -0.058269  0.927000
0.063566  -0.058269  0.927000
0.065331  -0.058269  0.927000
0.067097  -0.058269  0.927000
0.069086  -0.058457  0.930000
0.071010  -0.058583  0.932000
0.073019  -0.058771  0.935000
0.074960  -0.058897  0.937000
0.076745  -0.058897  0.937000
0.078530  -0.058897  0.937000
0.080571  -0.059086  0.940000
0.082362  -0.059086  0.940000
0.083884  -0.058897  0.937000
0.085486  -0.058771  0.935000
0.086987  -0.058583  0.932000
0.088762  -0.058583  0.932000
0.091023  -0.058897  0.937000
0.092808  -0.058897  0.937000
0.094592  -0.058897  0.937000
0.096377  -0.058897  0.937000
0.098162  -0.058897  0.937000
0.100267  -0.059086  0.940000
0.102057  -0.059086  0.940000
0.104731  -0.059589  0.948000
0.106762  -0.059714  0.950000
0.108571  -0.059714  0.950000
0.108057  -0.058457  0.930000
0.109829  -0.058457  0.930000
0.113371  -0.058457  0.930000
0.115143  -0.058457  0.930000
0.116914  -0.058457  0.930000
0.118941  -0.058583  0.932000
0.121364  -0.058897  0.937000
0.122886  -0.058771  0.935000
0.124267  -0.058583  0.932000
0.126042  -0.058583  0.932000
0.128229  -0.058771  0.935000
0.130010  -0.058771  0.935000
0.132072  -0.058897  0.937000
0.136429  -0.060029  0.955000
0.138248  -0.060029  0.955000
0.140067  -0.060029  0.955000
0.142331  -0.060217  0.958000
0.144156  -0.060217  0.958000
0.145981  -0.060217  0.958000
0.146571  -0.059714  0.950000
0.148069  -0.059589  0.948000
0.148135  -0.058897  0.937000
0.149600  -0.058771  0.935000
0.151381  -0.058771  0.935000
0.153162  -0.058771  0.935000
0.155274  -0.058897  0.937000
0.157059  -0.058897  0.937000
0.157996  -0.058583  0.932000
0.159771  -0.058583  0.932000
0.164320  -0.059589  0.948000
0.166126  -0.059589  0.948000
0.167931  -0.059589  0.948000
0.169737  -0.059589  0.948000
0.171543  -0.059589  0.948000
0.173349  -0.059589  0.948000
0.175154  -0.059589  0.948000
0.176960  -0.059589  0.948000
0.178200  -0.059400  0.945000
0.180000  -0.059400  0.945000
0.181800  -0.059400  0.945000
0.181657  -0.058771  0.935000
0.182850  -0.058583  0.932000
0.184625  -0.058583  0.932000
0.187000  -0.058771  0.935000
0.188781  -0.058771  0.935000
0.190562  -0.058771  0.935000
0.192343  -0.058771  0.935000
0.194124  -0.058771  0.935000
0.196324  -0.058897  0.937000
0.198109  -0.058897  0.937000
0.199893  -0.058897  0.937000
0.201678  -0.058897  0.937000
0.210411  -0.060909  0.969000
0.204810  -0.058771  0.935000
0.206590  -0.058771  0.935000
0.207257  -0.058457  0.930000
0.209029  -0.058457  0.930000
0.210800  -0.058457  0.930000
-0.544322  -0.059128  0.913000
-0.532480  -0.058027  0.896000
-0.530773  -0.058027  0.896000
-0.534381  -0.058610  0.905000
-0.532657  -0.058610  0.905000
-0.530933  -0.058610  0.905000
-0.530964  -0.058804  0.908000
-0.529234  -0.058804  0.908000
-0.525762  -0.058610  0.905000
-0.524038  -0.058610  0.905000
-0.522314  -0.058610  0.905000
-0.520590  -0.058610  0.905000
-0.517720  -0.058480  0.903000
-0.516000  -0.058480  0.903000
-0.515419  -0.058610  0.905000
-0.515398  -0.058804  0.908000
-0.513669  -0.058804  0.908000
-0.511939  -0.058804  0.908000
-0.510210  -0.058804  0.908000
-0.508480  -0.058804  0.908000
-0.509541  -0.059128  0.913000
-0.507802  -0.059128  0.913000
-0.504400  -0.058933  0.910000
-0.501562  -0.058804  0.908000
-0.498181  -0.058610  0.905000
-0.496457  -0.058610  0.905000
-0.494733  -0.058610  0.905000
-0.491920  -0.058480  0.903000
-0.490200  -0.058480  0.903000
-0.488480  -0.058480  0.903000
-0.485682  -0.058350  0.901000
-0.483966  -0.058350  0.901000
-0.480644  -0.058156  0.898000
-0.478933  -0.058156  0.898000
-0.478817  -0.058350  0.901000
-0.477101  -0.058350  0.901000
-0.475385  -0.058350  0.901000
-0.474720  -0.058480  0.903000
-0.474048  -0.058610  0.905000
-0.473890  -0.058804  0.908000
-0.473200  -0.058933  0.910000
-0.473021  -0.059128  0.913000
-0.471282  -0.059128  0.913000
-0.469543  -0.059128  0.913000
-0.466267  -0.058933  0.910000
-0.464533  -0.058933  0.910000
-0.461783  -0.058804  0.908000
-0.460053  -0.058804  0.908000
-0.458324  -0.058804  0.908000
-0.456594  -0.058804  0.908000
-0.454865  -0.058804  0.908000
-0.453135  -0.058804  0.908000
-0.451406  -0.058804  0.908000
-0.450667  -0.058933  0.910000
-0.447947  -0.058804  0.908000
-0.446217  -0.058804  0.908000
-0.444488  -0.058804  0.908000
-0.442758  -0.058804  0.908000
-0.441029  -0.058804  0.908000
-0.436880  -0.058480  0.903000
-0.435160  -0.058480  0.903000
-0.433440  -0.058480  0.903000
-0.431720  -0.058480  0.903000
-0.430000  -0.058480  0.903000
-0.428280  -0.058480  0.903000
-0.427505  -0.058610  0.905000
-0.425781  -0.058610  0.905000
-0.427806  -0.059128  0.913000
-0.426067  -0.059128  0.913000
-0.424328  -0.059128  0.913000
-0.422589  -0.059128  0.913000
-0.420850  -0.059128  0.913000
-0.419110  -0.059128  0.913000
-0.417371  -0.059128  0.913000
-0.415632  -0.059128  0.913000
-0.412533  -0.058933  0.910000
-0.409897  -0.058804  0.908000
-0.405920  -0.058480  0.903000
-0.404200  -0.058480  0.903000
-0.402480  -0.058480  0.903000
-0.402979  -0.058804  0.908000
-0.401250  -0.058804  0.908000
-0.399520  -0.058804  0.908000
-0.397790  -0.058804  0.908000
-0.396933  -0.058933  0.910000
-0.396503  -0.059128  0.913000
-0.395629  -0.059257  0.915000
-0.393025  -0.059128  0.913000
-0.389143  -0.058804  0.908000
-0.387413  -0.058804  0.908000
-0.385684  -0.058804  0.908000
-0.386069  -0.059128  0.913000
-0.385171  -0.059257  0.915000
-0.383429  -0.059257  0.915000
-0.380851  -0.059128  0.913000
-0.379112  -0.059128  0.913000
-0.378200  -0.059257  0.915000
-0.376457  -0.059257  0.915000
-0.375533  -0.059387  0.917000
-0.372971  -0.059257  0.915000
-0.371229  -0.059257  0.915000
-0.369486  -0.059257  0.915000
-0.367743  -0.059257  0.915000
-0.366800  -0.059387  0.917000
-0.366248  -0.059581  0.920000
-0.365288  -0.059710  0.922000
-0.363531  -0.059710  0.922000
-0.361775  -0.059710  0.922000
-0.361971  -0.060034  0.927000
-0.360206  -0.060034  0.927000
-0.357667  -0.059905  0.925000
-0.353981  -0.059581  0.920000
-0.351080  -0.059387  0.917000
-0.349333  -0.059387  0.917000
-0.347587  -0.059387  0.917000
-0.345840  -0.059387  0.917000
-0.344093  -0.059387  0.917000
-0.342347  -0.059387  0.917000
-0.340600  -0.059387  0.917000
-0.338853  -0.059387  0.917000
-0.337107  -0.059387  0.917000
-0.336457  -0.059581  0.920000
-0.334705  -0.059581  0.920000
-0.333676  -0.059710  0.922000
-0.331920  -0.059710  0.922000
-0.331238  -0.059905  0.925000
-0.329476  -0.059905  0.925000
-0.326651  -0.059710  0.922000
-0.324190  -0.059581  0.920000
-0.322438  -0.059581  0.920000
-0.319640  -0.059387  0.917000
-0.317893  -0.059387  0.917000
-0.315457  -0.059257  0.915000
-0.313714  -0.059257  0.915000
-0.311971  -0.059257  0.915000
-0.310907  -0.059387  0.917000
-0.310171  -0.059581  0.920000
-0.310095  -0.059905  0.925000
-0.310667  -0.060358  0.932000
-0.308229  -0.060229  0.930000
-0.305469  -0.060034  0.927000
-0.303703  -0.060034  0.927000
-0.301937  -0.060034  0.927000
-0.301143  -0.060229  0.930000
-0.299371  -0.060229  0.930000
-0.292800  -0.059257  0.915000
-0.290421  -0.059128  0.913000
-0.288682  -0.059128  0.913000
-0.287571  -0.059257  0.915000
-0.286453  -0.059387  0.917000
-0.284707  -0.059387  0.917000
-0.283886  -0.059581  0.920000
-0.282747  -0.059710  0.922000
-0.280990  -0.059710  0.922000
-0.280143  -0.059905  0.925000
-0.278381  -0.059905  0.925000
-0.276619  -0.059905  0.925000
-0.274857  -0.059905  0.925000
-0.272210  -0.059710  0.922000
-0.270453  -0.059710  0.922000
-0.270154  -0.060034  0.927000
-0.269836  -0.060358  0.932000
-0.266623  -0.060034  0.927000
-0.264857  -0.060034  0.927000
-0.262524  -0.059905  0.925000
-0.260762  -0.059905  0.925000
-0.259000  -0.059905  0.925000
-0.255848  -0.059581  0.920000
-0.253267  -0.059387  0.917000
-0.250971  -0.059257  0.915000
-0.249229  -0.059257  0.915000
-0.247486  -0.059257  0.915000
-0.245743  -0.059257  0.915000
-0.244000  -0.059257  0.915000
-0.221076  -0.054076  0.835000
-0.219486  -0.054076  0.835000
-0.217895  -0.054076  0.835000
-0.216305  -0.054076  0.835000
-0.214200  -0.053947  0.833000
-0.212613  -0.053947  0.833000
-0.211027  -0.053947  0.833000
-0.208937  -0.053817  0.831000
-0.207354  -0.053817  0.831000
-0.205276  -0.053688  0.829000
-0.203697  -0.053688  0.829000
-0.202118  -0.053688  0.829000
-0.200055  -0.053558  0.827000
-0.198000  -0.053429  0.825000
-0.196429  -0.053429  0.825000
-0.194857  -0.053429  0.825000
-0.193286  -0.053429  0.825000
-0.191714  -0.053429  0.825000
-0.190143  -0.053429  0.825000
-0.188571  -0.053429  0.825000
-0.187000  -0.053429  0.825000
-0.185429  -0.053429  0.825000
-0.183857  -0.053429  0.825000
-0.182286  -0.053429  0.825000
-0.180276  -0.053299  0.823000
-0.178709  -0.053299  0.823000
-0.177571  -0.053429  0.825000
-0.176000  -0.053429  0.825000
-0.174429  -0.053429  0.825000
-0.172857  -0.053429  0.825000
-0.171286  -0.053429  0.825000
-0.170126  -0.053558  0.827000
-0.168550  -0.053558  0.827000
-0.166975  -0.053558  0.827000
-0.165800  -0.053688  0.829000
-0.164221  -0.053688  0.829000
-0.163034  -0.053817  0.831000
-0.161451  -0.053817  0.831000
-0.160253  -0.053947  0.833000
-0.158667  -0.053947  0.833000
-0.157457  -0.054076  0.835000
-0.155867  -0.054076  0.835000
-0.154276  -0.054076  0.835000
-0.153051  -0.054206  0.837000
-0.151457  -0.054206  0.837000
-0.150221  -0.054335  0.839000
-0.148623  -0.054335  0.839000
-0.147726  -0.054594  0.843000
-0.146467  -0.054724  0.845000
-0.144857  -0.054724  0.845000
-0.144095  -0.055048  0.850000
-0.142811  -0.055177  0.852000
-0.136400  -0.060229  0.930000
-0.134629  -0.060229  0.930000
-0.132857  -0.060229  0.930000
-0.131086  -0.060229  0.930000
-0.128897  -0.060034  0.927000
-0.127131  -0.060034  0.927000
-0.125366  -0.060034  0.927000
-0.122933  -0.059710  0.922000
-0.121177  -0.059710  0.922000
-0.119162  -0.059581  0.920000
-0.117410  -0.059581  0.920000
-0.115657  -0.059581  0.920000
-0.113905  -0.059581  0.920000
-0.112152  -0.059581  0.920000
-0.110400  -0.059581  0.920000
-0.108884  -0.059710  0.922000
-0.107476  -0.059905  0.925000
-0.105943  -0.060034  0.927000
-0.104739  -0.060358  0.932000
-0.103295  -0.060552  0.935000
-0.101514  -0.060552  0.935000
-0.096533  -0.058610  0.905000
-0.094810  -0.058610  0.905000
-0.093086  -0.058610  0.905000
-0.091362  -0.058610  0.905000
-0.089638  -0.058610  0.905000
-0.088400  -0.058933  0.910000
-0.087143  -0.059257  0.915000
-0.085587  -0.059387  0.917000
-0.084297  -0.059710  0.922000
-0.082810  -0.059905  0.925000
-0.081223  -0.060034  0.927000
-0.079457  -0.060034  0.927000
-0.077524  -0.059905  0.925000
-0.075762  -0.059905  0.925000
-0.074000  -0.059905  0.925000
-0.070910  -0.058804  0.908000
-0.069181  -0.058804  0.908000
-0.067600  -0.058933  0.910000
-0.065867  -0.058933  0.910000
-0.064133  -0.058933  0.910000
-0.062743  -0.059257  0.915000
-0.061000  -0.059257  0.915000
-0.059387  -0.059387  0.917000
-0.057640  -0.059387  0.917000
-0.055893  -0.059387  0.917000
-0.054147  -0.059387  0.917000
-0.045413  -0.059387  0.917000
-0.043667  -0.059387  0.917000
-0.042057  -0.059581  0.920000
-0.040305  -0.059581  0.920000
-0.038636  -0.059710  0.922000
-0.036880  -0.059710  0.922000
-0.035238  -0.059905  0.925000
-0.033368  -0.059710  0.922000
-0.031611  -0.059710  0.922000
-0.029855  -0.059710  0.922000
-0.028190  -0.059905  0.925000
-0.026343  -0.059710  0.922000
-0.024453  -0.059387  0.917000
-0.022707  -0.059387  0.917000
-0.020960  -0.059387  0.917000
-0.019213  -0.059387  0.917000
-0.017467  -0.059387  0.917000
-0.015720  -0.059387  0.917000
-0.013973  -0.059387  0.917000
-0.012227  -0.059387  0.917000
-0.010480  -0.059387  0.917000
-0.008667  -0.058933  0.910000
-0.006933  -0.058933  0.910000
-0.005314  -0.060229  0.930000
-0.003550  -0.060358  0.932000
-0.001785  -0.060682  0.937000
0.000000  -0.060682  0.937000
0.001785  -0.060682  0.937000
0.003493  -0.059387  0.917000
0.005240  -0.059387  0.917000
0.006987  -0.059387  0.917000
0.008876  -0.060358  0.932000
0.010651  -0.060358  0.932000
0.012360  -0.060034  0.927000
0.014126  -0.060034  0.927000
0.015891  -0.060034  0.927000
0.017657  -0.060034  0.927000
0.019423  -0.060034  0.927000
0.021189  -0.060034  0.927000
0.022954  -0.060034  0.927000
0.024720  -0.060034  0.927000
0.026000  -0.058933  0.910000
0.027733  -0.058933  0.910000
0.029467  -0.058933  0.910000
0.031200  -0.058933  0.910000
0.032933  -0.058933  0.910000
0.034781  -0.059128  0.913000
0.036520  -0.059128  0.913000
0.038343  -0.059257  0.915000
0.040173  -0.059387  0.917000
0.041920  -0.059387  0.917000
0.043667  -0.059387  0.917000
0.045562  -0.059581  0.920000
0.048086  -0.060552  0.935000
0.049973  -0.060682  0.937000
0.051924  -0.060876  0.940000
0.054000  -0.061200  0.945000
0.055800  -0.061200  0.945000
0.056076  -0.059581  0.920000
0.057829  -0.059581  0.920000
0.059387  -0.059387  0.917000
0.061133  -0.059387  0.917000
0.063086  -0.059581  0.920000
0.064838  -0.059581  0.920000
0.066952  -0.059905  0.925000
0.068714  -0.059905  0.925000
0.070629  -0.060034  0.927000
0.072629  -0.060229  0.930000
0.074400  -0.060229  0.930000
0.076171  -0.060229  0.930000
0.078110  -0.060358  0.932000
0.080143  -0.060552  0.935000
0.081924  -0.060552  0.935000
0.083705  -0.060552  0.935000
0.084754  -0.060034  0.927000
0.086520  -0.060034  0.927000
0.088286  -0.060034  0.927000
0.090537  -0.060358  0.932000
0.092312  -0.060358  0.932000
0.093886  -0.060229  0.930000
0.095349  -0.060034  0.927000
0.097114  -0.060034  0.927000
0.100267  -0.060876  0.940000
0.102057  -0.060876  0.940000
0.103848  -0.060876  0.940000
0.103390  -0.059581  0.920000
0.105143  -0.059581  0.920000
0.107128  -0.059710  0.922000
0.109474  -0.060034  0.927000
0.111240  -0.060034  0.927000
0.113371  -0.060229  0.930000
0.115143  -0.060229  0.930000
0.116914  -0.060229  0.930000
0.118941  -0.060358  0.932000
0.121364  -0.060682  0.937000
0.123543  -0.060876  0.940000
0.124267  -0.060358  0.932000
0.126042  -0.060358  0.932000
0.127817  -0.060358  0.932000
0.129592  -0.060358  0.932000
0.132072  -0.060682  0.937000
0.133857  -0.060682  0.937000
0.133181  -0.059581  0.920000
0.134933  -0.059581  0.920000
0.136686  -0.059581  0.920000
0.138438  -0.059581  0.920000
0.140190  -0.059581  0.920000
0.146571  -0.061524  0.950000
0.148381  -0.061524  0.950000
0.147029  -0.060229  0.930000
0.148800  -0.060229  0.930000
0.150571  -0.060229  0.930000
0.152670  -0.060358  0.932000
0.154446  -0.060358  0.932000
0.156221  -0.060358  0.932000
0.155962  -0.059581  0.920000
0.157714  -0.059581  0.920000
0.159467  -0.059581  0.920000
0.161219  -0.059581  0.920000
0.162971  -0.059581  0.920000
0.164724  -0.059581  0.920000
0.166838  -0.059710  0.922000
0.173349  -0.061394  0.948000
0.175154  -0.061394  0.948000
0.176960  -0.061394  0.948000
0.178766  -0.061394  0.948000
0.179429  -0.061006  0.942000
0.181223  -0.061006  0.942000
0.180686  -0.060229  0.930000
0.182457  -0.060229  0.930000
0.184229  -0.060229  0.930000
0.186400  -0.060358  0.932000
0.188175  -0.060358  0.932000
0.189950  -0.060358  0.932000
0.191726  -0.060358  0.932000
0.194124  -0.060552  0.935000
0.195905  -0.060552  0.935000
0.197686  -0.060552  0.935000
0.199893  -0.060682  0.937000
0.201678  -0.060682  0.937000
0.200857  -0.059905  0.925000
0.202619  -0.059905  0.925000
0.204381  -0.059905  0.925000
0.206589  -0.060034  0.927000
0.207230  -0.059710  0.922000
0.208987  -0.059710  0.922000
0.210743  -0.059710  0.922000
0.213651  -0.060034  0.927000
-0.530013  -0.059267  0.889000
-0.528320  -0.059267  0.889000
-0.526627  -0.059267  0.889000
-0.524933  -0.059267  0.889000
-0.530303  -0.060067  0.901000
-0.529760  -0.060200  0.903000
-0.528040  -0.060200  0.903000
-0.527486  -0.060333  0.905000
-0.525762  -0.060333  0.905000
-0.524038  -0.060333  0.905000
-0.521160  -0.060200  0.903000
-0.518290  -0.060067  0.901000
-0.514853  -0.059867  0.898000
-0.513143  -0.059867  0.898000
-0.514280  -0.060200  0.903000
-0.512560  -0.060200  0.903000
-0.510840  -0.060200  0.903000
-0.509120  -0.060200  0.903000
-0.507400  -0.060200  0.903000
-0.505680  -0.060200  0.903000
-0.506750  -0.060533  0.908000
-0.499459  -0.059867  0.898000
-0.497749  -0.059867  0.898000
-0.497695  -0.060067  0.901000
-0.495979  -0.060067  0.901000
-0.492617  -0.059867  0.898000
-0.490907  -0.059867  0.898000
-0.490830  -0.060067  0.901000
-0.489114  -0.060067  0.901000
-0.487398  -0.060067  0.901000
-0.484065  -0.059867  0.898000
-0.482354  -0.059867  0.898000
-0.480644  -0.059867  0.898000
-0.478933  -0.059867  0.898000
-0.477223  -0.059867  0.898000
-0.475512  -0.059867  0.898000
-0.473802  -0.059867  0.898000
-0.474720  -0.060200  0.903000
-0.474048  -0.060333  0.905000
-0.473890  -0.060533  0.908000
-0.473200  -0.060667  0.910000
-0.473021  -0.060867  0.913000
-0.471282  -0.060867  0.913000
-0.469543  -0.060867  0.913000
-0.466267  -0.060667  0.910000
-0.464533  -0.060667  0.910000
-0.461783  -0.060533  0.908000
-0.460053  -0.060533  0.908000
-0.456810  -0.060333  0.905000
-0.455086  -0.060333  0.905000
-0.453362  -0.060333  0.905000
-0.451638  -0.060333  0.905000
-0.451406  -0.060533  0.908000
-0.449676  -0.060533  0.908000
-0.447947  -0.060533  0.908000
-0.444743  -0.060333  0.905000
-0.442040  -0.060200  0.903000
-0.440320  -0.060200  0.903000
-0.438600  -0.060200  0.903000
-0.435912  -0.060067  0.901000
-0.434196  -0.060067  0.901000
