# .PCD v.5 - Point Cloud Data file format
FIELDS x y z 
SIZE 4 4 4
TYPE F F F
COUNT 1 1 1
WIDTH 1747
HEIGHT 1
POINTS 1747
DATA ascii
0.002869 0.315543 0.753000
0.004303 0.315543 0.753000
0.005752 0.316381 0.755000
0.007190 0.316381 0.755000
0.008629 0.316381 0.755000
0.010067 0.316381 0.755000
0.011581 0.318476 0.760000
0.013046 0.318895 0.761000
0.014533 0.319733 0.763000
0.015987 0.319733 0.763000
0.017394 0.318895 0.761000
0.018844 0.318895 0.761000
0.020293 0.318895 0.761000
0.027215 0.315124 0.752000
0.028648 0.315124 0.752000
0.030080 0.315124 0.752000
0.031554 0.315543 0.753000
0.032989 0.315543 0.753000
0.034423 0.315543 0.753000
0.035857 0.315543 0.753000
0.037291 0.315543 0.753000
0.038726 0.315543 0.753000
0.039893 0.313448 0.748000
0.041318 0.313448 0.748000
0.042686 0.313029 0.747000
0.044109 0.313029 0.747000
0.045531 0.313029 0.747000
0.047017 0.313448 0.748000
0.048442 0.313448 0.748000
0.049867 0.313448 0.748000
0.051291 0.313448 0.748000
0.052998 0.315124 0.752000
0.054720 0.316800 0.756000
0.056309 0.317638 0.758000
0.057981 0.318895 0.761000
0.059899 0.321410 0.767000
0.061360 0.321410 0.767000
0.062657 0.320571 0.765000
0.064114 0.320571 0.765000
0.066000 0.322667 0.770000
0.067291 0.321829 0.768000
0.068754 0.321829 0.768000
0.069943 0.320571 0.765000
0.071213 0.319733 0.763000
0.072476 0.318895 0.761000
0.073829 0.318476 0.760000
0.074880 0.316800 0.756000
0.076320 0.316800 0.756000
0.077760 0.316800 0.756000
0.079410 0.317638 0.758000
0.081067 0.318476 0.760000
0.082840 0.319733 0.763000
0.084514 0.320571 0.765000
0.086309 0.321829 0.768000
0.088000 0.322667 0.770000
0.089234 0.321829 0.768000
0.090579 0.321410 0.767000
0.092040 0.321410 0.767000
0.093501 0.321410 0.767000
0.094962 0.321410 0.767000
0.096423 0.321410 0.767000
0.098011 0.321829 0.768000
0.099474 0.321829 0.768000
0.100937 0.321829 0.768000
0.099733 0.313448 0.748000
0.101158 0.313448 0.748000
0.102857 0.314286 0.750000
0.104286 0.314286 0.750000
0.105714 0.314286 0.750000
0.107571 0.315543 0.753000
0.109295 0.316381 0.755000
0.110440 0.315543 0.753000
0.111874 0.315543 0.753000
0.113309 0.315543 0.753000
0.114743 0.315543 0.753000
0.116177 0.315543 0.753000
0.117455 0.315124 0.752000
0.118888 0.315124 0.752000
0.120320 0.315124 0.752000
0.121914 0.315543 0.753000
0.123676 0.316381 0.755000
0.125280 0.316800 0.756000
0.126720 0.316800 0.756000
0.128160 0.316800 0.756000
0.129600 0.316800 0.756000
0.131040 0.316800 0.756000
0.132305 0.316381 0.755000
0.133743 0.316381 0.755000
0.135181 0.316381 0.755000
0.136619 0.316381 0.755000
0.138057 0.316381 0.755000
0.139126 0.315543 0.753000
0.140560 0.315543 0.753000
0.142371 0.316381 0.755000
0.143810 0.316381 0.755000
0.145248 0.316381 0.755000
0.146297 0.315543 0.753000
0.147535 0.315124 0.752000
0.148968 0.315124 0.752000
0.150400 0.315124 0.752000
0.151429 0.314286 0.750000
0.152857 0.314286 0.750000
0.154286 0.314286 0.750000
0.155714 0.314286 0.750000
0.157562 0.315124 0.752000
0.159629 0.316381 0.755000
0.161067 0.316381 0.755000
0.163150 0.317638 0.758000
0.165029 0.318476 0.760000
0.166695 0.318895 0.761000
0.168145 0.318895 0.761000
0.170040 0.319733 0.763000
0.172617 0.321829 0.768000
0.174533 0.322667 0.770000
0.176000 0.322667 0.770000
0.177467 0.322667 0.770000
0.174983 0.315543 0.753000
0.176183 0.315124 0.752000
0.177615 0.315124 0.752000
0.179048 0.315124 0.752000
0.180720 0.315543 0.753000
0.182638 0.316381 0.755000
0.183345 0.315124 0.752000
0.184777 0.315124 0.752000
0.186210 0.315124 0.752000
0.187642 0.315124 0.752000
0.189829 0.316381 0.755000
0.191267 0.316381 0.755000
0.192705 0.316381 0.755000
0.193629 0.315543 0.753000
0.195063 0.315543 0.753000
0.197280 0.316800 0.756000
0.198720 0.316800 0.756000
0.200690 0.317638 0.758000
0.200000 0.314286 0.750000
0.201429 0.314286 0.750000
0.202316 0.313448 0.748000
0.203741 0.313448 0.748000
0.205714 0.314286 0.750000
0.207143 0.314286 0.750000
0.208571 0.314286 0.750000
0.210560 0.315124 0.752000
0.212274 0.315543 0.753000
0.213709 0.315543 0.753000
0.215714 0.316381 0.755000
0.217440 0.316800 0.756000
0.219459 0.317638 0.758000
0.221486 0.318476 0.760000
0.223227 0.318895 0.761000
0.224676 0.318895 0.761000
0.225829 0.318476 0.760000
0.227276 0.318476 0.760000
0.227520 0.316800 0.756000
0.228960 0.316800 0.756000
0.232533 0.319733 0.763000
0.234600 0.320571 0.765000
0.236057 0.320571 0.765000
0.237514 0.320571 0.765000
0.239596 0.321410 0.767000
0.241057 0.321410 0.767000
0.242834 0.321829 0.768000
0.244297 0.321829 0.768000
0.246400 0.322667 0.770000
0.248510 0.323505 0.772000
0.250952 0.324762 0.775000
0.252429 0.324762 0.775000
0.245714 0.314286 0.750000
0.247143 0.314286 0.750000
0.248571 0.314286 0.750000
0.250000 0.314286 0.750000
0.252434 0.315543 0.753000
0.254880 0.316800 0.756000
0.257676 0.318476 0.760000
0.259124 0.318476 0.760000
0.260571 0.318476 0.760000
0.262364 0.318895 0.761000
0.263813 0.318895 0.761000
0.265263 0.318895 0.761000
0.266712 0.318895 0.761000
0.268162 0.318895 0.761000
0.269611 0.318895 0.761000
0.271061 0.318895 0.761000
0.273227 0.319733 0.763000
0.274680 0.319733 0.763000
0.273600 0.316800 0.756000
0.275040 0.316800 0.756000
0.276480 0.316800 0.756000
0.277920 0.316800 0.756000
0.279360 0.316800 0.756000
0.280429 0.316381 0.755000
0.281867 0.316381 0.755000
0.282554 0.315543 0.753000
0.283989 0.315543 0.753000
0.286181 0.316381 0.755000
0.288000 0.316800 0.756000
0.289440 0.316800 0.756000
0.292804 0.318895 0.761000
0.294253 0.318895 0.761000
0.296480 0.319733 0.763000
0.297933 0.319733 0.763000
0.299387 0.319733 0.763000
0.302417 0.321410 0.767000
0.303878 0.321410 0.767000
0.306533 0.322667 0.770000
0.308800 0.323505 0.772000
0.310672 0.323924 0.773000
0.312145 0.323924 0.773000
0.313617 0.323924 0.773000
0.313867 0.322667 0.770000
0.315333 0.322667 0.770000
0.307749 0.313448 0.748000
0.309173 0.313448 0.748000
0.312259 0.315124 0.752000
0.319949 0.321410 0.767000
0.315124 0.315124 0.752000
0.316556 0.315124 0.752000
0.319257 0.316381 0.755000
0.324093 0.319733 0.763000
0.327253 0.321410 0.767000
0.328714 0.321410 0.767000
0.330175 0.321410 0.767000
0.330771 0.320571 0.765000
0.332229 0.320571 0.765000
0.334558 0.321410 0.767000
0.332076 0.317638 0.758000
0.333520 0.317638 0.758000
0.334964 0.317638 0.758000
0.336408 0.317638 0.758000
0.337851 0.317638 0.758000
0.340190 0.318476 0.760000
0.341638 0.318476 0.760000
0.343537 0.318895 0.761000
0.344987 0.318895 0.761000
0.346436 0.318895 0.761000
0.347886 0.318895 0.761000
0.349335 0.318895 0.761000
0.351707 0.319733 0.763000
0.354086 0.320571 0.765000
0.356472 0.321410 0.767000
0.357000 0.320571 0.765000
0.358457 0.320571 0.765000
0.360855 0.321410 0.767000
0.362789 0.321829 0.768000
0.364251 0.321829 0.768000
0.360952 0.317638 0.758000
0.361440 0.316800 0.756000
0.361440 0.315543 0.753000
0.362874 0.315543 0.753000
0.376888 0.326438 0.779000
0.378371 0.326438 0.779000
0.369615 0.317638 0.758000
0.371059 0.317638 0.758000
0.373486 0.318476 0.760000
0.375427 0.318895 0.761000
0.377867 0.319733 0.763000
0.380314 0.320571 0.765000
0.381771 0.320571 0.765000
0.384230 0.321410 0.767000
0.386194 0.321829 0.768000
0.389676 0.323505 0.772000
0.391653 0.323924 0.773000
0.392617 0.323505 0.772000
0.392046 0.321829 0.768000
0.391971 0.320571 0.765000
0.392400 0.319733 0.763000
0.393853 0.319733 0.763000
0.395307 0.319733 0.763000
0.396760 0.319733 0.763000
0.398213 0.319733 0.763000
0.400714 0.320571 0.765000
0.403223 0.321410 0.767000
0.404684 0.321410 0.767000
0.406674 0.321829 0.768000
0.408137 0.321829 0.768000
0.409600 0.321829 0.768000
0.411063 0.321829 0.768000
0.413600 0.322667 0.770000
0.415067 0.322667 0.770000
0.416533 0.322667 0.770000
0.418000 0.322667 0.770000
0.419467 0.322667 0.770000
0.420933 0.322667 0.770000
0.422400 0.322667 0.770000
0.423867 0.322667 0.770000
0.425333 0.322667 0.770000
0.426800 0.322667 0.770000
0.418255 0.315124 0.752000
0.418571 0.314286 0.750000
0.420000 0.314286 0.750000
0.421429 0.314286 0.750000
0.422857 0.314286 0.750000
0.427114 0.316381 0.755000
0.428552 0.316381 0.755000
0.431699 0.317638 0.758000
0.445714 0.326857 0.780000
0.447200 0.326857 0.780000
0.444084 0.323505 0.772000
0.444400 0.322667 0.770000
0.445867 0.322667 0.770000
0.450238 0.324762 0.775000
0.451714 0.324762 0.775000
0.457284 0.327695 0.782000
0.442933 0.316381 0.755000
0.443194 0.315543 0.753000
0.444629 0.315543 0.753000
0.446063 0.315543 0.753000
0.448686 0.316381 0.755000
0.450720 0.316800 0.756000
0.452160 0.316800 0.756000
0.453000 0.316381 0.755000
0.454438 0.316381 0.755000
0.455876 0.316381 0.755000
-0.412080 0.300560 0.714000
-0.410720 0.300560 0.714000
-0.409360 0.300560 0.714000
-0.397059 0.308979 0.734000
-0.395661 0.308979 0.734000
-0.395337 0.309821 0.736000
-0.394470 0.310242 0.737000
-0.394133 0.311084 0.739000
-0.391318 0.311084 0.739000
-0.388855 0.310242 0.737000
-0.387451 0.310242 0.737000
-0.386048 0.310242 0.737000
-0.378903 0.305611 0.726000
-0.378560 0.306453 0.728000
-0.377173 0.306453 0.728000
-0.371141 0.302665 0.719000
-0.369771 0.302665 0.719000
-0.368402 0.302665 0.719000
-0.367032 0.302665 0.719000
-0.368714 0.305190 0.725000
-0.367840 0.305611 0.726000
-0.366457 0.305611 0.726000
-0.365074 0.305611 0.726000
-0.363691 0.305611 0.726000
-0.364309 0.316977 0.753000
-0.362874 0.316977 0.753000
-0.361440 0.316977 0.753000
-0.360006 0.316977 0.753000
-0.359524 0.317819 0.755000
-0.359509 0.319082 0.758000
-0.343893 0.306453 0.728000
-0.342507 0.306453 0.728000
-0.341120 0.306453 0.728000
-0.343933 0.310242 0.737000
-0.342530 0.310242 0.737000
-0.343440 0.312347 0.742000
-0.342027 0.312347 0.742000
-0.341072 0.312768 0.743000
-0.339657 0.312768 0.743000
-0.338242 0.312768 0.743000
-0.336827 0.312768 0.743000
-0.336314 0.313610 0.745000
-0.333996 0.312768 0.743000
-0.332581 0.312768 0.743000
-0.332949 0.314451 0.747000
-0.331526 0.314451 0.747000
-0.330103 0.314451 0.747000
-0.328680 0.314451 0.747000
-0.327695 0.314872 0.748000
-0.327143 0.315714 0.750000
-0.324846 0.314872 0.748000
-0.322989 0.314451 0.747000
-0.321566 0.314451 0.747000
-0.319286 0.313610 0.745000
-0.317013 0.312768 0.743000
-0.315598 0.312768 0.743000
-0.314183 0.312768 0.743000
-0.311084 0.311084 0.739000
-0.308838 0.310242 0.737000
-0.307434 0.310242 0.737000
-0.306030 0.310242 0.737000
-0.304627 0.310242 0.737000
-0.302811 0.309821 0.736000
-0.301410 0.309821 0.736000
-0.300008 0.309821 0.736000
-0.298606 0.309821 0.736000
-0.297608 0.310242 0.737000
-0.294998 0.308979 0.734000
-0.293600 0.308979 0.734000
-0.292202 0.308979 0.734000
-0.291596 0.309821 0.736000
-0.291771 0.311505 0.740000
-0.291147 0.312347 0.742000
-0.290124 0.312768 0.743000
-0.288709 0.312768 0.743000
-0.286907 0.312347 0.742000
-0.285493 0.312347 0.742000
-0.284463 0.312768 0.743000
-0.280762 0.310242 0.737000
-0.279358 0.310242 0.737000
-0.280217 0.312768 0.743000
-0.278802 0.312768 0.743000
-0.277013 0.312347 0.742000
-0.275600 0.312347 0.742000
-0.274187 0.312347 0.742000
-0.272773 0.312347 0.742000
-0.271726 0.312768 0.743000
-0.271038 0.313610 0.745000
-0.270343 0.314451 0.747000
-0.268920 0.314451 0.747000
-0.267855 0.314872 0.748000
-0.266430 0.314872 0.748000
-0.265006 0.314872 0.748000
-0.263581 0.314872 0.748000
-0.261105 0.313610 0.745000
-0.259686 0.313610 0.745000
-0.257573 0.312768 0.743000
-0.256158 0.312768 0.743000
-0.254400 0.312347 0.742000
-0.252987 0.312347 0.742000
-0.251912 0.312768 0.743000
-0.251171 0.313610 0.745000
-0.249752 0.313610 0.745000
-0.248333 0.313610 0.745000
-0.246914 0.313610 0.745000
-0.245495 0.313610 0.745000
-0.244076 0.313610 0.745000
-0.242657 0.313610 0.745000
-0.241238 0.313610 0.745000
-0.241429 0.315714 0.750000
-0.240000 0.315714 0.750000
-0.236345 0.312768 0.743000
-0.234613 0.312347 0.742000
-0.233200 0.312347 0.742000
-0.232099 0.312768 0.743000
-0.231305 0.313610 0.745000
-0.230503 0.314451 0.747000
-0.229387 0.314872 0.748000
-0.229181 0.316556 0.752000
-0.227749 0.316556 0.752000
-0.226617 0.316977 0.753000
-0.225183 0.316977 0.753000
-0.223749 0.316977 0.753000
-0.222905 0.317819 0.755000
-0.220880 0.316977 0.753000
-0.219446 0.316977 0.753000
-0.217722 0.316556 0.752000
-0.216290 0.316556 0.752000
-0.215143 0.316977 0.753000
-0.213709 0.316977 0.753000
-0.211992 0.316556 0.752000
-0.210560 0.316556 0.752000
-0.207737 0.314451 0.747000
-0.205762 0.313610 0.745000
-0.204343 0.313610 0.745000
-0.203469 0.314451 0.747000
-0.201505 0.313610 0.745000
-0.200086 0.313610 0.745000
-0.198133 0.312768 0.743000
-0.196718 0.312768 0.743000
-0.195829 0.313610 0.745000
-0.194931 0.314451 0.747000
-0.192990 0.313610 0.745000
-0.191571 0.313610 0.745000
-0.190918 0.314872 0.748000
-0.190000 0.315714 0.750000
-0.189074 0.316556 0.752000
-0.188390 0.317819 0.755000
-0.184971 0.314451 0.747000
-0.182566 0.312768 0.743000
-0.181150 0.312768 0.743000
-0.179735 0.312768 0.743000
-0.178320 0.312768 0.743000
-0.176905 0.312768 0.743000
-0.175490 0.312768 0.743000
-0.174074 0.312768 0.743000
-0.173124 0.313610 0.745000
-0.171705 0.313610 0.745000
-0.171886 0.316556 0.752000
-0.170453 0.316556 0.752000
-0.169695 0.317819 0.755000
-0.179177 0.338446 0.804000
-0.177646 0.338446 0.804000
-0.176552 0.339288 0.806000
-0.175017 0.339288 0.806000
-0.173482 0.339288 0.806000
-0.171947 0.339288 0.806000
-0.170834 0.340130 0.808000
-0.155400 0.327080 0.777000
-0.153920 0.327080 0.777000
-0.092139 0.333815 0.793000
-0.090400 0.332973 0.791000
-0.088893 0.332973 0.791000
-0.085840 0.327080 0.777000
-0.084360 0.327080 0.777000
-0.082880 0.327080 0.777000
-0.081400 0.327080 0.777000
-0.079920 0.327080 0.777000
-0.078440 0.327080 0.777000
-0.076960 0.327080 0.777000
-0.071789 0.311084 0.739000
-0.070381 0.311084 0.739000
-0.068973 0.311084 0.739000
-0.067566 0.311084 0.739000
-0.066158 0.311084 0.739000
-0.064838 0.311505 0.740000
-0.064114 0.314872 0.748000
-0.063025 0.316556 0.752000
-0.061592 0.316556 0.752000
-0.060160 0.316556 0.752000
-0.058728 0.316556 0.752000
-0.057524 0.317819 0.755000
-0.056086 0.317819 0.755000
-0.054720 0.318240 0.756000
-0.052505 0.313610 0.745000
-0.051086 0.313610 0.745000
-0.049667 0.313610 0.745000
-0.048248 0.313610 0.745000
-0.046703 0.312768 0.743000
-0.045288 0.312768 0.743000
-0.043872 0.312768 0.743000
-0.042457 0.312768 0.743000
-0.041042 0.312768 0.743000
-0.039627 0.312768 0.743000
-0.038057 0.311505 0.740000
-0.036648 0.311505 0.740000
-0.035381 0.312768 0.743000
-0.034286 0.315714 0.750000
-0.033076 0.317819 0.755000
-0.031638 0.317819 0.755000
-0.030120 0.316977 0.753000
-0.028686 0.316977 0.753000
-0.027324 0.317819 0.755000
-0.025886 0.317819 0.755000
-0.024448 0.317819 0.755000
-0.023010 0.317819 0.755000
-0.021600 0.318240 0.756000
-0.019867 0.313610 0.745000
-0.018448 0.313610 0.745000
-0.011474 0.316977 0.753000
-0.010040 0.316977 0.753000
-0.008629 0.317819 0.755000
-0.007171 0.316977 0.753000
-0.005737 0.316977 0.753000
-0.004303 0.316977 0.753000
-0.002869 0.316977 0.753000
-0.001434 0.316977 0.753000
0.000000 0.316977 0.753000
0.001434 0.316977 0.753000
0.002869 0.316977 0.753000
0.004303 0.316977 0.753000
0.005752 0.317819 0.755000
0.007190 0.317819 0.755000
0.008629 0.317819 0.755000
0.010067 0.317819 0.755000
0.011581 0.319924 0.760000
0.013046 0.320345 0.761000
0.014495 0.320345 0.761000
0.015945 0.320345 0.761000
0.017394 0.320345 0.761000
0.018819 0.319924 0.760000
0.020267 0.319924 0.760000
0.027215 0.316556 0.752000
0.028571 0.315714 0.750000
0.030000 0.315714 0.750000
0.031429 0.315714 0.750000
0.032857 0.315714 0.750000
0.034286 0.315714 0.750000
0.035714 0.315714 0.750000
0.037291 0.316977 0.753000
0.038726 0.316977 0.753000
0.039893 0.314872 0.748000
0.041318 0.314872 0.748000
0.042686 0.314451 0.747000
0.044109 0.314451 0.747000
0.045531 0.314451 0.747000
0.047017 0.314872 0.748000
0.048377 0.314451 0.747000
0.049800 0.314451 0.747000
0.051291 0.314872 0.748000
0.052857 0.315714 0.750000
0.054720 0.318240 0.756000
0.056309 0.319082 0.758000
0.057981 0.320345 0.761000
0.059899 0.322870 0.767000
0.061360 0.322870 0.767000
0.062657 0.322029 0.765000
0.064114 0.322029 0.765000
0.066000 0.324133 0.770000
0.068571 0.315714 0.750000
0.070933 0.319924 0.760000
0.072381 0.319924 0.760000
0.073829 0.319924 0.760000
0.074583 0.316977 0.753000
0.076017 0.316977 0.753000
0.077657 0.317819 0.755000
0.079095 0.317819 0.755000
0.080853 0.319082 0.758000
0.082840 0.321187 0.763000
0.084514 0.322029 0.765000
0.085971 0.322029 0.765000
0.083886 0.308979 0.734000
0.089118 0.322870 0.767000
0.090579 0.322870 0.767000
0.092040 0.322870 0.767000
0.093501 0.322870 0.767000
0.094962 0.322870 0.767000
0.096423 0.322870 0.767000
0.097884 0.322870 0.767000
0.099345 0.322870 0.767000
0.100937 0.323291 0.768000
0.099733 0.314872 0.748000
0.101158 0.314872 0.748000
0.103131 0.316556 0.752000
0.104564 0.316556 0.752000
0.105996 0.316556 0.752000
0.107857 0.317819 0.755000
0.109440 0.318240 0.756000
0.110293 0.316556 0.752000
0.111726 0.316556 0.752000
0.113158 0.316556 0.752000
0.114590 0.316556 0.752000
0.116023 0.316556 0.752000
0.117143 0.315714 0.750000
0.118571 0.315714 0.750000
0.120320 0.316556 0.752000
0.121914 0.316977 0.753000
0.123840 0.318240 0.756000
0.125280 0.318240 0.756000
0.126720 0.318240 0.756000
0.128160 0.318240 0.756000
0.129600 0.318240 0.756000
0.131040 0.318240 0.756000
0.132305 0.317819 0.755000
0.133389 0.316977 0.753000
0.134823 0.316977 0.753000
0.134810 0.313610 0.745000
0.136229 0.313610 0.745000
0.139126 0.316977 0.753000
0.140560 0.316977 0.753000
0.142371 0.317819 0.755000
0.143810 0.317819 0.755000
0.145248 0.317819 0.755000
0.146297 0.316977 0.753000
0.147731 0.316977 0.753000
0.148571 0.315714 0.750000
0.150000 0.315714 0.750000
0.151025 0.314872 0.748000
0.152246 0.314451 0.747000
0.153669 0.314451 0.747000
0.155299 0.314872 0.748000
0.157143 0.315714 0.750000
0.158994 0.316556 0.752000
0.160427 0.316556 0.752000
0.162505 0.317819 0.755000
0.163943 0.317819 0.755000
0.166038 0.319082 0.758000
0.167924 0.319924 0.760000
0.169371 0.319924 0.760000
0.173067 0.324133 0.770000
0.174533 0.324133 0.770000
0.169143 0.311505 0.740000
0.173549 0.316977 0.753000
0.174983 0.316977 0.753000
0.176183 0.316556 0.752000
0.177615 0.316556 0.752000
0.179048 0.316556 0.752000
0.180720 0.316977 0.753000
0.182638 0.317819 0.755000
0.183345 0.316556 0.752000
0.184777 0.316556 0.752000
0.185714 0.315714 0.750000
0.187143 0.315714 0.750000
0.189326 0.316977 0.753000
0.190760 0.316977 0.753000
0.192194 0.316977 0.753000
0.193371 0.316556 0.752000
0.194804 0.316556 0.752000
0.197019 0.317819 0.755000
0.198457 0.317819 0.755000
0.200690 0.319082 0.758000
0.198133 0.312768 0.743000
0.199549 0.312768 0.743000
0.201505 0.313610 0.745000
0.203741 0.314872 0.748000
0.205166 0.314872 0.748000
0.206590 0.314872 0.748000
0.208015 0.314872 0.748000
0.210000 0.315714 0.750000
0.211992 0.316556 0.752000
0.213425 0.316556 0.752000
0.215143 0.316977 0.753000
0.217152 0.317819 0.755000
0.218590 0.317819 0.755000
0.220029 0.317819 0.755000
0.222347 0.319082 0.758000
0.223790 0.319082 0.758000
0.224640 0.318240 0.756000
0.225781 0.317819 0.755000
0.227219 0.317819 0.755000
0.228657 0.317819 0.755000
0.231010 0.319082 0.758000
0.233373 0.320345 0.761000
0.234823 0.320345 0.761000
0.237514 0.322029 0.765000
0.238971 0.322029 0.765000
0.241057 0.322870 0.767000
0.242518 0.322870 0.767000
0.244297 0.323291 0.768000
0.246400 0.324133 0.770000
0.249476 0.326238 0.775000
0.250952 0.326238 0.775000
0.253080 0.327080 0.777000
0.245714 0.315714 0.750000
0.247143 0.315714 0.750000
0.248571 0.315714 0.750000
0.250000 0.315714 0.750000
0.252099 0.316556 0.752000
0.254543 0.317819 0.755000
0.256998 0.319082 0.758000
0.258442 0.319082 0.758000
0.259886 0.319082 0.758000
0.261330 0.319082 0.758000
0.263467 0.319924 0.760000
0.265263 0.320345 0.761000
0.266362 0.319924 0.760000
0.267810 0.319924 0.760000
0.267840 0.318240 0.756000
0.269280 0.318240 0.756000
0.270720 0.318240 0.756000
0.272160 0.318240 0.756000
0.273238 0.317819 0.755000
0.273949 0.316977 0.753000
0.275017 0.316556 0.752000
0.276450 0.316556 0.752000
0.277882 0.316556 0.752000
0.278571 0.315714 0.750000
0.280000 0.315714 0.750000
0.281429 0.315714 0.750000
0.282857 0.315714 0.750000
0.285423 0.316977 0.753000
0.287619 0.317819 0.755000
0.289440 0.318240 0.756000
0.292419 0.319924 0.760000
0.294253 0.320345 0.761000
0.295703 0.320345 0.761000
0.297933 0.321187 0.763000
0.299387 0.321187 0.763000
0.301629 0.322029 0.765000
0.303086 0.322029 0.765000
0.305737 0.323291 0.768000
0.308800 0.324975 0.772000
0.310672 0.325396 0.773000
0.312145 0.325396 0.773000
0.313617 0.325396 0.773000
0.303676 0.313610 0.745000
0.305095 0.313610 0.745000
0.307749 0.314872 0.748000
0.309173 0.314872 0.748000
0.311429 0.315714 0.750000
0.312857 0.315714 0.750000
0.314286 0.315714 0.750000
0.315714 0.315714 0.750000
0.317989 0.316556 0.752000
0.320695 0.317819 0.755000
0.323413 0.319082 0.758000
0.324000 0.318240 0.756000
0.325440 0.318240 0.756000
0.326880 0.318240 0.756000
0.328320 0.318240 0.756000
0.329760 0.318240 0.756000
0.331200 0.318240 0.756000
0.332640 0.318240 0.756000
0.334080 0.318240 0.756000
0.335520 0.318240 0.756000
0.336960 0.318240 0.756000
0.339295 0.319082 0.758000
0.340739 0.319082 0.758000
0.343086 0.319924 0.760000
0.344533 0.319924 0.760000
0.346436 0.320345 0.761000
0.347886 0.320345 0.761000
0.349335 0.320345 0.761000
0.351707 0.321187 0.763000
0.354086 0.322029 0.765000
0.356472 0.322870 0.767000
0.357000 0.322029 0.765000
0.358457 0.322029 0.765000
0.360855 0.322870 0.767000
0.362789 0.323291 0.768000
0.361880 0.321187 0.763000
0.360000 0.318240 0.756000
0.361440 0.318240 0.756000
0.361440 0.316977 0.753000
0.362874 0.316977 0.753000
0.365760 0.318240 0.756000
0.369143 0.319924 0.760000
0.369615 0.319082 0.758000
0.371059 0.319082 0.758000
0.373486 0.319924 0.760000
0.375427 0.320345 0.761000
0.376876 0.320345 0.761000
0.379320 0.321187 0.763000
0.379775 0.320345 0.761000
0.381225 0.320345 0.761000
0.383680 0.321187 0.763000
0.387657 0.323291 0.768000
0.387600 0.322029 0.765000
0.389057 0.322029 0.765000
0.389493 0.321187 0.763000
0.390947 0.321187 0.763000
0.392400 0.321187 0.763000
0.393853 0.321187 0.763000
0.395307 0.321187 0.763000
0.396760 0.321187 0.763000
0.398213 0.321187 0.763000
0.400714 0.322029 0.765000
0.402171 0.322029 0.765000
0.404684 0.322870 0.767000
0.406145 0.322870 0.767000
0.407606 0.322870 0.767000
0.409067 0.322870 0.767000
0.410528 0.322870 0.767000
0.412526 0.323291 0.768000
0.413989 0.323291 0.768000
0.414910 0.322870 0.767000
0.416371 0.322870 0.767000
0.417832 0.322870 0.767000
0.419293 0.322870 0.767000
0.420754 0.322870 0.767000
0.422215 0.322870 0.767000
0.423676 0.322870 0.767000
0.425137 0.322870 0.767000
0.418255 0.316556 0.752000
0.418571 0.315714 0.750000
0.420000 0.315714 0.750000
0.421429 0.315714 0.750000
0.422857 0.315714 0.750000
0.425983 0.316977 0.753000
0.428552 0.317819 0.755000
0.430560 0.318240 0.756000
0.432000 0.318240 0.756000
0.433440 0.318240 0.756000
0.434880 0.318240 0.756000
0.437474 0.319082 0.758000
0.436023 0.316977 0.753000
0.436876 0.316556 0.752000
0.438309 0.316556 0.752000
0.439741 0.316556 0.752000
0.441760 0.316977 0.753000
0.443194 0.316977 0.753000
0.444629 0.316977 0.753000
0.446063 0.316977 0.753000
0.448686 0.317819 0.755000
0.450720 0.318240 0.756000
0.452160 0.318240 0.756000
0.453000 0.317819 0.755000
0.454438 0.317819 0.755000
0.455876 0.317819 0.755000
-0.401829 0.304457 0.720000
-0.395977 0.309531 0.732000
-0.394583 0.309531 0.732000
-0.395337 0.311223 0.736000
-0.393935 0.311223 0.736000
-0.394133 0.312491 0.739000
-0.380286 0.306994 0.726000
-0.378903 0.306994 0.726000
-0.377520 0.306994 0.726000
-0.376137 0.306994 0.726000
-0.374754 0.306994 0.726000
-0.373371 0.306994 0.726000
-0.371989 0.306994 0.726000
-0.370606 0.306994 0.726000
-0.369223 0.306994 0.726000
-0.367333 0.306571 0.725000
-0.365952 0.306571 0.725000
-0.365074 0.306994 0.726000
-0.363691 0.306994 0.726000
-0.358937 0.305303 0.722000
-0.348417 0.305726 0.723000
-0.347040 0.305726 0.723000
-0.346619 0.306571 0.725000
-0.345238 0.306571 0.725000
-0.343857 0.306571 0.725000
-0.342476 0.306571 0.725000
-0.341566 0.306994 0.726000
-0.342526 0.309109 0.731000
-0.342533 0.310377 0.734000
-0.342530 0.311646 0.737000
-0.343440 0.313760 0.742000
-0.342027 0.313760 0.742000
-0.340613 0.313760 0.742000
-0.339200 0.313760 0.742000
-0.337787 0.313760 0.742000
-0.336373 0.313760 0.742000
-0.333606 0.312491 0.739000
-0.331299 0.311646 0.737000
-0.329895 0.311646 0.737000
-0.332949 0.315874 0.747000
-0.331526 0.315874 0.747000
-0.330103 0.315874 0.747000
-0.328680 0.315874 0.747000
-0.327695 0.316297 0.748000
-0.326270 0.316297 0.748000
-0.324846 0.316297 0.748000
-0.322989 0.315874 0.747000
-0.321566 0.315874 0.747000
-0.316714 0.312491 0.739000
-0.314453 0.311646 0.737000
-0.313050 0.311646 0.737000
-0.311646 0.311646 0.737000
-0.309821 0.311223 0.736000
-0.308419 0.311223 0.736000
-0.307017 0.311223 0.736000
-0.305615 0.311223 0.736000
-0.304213 0.311223 0.736000
-0.302811 0.311223 0.736000
-0.301410 0.311223 0.736000
-0.300008 0.311223 0.736000
-0.298606 0.311223 0.736000
-0.297204 0.311223 0.736000
-0.294998 0.310377 0.734000
-0.293600 0.310377 0.734000
-0.292202 0.310377 0.734000
-0.291596 0.311223 0.736000
-0.290589 0.311646 0.737000
-0.289970 0.312491 0.739000
-0.288562 0.312491 0.739000
-0.287154 0.312491 0.739000
-0.286133 0.312914 0.740000
-0.284724 0.312914 0.740000
-0.284463 0.314183 0.743000
-0.282667 0.313760 0.742000
-0.281253 0.313760 0.742000
-0.280217 0.314183 0.743000
-0.278802 0.314183 0.743000
-0.277387 0.314183 0.743000
-0.275971 0.314183 0.743000
-0.274187 0.313760 0.742000
-0.272773 0.313760 0.742000
-0.271726 0.314183 0.743000
-0.271038 0.315029 0.745000
-0.270343 0.315874 0.747000
-0.268920 0.315874 0.747000
-0.257829 0.304457 0.720000
-0.256457 0.304457 0.720000
-0.255086 0.304457 0.720000
-0.253714 0.304457 0.720000
-0.254446 0.306994 0.726000
-0.253063 0.306994 0.726000
-0.251680 0.306994 0.726000
-0.254090 0.311646 0.737000
-0.252686 0.311646 0.737000
-0.251282 0.311646 0.737000
-0.250556 0.312491 0.739000
-0.250160 0.313760 0.742000
-0.248747 0.313760 0.742000
-0.246667 0.312914 0.740000
-0.245257 0.312914 0.740000
-0.245495 0.315029 0.745000
-0.243421 0.314183 0.743000
-0.242006 0.314183 0.743000
-0.240590 0.314183 0.743000
-0.236922 0.311223 0.736000
-0.236480 0.312491 0.739000
-0.235072 0.312491 0.739000
-0.232084 0.310377 0.734000
-0.230686 0.310377 0.734000
-0.230850 0.312491 0.739000
-0.229442 0.312491 0.739000
-0.229269 0.314183 0.743000
-0.229387 0.316297 0.748000
-0.229181 0.317989 0.752000
-0.227749 0.317989 0.752000
-0.225714 0.317143 0.750000
-0.224286 0.317143 0.750000
-0.222857 0.317143 0.750000
-0.221429 0.317143 0.750000
-0.220000 0.317143 0.750000
-0.219154 0.317989 0.752000
-0.217722 0.317989 0.752000
-0.216290 0.317989 0.752000
-0.214857 0.317989 0.752000
-0.213425 0.317989 0.752000
-0.211429 0.317143 0.750000
-0.210000 0.317143 0.750000
-0.207181 0.315029 0.745000
-0.205762 0.315029 0.745000
-0.204343 0.315029 0.745000
-0.203469 0.315874 0.747000
-0.200964 0.314183 0.743000
-0.199549 0.314183 0.743000
-0.197867 0.313760 0.742000
-0.196453 0.313760 0.742000
-0.195303 0.314183 0.743000
-0.193627 0.313760 0.742000
-0.192213 0.313760 0.742000
-0.191571 0.315029 0.745000
-0.190918 0.316297 0.748000
-0.190000 0.317143 0.750000
-0.189074 0.317989 0.752000
-0.188390 0.319257 0.755000
-0.181752 0.310377 0.734000
-0.180354 0.310377 0.734000
-0.180175 0.312491 0.739000
-0.179010 0.312914 0.740000
-0.178080 0.313760 0.742000
-0.176667 0.313760 0.742000
-0.175490 0.314183 0.743000
-0.174074 0.314183 0.743000
-0.172659 0.314183 0.743000
-0.171244 0.314183 0.743000
-0.169829 0.314183 0.743000
-0.168187 0.313760 0.742000
-0.166773 0.313760 0.742000
-0.164246 0.311646 0.737000
-0.162842 0.311646 0.737000
-0.176552 0.340823 0.806000
-0.175017 0.340823 0.806000
-0.173482 0.340823 0.806000
-0.172373 0.341669 0.808000
-0.170834 0.341669 0.808000
-0.169714 0.342514 0.810000
-0.092139 0.335326 0.793000
-0.090400 0.334480 0.791000
-0.088669 0.333634 0.789000
-0.086613 0.331520 0.784000
-0.084686 0.329829 0.780000
-0.083200 0.329829 0.780000
-0.081610 0.329406 0.779000
-0.080126 0.329406 0.779000
-0.078642 0.329406 0.779000
-0.072998 0.311646 0.737000
-0.071789 0.312491 0.739000
-0.070381 0.312491 0.739000
-0.068787 0.311646 0.737000
-0.067383 0.311646 0.737000
-0.065979 0.311646 0.737000
-0.064575 0.311646 0.737000
-0.063171 0.311646 0.737000
-0.061516 0.310377 0.734000
-0.060118 0.310377 0.734000
-0.060160 0.317989 0.752000
-0.058728 0.317989 0.752000
-0.057524 0.319257 0.755000
-0.056160 0.319680 0.756000
-0.054720 0.319680 0.756000
-0.052364 0.314183 0.743000
-0.050949 0.314183 0.743000
-0.049533 0.314183 0.743000
-0.048053 0.313760 0.742000
-0.046640 0.313760 0.742000
-0.045288 0.314183 0.743000
-0.043813 0.313760 0.742000
-0.042400 0.313760 0.742000
-0.040987 0.313760 0.742000
-0.039467 0.312914 0.740000
-0.038057 0.312914 0.740000
-0.036648 0.312914 0.740000
-0.035381 0.314183 0.743000
-0.034286 0.317143 0.750000
-0.032857 0.317143 0.750000
-0.031429 0.317143 0.750000
-0.030080 0.317989 0.752000
-0.028648 0.317989 0.752000
-0.027251 0.318411 0.753000
-0.025783 0.317989 0.752000
-0.024350 0.317989 0.752000
-0.023010 0.319257 0.755000
-0.020971 0.310377 0.734000
-0.019573 0.310377 0.734000
-0.018175 0.310377 0.734000
-0.016777 0.310377 0.734000
-0.010080 0.319680 0.756000
-0.008640 0.319680 0.756000
-0.007200 0.319680 0.756000
-0.005752 0.319257 0.755000
-0.004314 0.319257 0.755000
-0.002876 0.319257 0.755000
-0.001434 0.318411 0.753000
0.000000 0.318411 0.753000
0.001434 0.318411 0.753000
0.002869 0.318411 0.753000
0.004303 0.318411 0.753000
0.005730 0.317989 0.752000
0.007162 0.317989 0.752000
0.008686 0.321371 0.760000
0.010133 0.321371 0.760000
0.011596 0.321794 0.761000
0.013080 0.322640 0.763000
0.014495 0.321794 0.761000
0.015945 0.321794 0.761000
0.017394 0.321794 0.761000
0.018819 0.321371 0.760000
0.020267 0.321371 0.760000
0.025714 0.317143 0.750000
0.028571 0.317143 0.750000
0.030000 0.317143 0.750000
0.031429 0.317143 0.750000
0.032857 0.317143 0.750000
0.034286 0.317143 0.750000
0.035714 0.317143 0.750000
0.037242 0.317989 0.752000
0.038314 0.315029 0.745000
0.039627 0.314183 0.743000
0.041042 0.314183 0.743000
0.042571 0.315029 0.745000
0.043990 0.315029 0.745000
0.045410 0.315029 0.745000
0.046954 0.315874 0.747000
0.048377 0.315874 0.747000
0.049800 0.315874 0.747000
0.051291 0.316297 0.748000
0.052716 0.316297 0.748000
0.054141 0.316297 0.748000
0.056829 0.323486 0.765000
0.058286 0.323486 0.765000
0.059977 0.324754 0.768000
0.061600 0.325600 0.770000
0.062657 0.323486 0.765000
0.064114 0.323486 0.765000
0.066429 0.327714 0.775000
0.070000 0.317143 0.750000
0.071429 0.317143 0.750000
0.072857 0.317143 0.750000
0.074286 0.317143 0.750000
0.075714 0.317143 0.750000
0.077143 0.317143 0.750000
0.078571 0.317143 0.750000
0.080000 0.317143 0.750000
0.081646 0.317989 0.752000
0.083078 0.317989 0.752000
0.082488 0.310377 0.734000
0.083886 0.310377 0.734000
0.085284 0.310377 0.734000
0.086682 0.310377 0.734000
0.088080 0.310377 0.734000
0.089722 0.311223 0.736000
0.091124 0.311223 0.736000
0.096423 0.324331 0.767000
0.094821 0.314183 0.743000
0.096236 0.314183 0.743000
0.097651 0.314183 0.743000
0.099067 0.314183 0.743000
0.100752 0.315029 0.745000
0.102857 0.317143 0.750000
0.104564 0.317989 0.752000
0.106137 0.318411 0.753000
0.107857 0.319257 0.755000
0.109295 0.319257 0.755000
0.110293 0.317989 0.752000
0.111726 0.317989 0.752000
0.112857 0.317143 0.750000
0.114286 0.317143 0.750000
0.115714 0.317143 0.750000
0.117143 0.317143 0.750000
0.118571 0.317143 0.750000
0.120000 0.317143 0.750000
0.121914 0.318411 0.753000
0.123676 0.319257 0.755000
0.125943 0.321371 0.760000
0.127055 0.320526 0.758000
0.127990 0.319257 0.755000
0.129429 0.319257 0.755000
0.130867 0.319257 0.755000
0.131954 0.318411 0.753000
0.133211 0.317989 0.752000
0.134286 0.317143 0.750000
0.134448 0.314183 0.743000
0.135863 0.314183 0.743000
0.139126 0.318411 0.753000
0.140560 0.318411 0.753000
0.142371 0.319257 0.755000
0.143810 0.319257 0.755000
0.144863 0.318411 0.753000
0.146297 0.318411 0.753000
0.147731 0.318411 0.753000
0.148571 0.317143 0.750000
0.149600 0.316297 0.748000
0.150823 0.315874 0.747000
0.152246 0.315874 0.747000
0.153669 0.315874 0.747000
0.155091 0.315874 0.747000
0.157143 0.317143 0.750000
0.158571 0.317143 0.750000
0.160000 0.317143 0.750000
0.161859 0.317989 0.752000
0.163291 0.317989 0.752000
0.164943 0.318411 0.753000
0.167924 0.321371 0.760000
0.165360 0.313760 0.742000
0.166773 0.313760 0.742000
0.167733 0.312914 0.740000
0.169143 0.312914 0.740000
0.172396 0.316297 0.748000
0.174286 0.317143 0.750000
0.176183 0.317989 0.752000
0.177615 0.317989 0.752000
0.179048 0.317989 0.752000
0.180720 0.318411 0.753000
0.181912 0.317989 0.752000
0.182857 0.317143 0.750000
0.184286 0.317143 0.750000
0.185219 0.316297 0.748000
0.186644 0.316297 0.748000
0.188571 0.317143 0.750000
0.190000 0.317143 0.750000
0.191429 0.317143 0.750000
0.192857 0.317143 0.750000
0.194804 0.317989 0.752000
0.196497 0.318411 0.753000
0.198457 0.319257 0.755000
0.200160 0.319680 0.756000
0.197867 0.313760 0.742000
0.199280 0.313760 0.742000
0.200964 0.314183 0.743000
0.202924 0.315029 0.745000
0.204343 0.315029 0.745000
0.205210 0.314183 0.743000
0.206625 0.314183 0.743000
0.210000 0.317143 0.750000
0.211992 0.317989 0.752000
0.213425 0.317989 0.752000
0.215143 0.318411 0.753000
0.216577 0.318411 0.753000
0.217722 0.317989 0.752000
0.219154 0.317989 0.752000
0.221467 0.319257 0.755000
0.222314 0.318411 0.753000
0.223749 0.318411 0.753000
0.224884 0.317989 0.752000
0.226316 0.317989 0.752000
0.227749 0.317989 0.752000
0.230400 0.319680 0.756000
0.233373 0.321794 0.761000
0.234823 0.321794 0.761000
0.237514 0.323486 0.765000
0.238971 0.323486 0.765000
0.241057 0.324331 0.767000
0.242518 0.324331 0.767000
0.244297 0.324754 0.768000
0.246400 0.325600 0.770000
0.249476 0.327714 0.775000
0.242210 0.316297 0.748000
0.243309 0.315874 0.747000
0.244731 0.315874 0.747000
0.246484 0.316297 0.748000
0.247909 0.316297 0.748000
0.249333 0.316297 0.748000
0.251429 0.317143 0.750000
0.253869 0.318411 0.753000
0.255981 0.319257 0.755000
0.257419 0.319257 0.755000
0.258857 0.319257 0.755000
0.260640 0.319680 0.756000
0.262080 0.319680 0.756000
0.264914 0.321371 0.760000
0.266362 0.321371 0.760000
0.267810 0.321371 0.760000
0.267840 0.319680 0.756000
0.268211 0.318411 0.753000
0.269646 0.318411 0.753000
0.271080 0.318411 0.753000
0.273238 0.319257 0.755000
0.273585 0.317989 0.752000
0.274286 0.317143 0.750000
0.275714 0.317143 0.750000
0.277143 0.317143 0.750000
0.277457 0.315874 0.747000
0.278880 0.315874 0.747000
0.280303 0.315874 0.747000
0.281726 0.315874 0.747000
0.283528 0.316297 0.748000
0.286857 0.318411 0.753000
0.289057 0.319257 0.755000
0.292419 0.321371 0.760000
0.294253 0.321794 0.761000
0.295703 0.321794 0.761000
0.297152 0.321794 0.761000
0.299387 0.322640 0.763000
0.301629 0.323486 0.765000
0.303086 0.323486 0.765000
0.305737 0.324754 0.768000
0.296800 0.313760 0.742000
0.298213 0.313760 0.742000
0.300030 0.314183 0.743000
0.301446 0.314183 0.743000
0.303676 0.315029 0.745000
0.305095 0.315029 0.745000
0.307337 0.315874 0.747000
0.308760 0.315874 0.747000
0.311429 0.317143 0.750000
0.312857 0.317143 0.750000
0.314286 0.317143 0.750000
0.315714 0.317143 0.750000
0.317989 0.317989 0.752000
0.319421 0.317989 0.752000
0.320853 0.317989 0.752000
0.322286 0.317989 0.752000
0.323718 0.317989 0.752000
0.325583 0.318411 0.753000
0.327017 0.318411 0.753000
0.327143 0.317143 0.750000
0.328571 0.317143 0.750000
0.331320 0.318411 0.753000
0.332754 0.318411 0.753000
0.335076 0.319257 0.755000
0.336514 0.319257 0.755000
0.338400 0.319680 0.756000
0.339840 0.319680 0.756000
0.342183 0.320526 0.758000
0.343627 0.320526 0.758000
0.345070 0.320526 0.758000
0.346514 0.320526 0.758000
0.347958 0.320526 0.758000
0.351707 0.322640 0.763000
0.354086 0.323486 0.765000
0.356937 0.324754 0.768000
0.358400 0.324754 0.768000
0.359394 0.324331 0.767000
0.355210 0.319257 0.755000
0.356648 0.319257 0.755000
0.356663 0.317989 0.752000
0.358095 0.317989 0.752000
0.360962 0.319257 0.755000
0.361440 0.318411 0.753000
0.362874 0.318411 0.753000
0.365276 0.319257 0.755000
0.366714 0.319257 0.755000
0.369615 0.320526 0.758000
0.371059 0.320526 0.758000
0.372503 0.320526 0.758000
0.374933 0.321371 0.760000
0.376381 0.321371 0.760000
0.378326 0.321794 0.761000
0.378278 0.320526 0.758000
0.379722 0.320526 0.758000
0.382171 0.321371 0.760000
0.383619 0.321371 0.760000
0.385067 0.321371 0.760000
0.386514 0.321371 0.760000
0.386941 0.320526 0.758000
0.388385 0.320526 0.758000
0.390857 0.321371 0.760000
0.392305 0.321371 0.760000
0.393752 0.321371 0.760000
0.395200 0.321371 0.760000
0.396648 0.321371 0.760000
0.398619 0.321794 0.761000
0.401120 0.322640 0.763000
0.404684 0.324331 0.767000
0.406145 0.324331 0.767000
0.407606 0.324331 0.767000
0.409067 0.324331 0.767000
0.410528 0.324331 0.767000
0.411989 0.324331 0.767000
0.413450 0.324331 0.767000
0.412747 0.322640 0.763000
0.412571 0.321371 0.760000
0.414019 0.321371 0.760000
0.417107 0.322640 0.763000
0.418560 0.322640 0.763000
0.418362 0.321371 0.760000
0.419810 0.321371 0.760000
0.415714 0.317143 0.750000
0.417143 0.317143 0.750000
0.418571 0.317143 0.750000
0.420000 0.317143 0.750000
0.421429 0.317143 0.750000
0.423985 0.317989 0.752000
0.425983 0.318411 0.753000
0.428552 0.319257 0.755000
0.430560 0.319680 0.756000
0.431429 0.319257 0.755000
0.432867 0.319257 0.755000
0.434305 0.319257 0.755000
0.436320 0.319680 0.756000
0.435444 0.317989 0.752000
0.434552 0.316297 0.748000
0.435977 0.316297 0.748000
0.438571 0.317143 0.750000
0.441173 0.317989 0.752000
0.444371 0.319257 0.755000
0.445810 0.319257 0.755000
0.447248 0.319257 0.755000
0.449280 0.319680 0.756000
0.451912 0.320526 0.758000
0.453356 0.320526 0.758000
0.453600 0.319680 0.756000
0.453234 0.318411 0.753000
0.454669 0.318411 0.753000
-0.406640 0.303280 0.714000
-0.406415 0.304130 0.716000
-0.405051 0.304130 0.716000
-0.403688 0.304130 0.716000
-0.402324 0.304130 0.716000
-0.400457 0.305829 0.720000
-0.401554 0.310926 0.732000
-0.397371 0.310926 0.732000
-0.395977 0.310926 0.732000
-0.394583 0.310926 0.732000
-0.394263 0.311775 0.734000
-0.392865 0.311775 0.734000
-0.381143 0.307952 0.725000
-0.379762 0.307952 0.725000
-0.378903 0.308377 0.726000
-0.377520 0.308377 0.726000
-0.376137 0.308377 0.726000
-0.374754 0.308377 0.726000
-0.373371 0.308377 0.726000
-0.371989 0.308377 0.726000
-0.370095 0.307952 0.725000
-0.368714 0.307952 0.725000
-0.367333 0.307952 0.725000
-0.365952 0.307952 0.725000
-0.363566 0.307103 0.723000
-0.361688 0.306678 0.722000
-0.360312 0.306678 0.722000
-0.358937 0.306678 0.722000
-0.347040 0.307103 0.723000
-0.345663 0.307103 0.723000
-0.344286 0.307103 0.723000
-0.342909 0.307103 0.723000
-0.341531 0.307103 0.723000
-0.341566 0.308377 0.726000
-0.341589 0.309651 0.729000
-0.341600 0.310926 0.732000
-0.341135 0.311775 0.734000
-0.342514 0.314324 0.740000
-0.341105 0.314324 0.740000
-0.338318 0.313050 0.737000
-0.336914 0.313050 0.737000
-0.335510 0.313050 0.737000
-0.334107 0.313050 0.737000
-0.333606 0.313899 0.739000
-0.329950 0.311775 0.734000
-0.325867 0.309227 0.728000
-0.324480 0.309227 0.728000
-0.322206 0.308377 0.726000
-0.320823 0.308377 0.726000
-0.319440 0.308377 0.726000
-0.318057 0.308377 0.726000
-0.317547 0.309227 0.728000
-0.315291 0.308377 0.726000
-0.313909 0.308377 0.726000
-0.312526 0.308377 0.726000
-0.315429 0.312625 0.736000
-0.313173 0.311775 0.734000
-0.311775 0.311775 0.734000
-0.311223 0.312625 0.736000
-0.309821 0.312625 0.736000
-0.308419 0.312625 0.736000
-0.307017 0.312625 0.736000
-0.305615 0.312625 0.736000
-0.304213 0.312625 0.736000
-0.302811 0.312625 0.736000
-0.300590 0.311775 0.734000
-0.299192 0.311775 0.734000
-0.298606 0.312625 0.736000
-0.296396 0.311775 0.734000
-0.294194 0.310926 0.732000
-0.292800 0.310926 0.732000
-0.291406 0.310926 0.732000
-0.290804 0.311775 0.734000
-0.290194 0.312625 0.736000
-0.289185 0.313050 0.737000
-0.287781 0.313050 0.737000
-0.286377 0.313050 0.737000
-0.285747 0.313899 0.739000
-0.284724 0.314324 0.740000
-0.284463 0.315598 0.743000
-0.282667 0.315173 0.742000
-0.281253 0.315173 0.742000
-0.280217 0.315598 0.743000
-0.278802 0.315598 0.743000
-0.277387 0.315598 0.743000
-0.275971 0.315598 0.743000
-0.274556 0.315598 0.743000
-0.273141 0.315598 0.743000
-0.271726 0.315598 0.743000
-0.271038 0.316448 0.745000
-0.260210 0.305404 0.719000
-0.258840 0.305404 0.719000
-0.257829 0.305829 0.720000
-0.256457 0.305829 0.720000
-0.255086 0.305829 0.720000
-0.253714 0.305829 0.720000
-0.252343 0.305829 0.720000
-0.252017 0.307103 0.723000
-0.251680 0.308377 0.726000
-0.253745 0.312625 0.736000
-0.252343 0.312625 0.736000
-0.251282 0.313050 0.737000
-0.250556 0.313899 0.739000
-0.248474 0.313050 0.737000
-0.247070 0.313050 0.737000
-0.246333 0.313899 0.739000
-0.244926 0.313899 0.739000
-0.243421 0.315598 0.743000
-0.242006 0.315598 0.743000
-0.240590 0.315598 0.743000
-0.236922 0.312625 0.736000
-0.235520 0.312625 0.736000
-0.232846 0.310926 0.732000
-0.231451 0.310926 0.732000
-0.230057 0.310926 0.732000
-0.229288 0.311775 0.734000
-0.228510 0.312625 0.736000
-0.229269 0.315598 0.743000
-0.227853 0.315598 0.743000
-0.219124 0.305404 0.719000
-0.227143 0.318571 0.750000
-0.225714 0.318571 0.750000
-0.224286 0.318571 0.750000
-0.222857 0.318571 0.750000
-0.221429 0.318571 0.750000
-0.220000 0.318571 0.750000
-0.219154 0.319421 0.752000
-0.217722 0.319421 0.752000
-0.209387 0.309227 0.728000
-0.208000 0.309227 0.728000
-0.206613 0.309227 0.728000
-0.210583 0.317297 0.747000
-0.209160 0.317297 0.747000
-0.206625 0.315598 0.743000
-0.205210 0.315598 0.743000
-0.204343 0.316448 0.745000
-0.202924 0.316448 0.745000
-0.200964 0.315598 0.743000
-0.199280 0.315173 0.742000
-0.196267 0.312625 0.736000
-0.194865 0.312625 0.736000
-0.194251 0.313899 0.739000
-0.193627 0.315173 0.742000
-0.192213 0.315173 0.742000
-0.191571 0.316448 0.745000
-0.190152 0.316448 0.745000
-0.183920 0.308377 0.726000
-0.184046 0.310926 0.732000
-0.182651 0.310926 0.732000
-0.181257 0.310926 0.732000
-0.179863 0.310926 0.732000
-0.178956 0.311775 0.734000
-0.178284 0.313050 0.737000
-0.177600 0.314324 0.740000
-0.176667 0.315173 0.742000
-0.175253 0.315173 0.742000
-0.173840 0.315173 0.742000
-0.172659 0.315598 0.743000
-0.171244 0.315598 0.743000
-0.169829 0.315598 0.743000
-0.168187 0.315173 0.742000
-0.166773 0.315173 0.742000
-0.163577 0.311775 0.734000
-0.162179 0.311775 0.734000
-0.160781 0.311775 0.734000
-0.159383 0.311775 0.734000
-0.173482 0.342358 0.806000
-0.171947 0.342358 0.806000
-0.170834 0.343208 0.808000
-0.169295 0.343208 0.808000
-0.167756 0.343208 0.808000
-0.093886 0.337686 0.795000
-0.092371 0.337686 0.795000
-0.090629 0.336836 0.793000
-0.088669 0.335137 0.789000
-0.086613 0.333013 0.784000
-0.085120 0.333013 0.784000
-0.083627 0.333013 0.784000
-0.082133 0.333013 0.784000
-0.080640 0.333013 0.784000
-0.079147 0.333013 0.784000
-0.072998 0.313050 0.737000
-0.071594 0.313050 0.737000
-0.070190 0.313050 0.737000
-0.068787 0.313050 0.737000
-0.067383 0.313050 0.737000
-0.065890 0.312625 0.736000
-0.064312 0.311775 0.734000
-0.062914 0.311775 0.734000
-0.061516 0.311775 0.734000
-0.060118 0.311775 0.734000
-0.058560 0.310926 0.732000
-0.057166 0.310926 0.732000
-0.055771 0.310926 0.732000
-0.054526 0.311775 0.734000
-0.053272 0.312625 0.736000
-0.051870 0.312625 0.736000
-0.050880 0.315173 0.742000
-0.049467 0.315173 0.742000
-0.048053 0.315173 0.742000
-0.046640 0.315173 0.742000
-0.045227 0.315173 0.742000
-0.043813 0.315173 0.742000
-0.042400 0.315173 0.742000
-0.040987 0.315173 0.742000
-0.039413 0.313899 0.739000
-0.038006 0.313899 0.739000
-0.036648 0.314324 0.740000
-0.035381 0.315598 0.743000
-0.033966 0.315598 0.743000
-0.032770 0.317722 0.748000
-0.031429 0.318571 0.750000
-0.030000 0.318571 0.750000
-0.028571 0.318571 0.750000
-0.027143 0.318571 0.750000
-0.025714 0.318571 0.750000
-0.024350 0.319421 0.752000
-0.023010 0.320695 0.755000
-0.020971 0.311775 0.734000
-0.019573 0.311775 0.734000
-0.018175 0.311775 0.734000
-0.016777 0.311775 0.734000
-0.008640 0.321120 0.756000
-0.007200 0.321120 0.756000
-0.005775 0.321970 0.758000
-0.004320 0.321120 0.756000
-0.002876 0.320695 0.755000
-0.001434 0.319846 0.753000
0.000000 0.319846 0.753000
0.001434 0.319846 0.753000
0.002869 0.319846 0.753000
0.004303 0.319846 0.753000
0.005730 0.319421 0.752000
0.007162 0.319421 0.752000
0.027070 0.317722 0.748000
0.028495 0.317722 0.748000
0.029920 0.317722 0.748000
0.031345 0.317722 0.748000
0.032770 0.317722 0.748000
0.034286 0.318571 0.750000
0.035714 0.318571 0.750000
0.037242 0.319421 0.752000
0.038314 0.316448 0.745000
0.039627 0.315598 0.743000
0.041042 0.315598 0.743000
0.042571 0.316448 0.745000
0.043990 0.316448 0.745000
0.045410 0.316448 0.745000
0.046954 0.317297 0.747000
0.047859 0.313899 0.739000
0.049267 0.313899 0.739000
0.050880 0.315173 0.742000
0.052364 0.315598 0.743000
0.053779 0.315598 0.743000
0.054303 0.310501 0.731000
0.055695 0.310501 0.731000
0.070000 0.318571 0.750000
0.071143 0.317297 0.747000
0.072566 0.317297 0.747000
0.073989 0.317297 0.747000
0.075512 0.317722 0.748000
0.076937 0.317722 0.748000
0.078362 0.317722 0.748000
0.078507 0.312625 0.736000
0.079691 0.311775 0.734000
0.081090 0.311775 0.734000
0.082488 0.311775 0.734000
0.083886 0.311775 0.734000
0.085284 0.311775 0.734000
0.086682 0.311775 0.734000
0.088080 0.311775 0.734000
0.089722 0.312625 0.736000
0.091495 0.313899 0.739000
0.093029 0.314324 0.740000
0.094438 0.314324 0.740000
0.096236 0.315598 0.743000
0.097651 0.315598 0.743000
0.099067 0.315598 0.743000
0.100752 0.316448 0.745000
0.102446 0.317297 0.747000
0.103590 0.316448 0.745000
0.105010 0.316448 0.745000
0.107429 0.319421 0.752000
0.109006 0.319846 0.753000
0.110000 0.318571 0.750000
0.111429 0.318571 0.750000
0.112556 0.317722 0.748000
0.113981 0.317722 0.748000
0.115406 0.317722 0.748000
0.116830 0.317722 0.748000
0.118571 0.318571 0.750000
0.120000 0.318571 0.750000
0.121752 0.319421 0.752000
0.123676 0.320695 0.755000
0.125280 0.321120 0.756000
0.126552 0.320695 0.755000
0.127143 0.318571 0.750000
0.128571 0.318571 0.750000
0.129653 0.317722 0.748000
0.131078 0.317722 0.748000
0.132503 0.317722 0.748000
0.133928 0.317722 0.748000
0.134448 0.315598 0.743000
0.135863 0.315598 0.743000
0.137278 0.315598 0.743000
0.139627 0.317722 0.748000
0.141994 0.319846 0.753000
0.143429 0.319846 0.753000
0.144863 0.319846 0.753000
0.146297 0.319846 0.753000
0.146750 0.317722 0.748000
0.147977 0.317297 0.747000
0.149000 0.316448 0.745000
0.150419 0.316448 0.745000
0.151838 0.316448 0.745000
0.153257 0.316448 0.745000
0.154676 0.316448 0.745000
0.156724 0.317722 0.748000
0.158149 0.317722 0.748000
0.159573 0.317722 0.748000
0.160998 0.317722 0.748000
0.162423 0.317722 0.748000
0.162752 0.315598 0.743000
0.163505 0.314324 0.740000
0.164914 0.314324 0.740000
0.166773 0.315173 0.742000
0.167733 0.314324 0.740000
0.169143 0.314324 0.740000
0.172166 0.317297 0.747000
0.174286 0.318571 0.750000
0.176183 0.319421 0.752000
0.177615 0.319421 0.752000
0.179048 0.319421 0.752000
0.180480 0.319421 0.752000
0.181429 0.318571 0.750000
0.182370 0.317722 0.748000
0.183794 0.317722 0.748000
0.184971 0.317297 0.747000
0.186394 0.317297 0.747000
0.188069 0.317722 0.748000
0.189493 0.317722 0.748000
0.190918 0.317722 0.748000
0.192857 0.318571 0.750000
0.194286 0.318571 0.750000
0.196236 0.319421 0.752000
0.198457 0.320695 0.755000
0.200160 0.321120 0.756000
0.197333 0.314324 0.740000
0.198743 0.314324 0.740000
0.200152 0.314324 0.740000
0.202379 0.315598 0.743000
0.203794 0.315598 0.743000
0.204933 0.315173 0.742000
0.206347 0.315173 0.742000
0.209440 0.317722 0.748000
0.210865 0.317722 0.748000
0.212857 0.318571 0.750000
0.213714 0.317722 0.748000
0.214851 0.317297 0.747000
0.216274 0.317297 0.747000
0.217697 0.317297 0.747000
0.218533 0.316448 0.745000
0.219952 0.316448 0.745000
0.221966 0.317297 0.747000
