# .PCD v.5 - Point Cloud Data file format
FIELDS x y z 
SIZE 4 4 4
TYPE F F F
COUNT 1 1 1
WIDTH 1559
HEIGHT 1
POINTS 1559
DATA ascii
-0.307440  -0.282240  0.882000
-0.306453  -0.282880  0.884000
-0.305804  -0.283840  0.887000
-0.304800  -0.284480  0.889000
-0.303107  -0.284480  0.889000
-0.231200  -0.228480  0.714000
-0.229840  -0.228480  0.714000
-0.228480  -0.228480  0.714000
-0.227756  -0.229120  0.716000
-0.226392  -0.229120  0.716000
-0.222333  -0.232000  0.725000
-0.220952  -0.232000  0.725000
-0.218966  -0.231360  0.723000
-0.217288  -0.231040  0.722000
-0.215314  -0.230400  0.720000
-0.213943  -0.230400  0.720000
-0.212276  -0.230080  0.719000
-0.210320  -0.229440  0.717000
-0.208954  -0.229440  0.717000
-0.207299  -0.229120  0.716000
-0.205935  -0.229120  0.716000
-0.204571  -0.229120  0.716000
-0.203208  -0.229120  0.716000
-0.201844  -0.229120  0.716000
-0.200480  -0.229120  0.716000
-0.199116  -0.229120  0.716000
-0.197752  -0.229120  0.716000
-0.196389  -0.229120  0.716000
-0.194480  -0.228480  0.714000
-0.193120  -0.228480  0.714000
-0.191491  -0.228160  0.713000
-0.190133  -0.228160  0.713000
-0.188246  -0.227520  0.711000
-0.186891  -0.227520  0.711000
-0.185537  -0.227520  0.711000
-0.184701  -0.228160  0.713000
-0.183343  -0.228160  0.713000
-0.181985  -0.228160  0.713000
-0.180627  -0.228160  0.713000
-0.179520  -0.228480  0.714000
-0.178160  -0.228480  0.714000
-0.176800  -0.228480  0.714000
-0.175440  -0.228480  0.714000
-0.174080  -0.228480  0.714000
-0.173204  -0.229120  0.716000
-0.171840  -0.229120  0.716000
-0.170476  -0.229120  0.716000
-0.169112  -0.229120  0.716000
-0.167749  -0.229120  0.716000
-0.166385  -0.229120  0.716000
-0.165251  -0.229440  0.717000
-0.164343  -0.230080  0.719000
-0.162973  -0.230080  0.719000
-0.161829  -0.230400  0.720000
-0.160903  -0.231040  0.722000
-0.159749  -0.231360  0.723000
-0.158371  -0.231360  0.723000
-0.157429  -0.232000  0.725000
-0.156048  -0.232000  0.725000
-0.154667  -0.232000  0.725000
-0.153497  -0.232320  0.726000
-0.152114  -0.232320  0.726000
-0.151147  -0.232960  0.728000
-0.150377  -0.233920  0.731000
-0.149189  -0.234240  0.732000
-0.147794  -0.234240  0.732000
-0.146800  -0.234880  0.734000
-0.145996  -0.235840  0.737000
-0.144985  -0.236480  0.739000
-0.143577  -0.236480  0.739000
-0.142362  -0.236800  0.740000
-0.156137  -0.285120  0.891000
-0.154093  -0.284480  0.889000
-0.152400  -0.284480  0.889000
-0.150707  -0.284480  0.889000
-0.149013  -0.284480  0.889000
-0.146989  -0.283840  0.887000
-0.145299  -0.283840  0.887000
-0.143610  -0.283840  0.887000
-0.141920  -0.283840  0.887000
-0.140230  -0.283840  0.887000
-0.139166  -0.285120  0.891000
-0.137469  -0.285120  0.891000
-0.135771  -0.285120  0.891000
-0.135128  -0.287360  0.898000
-0.133417  -0.287360  0.898000
-0.131413  -0.286720  0.896000
-0.129417  -0.286080  0.894000
-0.127714  -0.286080  0.894000
-0.124320  -0.282240  0.882000
-0.122640  -0.282240  0.882000
-0.121646  -0.283840  0.887000
-0.120227  -0.284480  0.889000
-0.117867  -0.282880  0.884000
-0.116183  -0.282880  0.884000
-0.114499  -0.282880  0.884000
-0.112815  -0.282880  0.884000
-0.111509  -0.283840  0.887000
-0.110314  -0.285120  0.891000
-0.108617  -0.285120  0.891000
-0.106920  -0.285120  0.891000
-0.105223  -0.285120  0.891000
-0.103874  -0.286080  0.894000
-0.102171  -0.286080  0.894000
-0.100693  -0.286720  0.896000
-0.099208  -0.287360  0.898000
-0.097497  -0.287360  0.898000
-0.095787  -0.287360  0.898000
-0.094390  -0.288320  0.901000
-0.092674  -0.288320  0.901000
-0.090958  -0.288320  0.901000
-0.089242  -0.288320  0.901000
-0.087526  -0.288320  0.901000
-0.085524  -0.287360  0.898000
-0.083813  -0.287360  0.898000
-0.082103  -0.287360  0.898000
-0.080392  -0.287360  0.898000
-0.078945  -0.288320  0.901000
-0.077229  -0.288320  0.901000
-0.075848  -0.289600  0.905000
-0.074370  -0.290560  0.908000
-0.072640  -0.290560  0.908000
-0.070910  -0.290560  0.908000
-0.066667  -0.280000  0.875000
-0.065000  -0.280000  0.875000
-0.063550  -0.280960  0.878000
-0.062160  -0.282240  0.882000
-0.060617  -0.282880  0.884000
-0.059133  -0.283840  0.887000
-0.057444  -0.283840  0.887000
-0.055754  -0.283840  0.887000
-0.054187  -0.284480  0.889000
-0.052611  -0.285120  0.891000
-0.050914  -0.285120  0.891000
-0.049217  -0.285120  0.891000
-0.047413  -0.284480  0.889000
-0.045720  -0.284480  0.889000
-0.044027  -0.284480  0.889000
-0.042571  -0.286080  0.894000
-0.040869  -0.286080  0.894000
-0.032288  -0.235840  0.737000
-0.030884  -0.235840  0.737000
-0.029560  -0.236480  0.739000
-0.028152  -0.236480  0.739000
-0.026745  -0.236480  0.739000
-0.025337  -0.236480  0.739000
-0.023930  -0.236480  0.739000
-0.022522  -0.236480  0.739000
-0.021029  -0.235520  0.736000
-0.019573  -0.234880  0.734000
-0.018126  -0.234240  0.732000
-0.016663  -0.233280  0.729000
-0.015253  -0.232960  0.728000
-0.013867  -0.232960  0.728000
-0.012446  -0.232320  0.726000
-0.011048  -0.232000  0.725000
-0.009667  -0.232000  0.725000
-0.008286  -0.232000  0.725000
-0.006886  -0.231360  0.723000
-0.005501  -0.231040  0.722000
-0.004114  -0.230400  0.720000
-0.002739  -0.230080  0.719000
-0.001360  -0.228480  0.714000
0.000000  -0.228160  0.713000
0.001358  -0.228160  0.713000
0.002709  -0.227520  0.711000
0.004063  -0.227520  0.711000
0.005410  -0.227200  0.710000
0.006733  -0.226240  0.707000
0.008057  -0.225600  0.705000
0.009347  -0.224320  0.701000
0.010682  -0.224320  0.701000
0.012000  -0.224000  0.700000
0.013333  -0.224000  0.700000
0.014625  -0.223360  0.698000
0.015954  -0.223360  0.698000
0.017284  -0.223360  0.698000
0.018587  -0.223040  0.697000
0.019914  -0.223040  0.697000
0.021272  -0.223360  0.698000
0.022602  -0.223360  0.698000
0.024000  -0.224000  0.700000
0.025370  -0.224320  0.701000
0.026705  -0.224320  0.701000
0.028120  -0.224960  0.703000
0.029501  -0.225280  0.704000
0.030886  -0.225600  0.705000
0.032229  -0.225600  0.705000
0.033667  -0.226240  0.707000
0.035013  -0.226240  0.707000
0.036411  -0.226560  0.708000
0.037867  -0.227200  0.710000
0.039274  -0.227520  0.711000
0.040743  -0.228160  0.713000
0.042101  -0.228160  0.713000
0.043520  -0.228480  0.714000
0.045006  -0.229120  0.716000
0.046370  -0.229120  0.716000
0.047800  -0.229440  0.717000
0.049303  -0.230080  0.719000
0.050672  -0.230080  0.719000
0.052114  -0.230400  0.720000
0.053634  -0.231040  0.722000
0.055086  -0.231360  0.723000
0.056619  -0.232000  0.725000
0.058000  -0.232000  0.725000
0.059463  -0.232320  0.726000
0.061013  -0.232960  0.728000
0.062400  -0.232960  0.728000
0.063874  -0.233280  0.729000
0.065442  -0.233920  0.731000
0.066926  -0.234240  0.732000
0.068507  -0.234880  0.734000
0.070095  -0.235520  0.736000
0.071497  -0.235520  0.736000
0.073196  -0.236480  0.739000
0.074705  -0.236800  0.740000
0.076320  -0.237440  0.742000
0.077838  -0.237760  0.743000
0.079253  -0.237760  0.743000
0.080886  -0.238400  0.745000
0.082526  -0.239040  0.747000
0.083949  -0.239040  0.747000
0.085486  -0.239360  0.748000
0.087143  -0.240000  0.750000
0.088571  -0.240000  0.750000
0.090240  -0.240640  0.752000
0.091794  -0.240960  0.753000
0.093476  -0.241600  0.755000
0.095040  -0.241920  0.756000
0.096735  -0.242560  0.758000
0.098438  -0.243200  0.760000
0.100017  -0.243520  0.761000
0.101733  -0.244160  0.763000
0.103187  -0.244160  0.763000
0.105189  -0.245440  0.767000
0.106650  -0.245440  0.767000
0.108251  -0.245760  0.768000
0.109714  -0.245760  0.768000
0.111467  -0.246400  0.770000
0.112933  -0.246400  0.770000
0.114697  -0.247040  0.772000
0.116318  -0.247360  0.773000
0.118095  -0.248000  0.775000
0.119880  -0.248640  0.777000
0.121360  -0.248640  0.777000
0.123156  -0.249280  0.779000
0.124800  -0.249600  0.780000
0.126610  -0.250240  0.782000
0.128099  -0.250240  0.782000
0.129920  -0.250880  0.784000
0.131749  -0.251520  0.786000
0.133585  -0.252160  0.788000
0.135257  -0.252480  0.789000
0.136760  -0.252480  0.789000
0.138613  -0.253120  0.791000
0.140474  -0.253760  0.793000
0.142343  -0.254400  0.795000
0.144219  -0.255040  0.797000
0.145920  -0.255360  0.798000
0.147440  -0.255360  0.798000
0.149333  -0.256000  0.800000
0.151234  -0.256640  0.802000
0.153143  -0.257280  0.804000
0.154674  -0.257280  0.804000
0.156594  -0.257920  0.806000
0.158522  -0.258560  0.808000
0.160457  -0.259200  0.810000
0.162400  -0.259840  0.812000
0.163947  -0.259840  0.812000
0.165901  -0.260480  0.814000
0.167451  -0.260480  0.814000
0.169210  -0.260800  0.815000
0.171181  -0.261440  0.817000
0.173160  -0.262080  0.819000
0.174720  -0.262080  0.819000
0.197341  -0.280960  0.878000
0.199013  -0.280960  0.878000
0.200686  -0.280960  0.878000
0.202358  -0.280960  0.878000
0.204495  -0.281600  0.880000
0.206171  -0.281600  0.880000
-0.521667  -0.281667  0.875000
-0.517623  -0.280379  0.871000
-0.514779  -0.279735  0.869000
-0.513124  -0.279735  0.869000
-0.513823  -0.281023  0.873000
-0.512160  -0.281023  0.873000
-0.511667  -0.281667  0.875000
-0.510000  -0.281667  0.875000
-0.508333  -0.281667  0.875000
-0.506667  -0.281667  0.875000
-0.505000  -0.281667  0.875000
-0.503333  -0.281667  0.875000
-0.501667  -0.281667  0.875000
-0.498857  -0.281023  0.873000
-0.496055  -0.280379  0.871000
-0.494396  -0.280379  0.871000
-0.492737  -0.280379  0.871000
-0.489950  -0.279735  0.869000
-0.488295  -0.279735  0.869000
-0.486640  -0.279735  0.869000
-0.484985  -0.279735  0.869000
-0.483330  -0.279735  0.869000
-0.481674  -0.279735  0.869000
-0.481124  -0.280379  0.871000
-0.483318  -0.282632  0.878000
-0.480000  -0.281667  0.875000
-0.478333  -0.281667  0.875000
-0.474488  -0.280379  0.871000
-0.472829  -0.280379  0.871000
-0.471170  -0.280379  0.871000
-0.468432  -0.279735  0.869000
-0.466777  -0.279735  0.869000
-0.465122  -0.279735  0.869000
-0.463467  -0.279735  0.869000
-0.466594  -0.282632  0.878000
-0.464922  -0.282632  0.878000
-0.461667  -0.281667  0.875000
-0.460000  -0.281667  0.875000
-0.460952  -0.283276  0.880000
-0.460320  -0.283920  0.882000
-0.458640  -0.283920  0.882000
-0.456960  -0.283920  0.882000
-0.420179  -0.262030  0.814000
-0.418629  -0.262030  0.814000
-0.416053  -0.261387  0.812000
-0.413486  -0.260743  0.810000
-0.406857  -0.257524  0.800000
-0.402800  -0.255914  0.795000
-0.400276  -0.255270  0.793000
-0.397760  -0.254627  0.791000
-0.396253  -0.254627  0.791000
-0.394747  -0.254627  0.791000
-0.392246  -0.253983  0.789000
-0.390248  -0.253661  0.788000
-0.387760  -0.253017  0.786000
-0.386263  -0.253017  0.786000
-0.384766  -0.253017  0.786000
-0.383269  -0.253017  0.786000
-0.381771  -0.253017  0.786000
-0.380274  -0.253017  0.786000
-0.378777  -0.253017  0.786000
-0.377280  -0.253017  0.786000
-0.375783  -0.253017  0.786000
-0.375238  -0.253661  0.788000
-0.373737  -0.253661  0.788000
-0.371291  -0.253017  0.786000
-0.369794  -0.253017  0.786000
-0.368297  -0.253017  0.786000
-0.366800  -0.253017  0.786000
-0.366232  -0.253661  0.788000
-0.364731  -0.253661  0.788000
-0.363230  -0.253661  0.788000
-0.361730  -0.253661  0.788000
-0.360229  -0.253661  0.788000
-0.358728  -0.253661  0.788000
-0.357680  -0.253983  0.789000
-0.356177  -0.253983  0.789000
-0.354674  -0.253983  0.789000
-0.353171  -0.253983  0.789000
-0.352560  -0.254627  0.791000
-0.351941  -0.255270  0.793000
-0.350430  -0.255270  0.793000
-0.348920  -0.255270  0.793000
-0.347410  -0.255270  0.793000
-0.347644  -0.256558  0.797000
-0.346560  -0.256880  0.798000
-0.345040  -0.256880  0.798000
-0.343520  -0.256880  0.798000
-0.342857  -0.257524  0.800000
-0.341333  -0.257524  0.800000
-0.339810  -0.257524  0.800000
-0.339131  -0.258168  0.802000
-0.337604  -0.258168  0.802000
-0.337752  -0.259455  0.806000
-0.337051  -0.260099  0.808000
-0.337173  -0.261387  0.812000
-0.335627  -0.261387  0.812000
-0.334080  -0.261387  0.812000
-0.333762  -0.262352  0.815000
-0.332210  -0.262352  0.815000
-0.336337  -0.266859  0.829000
-0.334758  -0.266859  0.829000
-0.333983  -0.267503  0.831000
-0.332400  -0.267503  0.831000
-0.329225  -0.266215  0.827000
-0.327650  -0.266215  0.827000
-0.324497  -0.264928  0.823000
-0.322145  -0.264284  0.821000
-0.320581  -0.264284  0.821000
-0.319017  -0.264284  0.821000
-0.317453  -0.264284  0.821000
-0.334507  -0.288427  0.896000
-0.332800  -0.288427  0.896000
-0.329246  -0.286817  0.891000
-0.320931  -0.281023  0.873000
-0.319269  -0.281023  0.873000
-0.317606  -0.281023  0.873000
-0.306667  -0.281667  0.875000
-0.305000  -0.281667  0.875000
-0.305760  -0.283920  0.882000
-0.304770  -0.284564  0.884000
-0.303086  -0.284564  0.884000
-0.220952  -0.233381  0.725000
-0.218966  -0.232737  0.723000
-0.217288  -0.232415  0.722000
-0.215314  -0.231771  0.720000
-0.213943  -0.231771  0.720000
-0.212276  -0.231450  0.719000
-0.210320  -0.230806  0.717000
-0.208954  -0.230806  0.717000
-0.207589  -0.230806  0.717000
-0.206223  -0.230806  0.717000
-0.204857  -0.230806  0.717000
-0.203491  -0.230806  0.717000
-0.202126  -0.230806  0.717000
-0.200760  -0.230806  0.717000
-0.199116  -0.230484  0.716000
-0.197752  -0.230484  0.716000
-0.196389  -0.230484  0.716000
-0.194480  -0.229840  0.714000
-0.193120  -0.229840  0.714000
-0.191491  -0.229518  0.713000
-0.190133  -0.229518  0.713000
-0.188246  -0.228874  0.711000
-0.186891  -0.228874  0.711000
-0.185537  -0.228874  0.711000
-0.184701  -0.229518  0.713000
-0.183343  -0.229518  0.713000
-0.181985  -0.229518  0.713000
-0.180880  -0.229840  0.714000
-0.179520  -0.229840  0.714000
-0.178160  -0.229840  0.714000
-0.176800  -0.229840  0.714000
-0.175440  -0.229840  0.714000
-0.174568  -0.230484  0.716000
-0.173204  -0.230484  0.716000
-0.171840  -0.230484  0.716000
-0.170476  -0.230484  0.716000
-0.169112  -0.230484  0.716000
-0.167749  -0.230484  0.716000
-0.166617  -0.230806  0.717000
-0.165712  -0.231450  0.719000
-0.164343  -0.231450  0.719000
-0.163200  -0.231771  0.720000
-0.161829  -0.231771  0.720000
-0.160903  -0.232415  0.722000
-0.159749  -0.232737  0.723000
-0.158371  -0.232737  0.723000
-0.157429  -0.233381  0.725000
-0.156048  -0.233381  0.725000
-0.154667  -0.233381  0.725000
-0.153497  -0.233703  0.726000
-0.152114  -0.233703  0.726000
-0.151147  -0.234347  0.728000
-0.149966  -0.234669  0.729000
-0.149189  -0.235634  0.732000
-0.148198  -0.236278  0.734000
-0.147200  -0.236922  0.736000
-0.145996  -0.237244  0.737000
-0.144985  -0.237888  0.739000
-0.143577  -0.237888  0.739000
-0.142362  -0.238210  0.740000
-0.153747  -0.285530  0.887000
-0.152057  -0.285530  0.887000
-0.150707  -0.286173  0.889000
-0.149013  -0.286173  0.889000
-0.146160  -0.283920  0.882000
-0.144480  -0.283920  0.882000
-0.142800  -0.283920  0.882000
-0.141440  -0.284564  0.884000
-0.139756  -0.284564  0.884000
-0.138072  -0.284564  0.884000
-0.136389  -0.284564  0.884000
-0.135128  -0.289070  0.898000
-0.133417  -0.289070  0.898000
-0.130387  -0.286173  0.889000
-0.128693  -0.286173  0.889000
-0.126714  -0.285530  0.887000
-0.124320  -0.283920  0.882000
-0.122640  -0.283920  0.882000
-0.121234  -0.284564  0.884000
-0.119280  -0.283920  0.882000
-0.117600  -0.283920  0.882000
-0.115920  -0.283920  0.882000
-0.113981  -0.283276  0.880000
-0.112305  -0.283276  0.880000
-0.110880  -0.283920  0.882000
-0.109200  -0.283920  0.882000
-0.107520  -0.283920  0.882000
-0.106080  -0.284564  0.884000
-0.104396  -0.284564  0.884000
-0.102712  -0.284564  0.884000
-0.101029  -0.284564  0.884000
-0.097434  -0.279091  0.867000
-0.095783  -0.279091  0.867000
-0.094131  -0.279091  0.867000
-0.092480  -0.279091  0.867000
-0.090829  -0.279091  0.867000
-0.089177  -0.279091  0.867000
-0.087728  -0.279735  0.869000
-0.086072  -0.279735  0.869000
-0.084611  -0.280379  0.871000
-0.082952  -0.280379  0.871000
-0.081480  -0.281023  0.873000
-0.079817  -0.281023  0.873000
-0.078154  -0.281023  0.873000
-0.076491  -0.281023  0.873000
-0.073714  -0.276838  0.860000
-0.072076  -0.276838  0.860000
-0.070438  -0.276838  0.860000
-0.068800  -0.276838  0.860000
-0.068177  -0.281023  0.873000
-0.066514  -0.281023  0.873000
-0.064851  -0.281023  0.873000
-0.063550  -0.282632  0.878000
-0.062160  -0.283920  0.882000
-0.060617  -0.284564  0.884000
-0.059133  -0.285530  0.887000
-0.057444  -0.285530  0.887000
-0.055754  -0.285530  0.887000
-0.054065  -0.285530  0.887000
-0.052493  -0.286173  0.889000
-0.050800  -0.286173  0.889000
-0.048996  -0.285530  0.887000
-0.047147  -0.284564  0.884000
-0.045463  -0.284564  0.884000
-0.043928  -0.285530  0.887000
-0.042571  -0.287783  0.894000
-0.040869  -0.287783  0.894000
-0.032375  -0.237888  0.739000
-0.030968  -0.237888  0.739000
-0.029560  -0.237888  0.739000
-0.028152  -0.237888  0.739000
-0.026745  -0.237888  0.739000
-0.025371  -0.238210  0.740000
-0.023930  -0.237888  0.739000
-0.022461  -0.237244  0.737000
-0.021057  -0.237244  0.737000
-0.019573  -0.236278  0.734000
-0.018101  -0.235312  0.731000
-0.016663  -0.234669  0.729000
-0.015253  -0.234347  0.728000
-0.013867  -0.234347  0.728000
-0.012446  -0.233703  0.726000
-0.011048  -0.233381  0.725000
-0.009667  -0.233381  0.725000
-0.008263  -0.232737  0.723000
-0.006876  -0.232415  0.722000
-0.005501  -0.232415  0.722000
-0.004114  -0.231771  0.720000
-0.002739  -0.231450  0.719000
-0.001364  -0.230484  0.716000
0.000000  -0.229840  0.714000
0.001358  -0.229518  0.713000
0.002709  -0.228874  0.711000
0.004063  -0.228874  0.711000
0.005410  -0.228552  0.710000
0.006733  -0.227587  0.707000
0.008057  -0.226943  0.705000
0.009373  -0.226299  0.703000
0.010682  -0.225655  0.701000
0.012000  -0.225333  0.700000
0.013333  -0.225333  0.700000
0.014625  -0.224690  0.698000
0.015954  -0.224690  0.698000
0.017284  -0.224690  0.698000
0.018613  -0.224690  0.698000
0.019943  -0.224690  0.698000
0.021272  -0.224690  0.698000
0.022667  -0.225333  0.700000
0.024000  -0.225333  0.700000
0.025370  -0.225655  0.701000
0.026705  -0.225655  0.701000
0.028040  -0.225655  0.701000
0.029459  -0.226299  0.703000
0.030842  -0.226621  0.704000
0.032229  -0.226943  0.705000
0.033667  -0.227587  0.707000
0.035013  -0.227587  0.707000
0.036411  -0.227909  0.708000
0.037867  -0.228552  0.710000
0.039274  -0.228874  0.711000
0.040743  -0.229518  0.713000
0.042101  -0.229518  0.713000
0.043520  -0.229840  0.714000
0.045006  -0.230484  0.716000
0.046370  -0.230484  0.716000
0.047800  -0.230806  0.717000
0.049303  -0.231450  0.719000
0.050743  -0.231771  0.720000
0.052114  -0.231771  0.720000
0.053634  -0.232415  0.722000
0.055086  -0.232737  0.723000
0.056619  -0.233381  0.725000
0.058000  -0.233381  0.725000
0.059463  -0.233703  0.726000
0.061013  -0.234347  0.728000
0.062486  -0.234669  0.729000
0.064050  -0.235312  0.731000
0.065531  -0.235634  0.732000
0.066926  -0.235634  0.732000
0.068693  -0.236922  0.736000
0.070095  -0.236922  0.736000
0.071594  -0.237244  0.737000
0.073196  -0.237888  0.739000
0.074705  -0.238210  0.740000
0.076320  -0.238853  0.742000
0.077838  -0.239175  0.743000
0.079253  -0.239175  0.743000
0.080886  -0.239819  0.745000
0.082526  -0.240463  0.747000
0.083949  -0.240463  0.747000
0.085486  -0.240785  0.748000
0.086910  -0.240785  0.748000
0.088571  -0.241429  0.750000
0.090240  -0.242072  0.752000
0.091794  -0.242394  0.753000
0.093476  -0.243038  0.755000
0.095040  -0.243360  0.756000
0.096735  -0.244004  0.758000
0.098438  -0.244648  0.760000
0.100017  -0.244970  0.761000
0.101467  -0.244970  0.761000
0.103187  -0.245613  0.763000
0.104914  -0.246257  0.765000
0.106650  -0.246901  0.767000
0.108251  -0.247223  0.768000
0.110000  -0.247867  0.770000
0.111467  -0.247867  0.770000
0.112933  -0.247867  0.770000
0.114697  -0.248510  0.772000
0.116318  -0.248832  0.773000
0.118095  -0.249476  0.775000
0.119571  -0.249476  0.775000
0.121360  -0.250120  0.777000
0.123156  -0.250764  0.779000
0.124800  -0.251086  0.780000
0.126610  -0.251730  0.782000
0.128099  -0.251730  0.782000
0.129920  -0.252373  0.784000
0.131749  -0.253017  0.786000
0.133585  -0.253661  0.788000
0.135257  -0.253983  0.789000
0.136760  -0.253983  0.789000
0.138613  -0.254627  0.791000
0.140829  -0.255914  0.795000
0.142701  -0.256558  0.797000
0.144219  -0.256558  0.797000
0.145920  -0.256880  0.798000
0.147440  -0.256880  0.798000
0.149333  -0.257524  0.800000
0.151234  -0.258168  0.802000
0.153143  -0.258811  0.804000
0.154674  -0.258811  0.804000
0.156594  -0.259455  0.806000
0.158522  -0.260099  0.808000
0.160457  -0.260743  0.810000
0.162400  -0.261387  0.812000
0.163947  -0.261387  0.812000
0.165901  -0.262030  0.814000
0.167657  -0.262352  0.815000
0.169210  -0.262352  0.815000
0.171181  -0.262996  0.817000
0.173160  -0.263640  0.819000
0.195669  -0.282632  0.878000
0.196667  -0.281667  0.875000
0.198333  -0.281667  0.875000
0.200000  -0.281667  0.875000
0.202358  -0.282632  0.878000
0.204030  -0.282632  0.878000
0.206171  -0.283276  0.880000
0.207848  -0.283276  0.880000
-0.516897  -0.280743  0.867000
-0.515246  -0.280743  0.867000
-0.513594  -0.280743  0.867000
-0.511943  -0.280743  0.867000
-0.510291  -0.280743  0.867000
-0.509813  -0.281390  0.869000
-0.508158  -0.281390  0.869000
-0.505337  -0.280743  0.867000
-0.503686  -0.280743  0.867000
-0.503192  -0.281390  0.869000
-0.501537  -0.281390  0.869000
-0.499882  -0.281390  0.869000
-0.498227  -0.281390  0.869000
-0.496571  -0.281390  0.869000
-0.494916  -0.281390  0.869000
-0.494396  -0.282038  0.871000
-0.492737  -0.282038  0.871000
-0.488823  -0.280743  0.867000
-0.484362  -0.279124  0.862000
-0.481600  -0.278476  0.860000
-0.479962  -0.278476  0.860000
-0.479436  -0.279124  0.862000
-0.477794  -0.279124  0.862000
-0.477810  -0.280095  0.865000
-0.477263  -0.280743  0.867000
-0.475611  -0.280743  0.867000
-0.473960  -0.280743  0.867000
-0.471219  -0.280095  0.865000
-0.469571  -0.280095  0.865000
-0.469006  -0.280743  0.867000
-0.467354  -0.280743  0.867000
-0.465703  -0.280743  0.867000
-0.464051  -0.280743  0.867000
-0.462400  -0.280743  0.867000
-0.461811  -0.281390  0.869000
-0.460156  -0.281390  0.869000
-0.459556  -0.282038  0.871000
-0.457897  -0.282038  0.871000
-0.460952  -0.284952  0.880000
-0.460320  -0.285600  0.882000
-0.458640  -0.285600  0.882000
-0.456960  -0.285600  0.882000
-0.418114  -0.262286  0.810000
-0.416571  -0.262286  0.810000
-0.416053  -0.262933  0.812000
-0.411444  -0.260990  0.806000
-0.407874  -0.259695  0.802000
-0.403813  -0.258076  0.797000
-0.401286  -0.257429  0.795000
-0.398766  -0.256781  0.793000
-0.396253  -0.256133  0.791000
-0.393749  -0.255486  0.789000
-0.391749  -0.255162  0.788000
-0.390248  -0.255162  0.788000
-0.387760  -0.254514  0.786000
-0.386263  -0.254514  0.786000
-0.384766  -0.254514  0.786000
-0.382293  -0.253867  0.784000
-0.380800  -0.253867  0.784000
-0.379307  -0.253867  0.784000
-0.377813  -0.253867  0.784000
-0.377280  -0.254514  0.786000
-0.375783  -0.254514  0.786000
-0.374286  -0.254514  0.786000
-0.372789  -0.254514  0.786000
-0.371291  -0.254514  0.786000
-0.369794  -0.254514  0.786000
-0.368297  -0.254514  0.786000
-0.366800  -0.254514  0.786000
-0.365303  -0.254514  0.786000
-0.364731  -0.255162  0.788000
-0.363230  -0.255162  0.788000
-0.361730  -0.255162  0.788000
-0.360229  -0.255162  0.788000
-0.358728  -0.255162  0.788000
-0.357227  -0.255162  0.788000
-0.355726  -0.255162  0.788000
-0.354674  -0.255486  0.789000
-0.353171  -0.255486  0.789000
-0.351669  -0.255486  0.789000
-0.351053  -0.256133  0.791000
-0.350430  -0.256781  0.793000
-0.348920  -0.256781  0.793000
-0.347410  -0.256781  0.793000
-0.347644  -0.258076  0.797000
-0.346560  -0.258400  0.798000
-0.345040  -0.258400  0.798000
-0.344381  -0.259048  0.800000
-0.342857  -0.259048  0.800000
-0.341333  -0.259048  0.800000
-0.340659  -0.259695  0.802000
-0.339131  -0.259695  0.802000
-0.337604  -0.259695  0.802000
-0.337752  -0.260990  0.806000
-0.336217  -0.260990  0.806000
-0.335512  -0.261638  0.808000
-0.334800  -0.262286  0.810000
-0.333257  -0.262286  0.810000
-0.331714  -0.262286  0.810000
-0.330987  -0.262933  0.812000
-0.329440  -0.262933  0.812000
-0.329105  -0.263905  0.815000
-0.329160  -0.265200  0.819000
-0.328400  -0.265848  0.821000
-0.326836  -0.265848  0.821000
-0.326065  -0.266495  0.823000
-0.322920  -0.265200  0.819000
-0.321360  -0.265200  0.819000
-0.319800  -0.265200  0.819000
-0.318240  -0.265200  0.819000
-0.316680  -0.265200  0.819000
-0.315120  -0.265200  0.819000
-0.314326  -0.265848  0.821000
-0.303147  -0.262933  0.812000
-0.321855  -0.282038  0.871000
-0.320196  -0.282038  0.871000
-0.317074  -0.280743  0.867000
-0.315423  -0.280743  0.867000
-0.305966  -0.282686  0.873000
-0.304303  -0.282686  0.873000
-0.305760  -0.285600  0.882000
-0.304770  -0.286248  0.884000
-0.303086  -0.286248  0.884000
-0.220952  -0.234762  0.725000
-0.219571  -0.234762  0.725000
-0.217589  -0.234114  0.723000
-0.215314  -0.233143  0.720000
-0.213943  -0.233143  0.720000
-0.212571  -0.233143  0.720000
-0.210907  -0.232819  0.719000
-0.209537  -0.232819  0.719000
-0.208168  -0.232819  0.719000
-0.206798  -0.232819  0.719000
-0.204857  -0.232171  0.717000
-0.203491  -0.232171  0.717000
-0.202126  -0.232171  0.717000
-0.200760  -0.232171  0.717000
-0.199116  -0.231848  0.716000
-0.197752  -0.231848  0.716000
-0.196389  -0.231848  0.716000
-0.194480  -0.231200  0.714000
-0.193120  -0.231200  0.714000
-0.191491  -0.230876  0.713000
-0.190133  -0.230876  0.713000
-0.188775  -0.230876  0.713000
-0.187417  -0.230876  0.713000
-0.186059  -0.230876  0.713000
-0.184701  -0.230876  0.713000
-0.183343  -0.230876  0.713000
-0.181985  -0.230876  0.713000
-0.180880  -0.231200  0.714000
-0.179520  -0.231200  0.714000
-0.178160  -0.231200  0.714000
-0.176800  -0.231200  0.714000
-0.175440  -0.231200  0.714000
-0.174568  -0.231848  0.716000
-0.173204  -0.231848  0.716000
-0.171840  -0.231848  0.716000
-0.170476  -0.231848  0.716000
-0.169112  -0.231848  0.716000
-0.167983  -0.232171  0.717000
-0.166617  -0.232171  0.717000
-0.165712  -0.232819  0.719000
-0.164343  -0.232819  0.719000
-0.162973  -0.232819  0.719000
-0.161829  -0.233143  0.720000
-0.160903  -0.233790  0.722000
-0.159749  -0.234114  0.723000
-0.158371  -0.234114  0.723000
-0.157429  -0.234762  0.725000
-0.156048  -0.234762  0.725000
-0.154667  -0.234762  0.725000
-0.153497  -0.235086  0.726000
-0.152114  -0.235086  0.726000
-0.151147  -0.235733  0.728000
-0.149966  -0.236057  0.729000
-0.148985  -0.236705  0.731000
-0.147794  -0.237029  0.732000
-0.146800  -0.237676  0.734000
-0.145996  -0.238648  0.737000
-0.144592  -0.238648  0.737000
-0.143577  -0.239295  0.739000
-0.142362  -0.239619  0.740000
-0.153747  -0.287219  0.887000
-0.152057  -0.287219  0.887000
-0.150368  -0.287219  0.887000
-0.148678  -0.287219  0.887000
-0.145829  -0.284952  0.880000
-0.144152  -0.284952  0.880000
-0.142476  -0.284952  0.880000
-0.140800  -0.284952  0.880000
-0.139124  -0.284952  0.880000
-0.137448  -0.284952  0.880000
-0.133766  -0.280743  0.867000
-0.132114  -0.280743  0.867000
-0.130764  -0.281390  0.869000
-0.132080  -0.287867  0.889000
-0.130387  -0.287867  0.889000
-0.128693  -0.287867  0.889000
-0.126714  -0.287219  0.887000
-0.124320  -0.285600  0.882000
-0.122640  -0.285600  0.882000
-0.120960  -0.285600  0.882000
-0.119280  -0.285600  0.882000
-0.117067  -0.284305  0.878000
-0.115394  -0.284305  0.878000
-0.113722  -0.284305  0.878000
-0.112050  -0.284305  0.878000
-0.110629  -0.284952  0.880000
-0.108952  -0.284952  0.880000
-0.107276  -0.284952  0.880000
-0.105600  -0.284952  0.880000
-0.104396  -0.286248  0.884000
-0.102712  -0.286248  0.884000
-0.099086  -0.280743  0.867000
-0.097434  -0.280743  0.867000
-0.095783  -0.280743  0.867000
-0.094131  -0.280743  0.867000
-0.092480  -0.280743  0.867000
-0.090829  -0.280743  0.867000
-0.089177  -0.280743  0.867000
-0.087728  -0.281390  0.869000
-0.086072  -0.281390  0.869000
-0.084611  -0.282038  0.871000
-0.082952  -0.282038  0.871000
-0.081480  -0.282686  0.873000
-0.079817  -0.282686  0.873000
-0.078154  -0.282686  0.873000
-0.073371  -0.277181  0.856000
-0.072076  -0.278476  0.860000
-0.070438  -0.278476  0.860000
-0.068800  -0.278476  0.860000
-0.067162  -0.278476  0.860000
-0.066514  -0.282686  0.873000
-0.064851  -0.282686  0.873000
-0.063550  -0.284305  0.878000
-0.061878  -0.284305  0.878000
-0.060823  -0.287219  0.887000
-0.059133  -0.287219  0.887000
-0.057444  -0.287219  0.887000
-0.055440  -0.285600  0.882000
-0.053760  -0.285600  0.882000
-0.052198  -0.286248  0.884000
-0.050800  -0.287867  0.889000
-0.048996  -0.287219  0.887000
-0.046933  -0.284952  0.880000
-0.045257  -0.284952  0.880000
-0.043581  -0.284952  0.880000
-0.041905  -0.284952  0.880000
-0.039909  -0.282686  0.873000
-0.032419  -0.239619  0.740000
-0.031010  -0.239619  0.740000
-0.029600  -0.239619  0.740000
-0.028152  -0.239295  0.739000
-0.026745  -0.239295  0.739000
-0.025337  -0.239295  0.739000
-0.023930  -0.239295  0.739000
-0.022461  -0.238648  0.737000
-0.021029  -0.238324  0.736000
-0.019573  -0.237676  0.734000
-0.018101  -0.236705  0.731000
-0.016663  -0.236057  0.729000
-0.015253  -0.235733  0.728000
-0.013867  -0.235733  0.728000
-0.012446  -0.235086  0.726000
-0.011048  -0.234762  0.725000
-0.009640  -0.234114  0.723000
-0.008263  -0.234114  0.723000
-0.006876  -0.233790  0.722000
-0.005486  -0.233143  0.720000
-0.004114  -0.233143  0.720000
-0.002739  -0.232819  0.719000
-0.001360  -0.231200  0.714000
0.000000  -0.230876  0.713000
0.001354  -0.230229  0.711000
0.002709  -0.230229  0.711000
0.004057  -0.229905  0.710000
0.005394  -0.229257  0.708000
0.006733  -0.228933  0.707000
0.008057  -0.228286  0.705000
0.009387  -0.227962  0.704000
0.010712  -0.227638  0.703000
0.012000  -0.226667  0.700000
0.013333  -0.226667  0.700000
0.014625  -0.226019  0.698000
0.015954  -0.226019  0.698000
0.017284  -0.226019  0.698000
0.018587  -0.225695  0.697000
0.019914  -0.225695  0.697000
0.021272  -0.226019  0.698000
0.022602  -0.226019  0.698000
0.024000  -0.226667  0.700000
0.025370  -0.226990  0.701000
0.026705  -0.226990  0.701000
0.028040  -0.226990  0.701000
0.029459  -0.227638  0.703000
0.030842  -0.227962  0.704000
0.032229  -0.228286  0.705000
0.033667  -0.228933  0.707000
0.035013  -0.228933  0.707000
0.036411  -0.229257  0.708000
0.037920  -0.230229  0.711000
0.039274  -0.230229  0.711000
0.040743  -0.230876  0.713000
0.042160  -0.231200  0.714000
0.043642  -0.231848  0.716000
0.045006  -0.231848  0.716000
0.046434  -0.232171  0.717000
0.047800  -0.232171  0.717000
0.049303  -0.232819  0.719000
0.050743  -0.233143  0.720000
0.052114  -0.233143  0.720000
0.053634  -0.233790  0.722000
0.055086  -0.234114  0.723000
0.056619  -0.234762  0.725000
0.058000  -0.234762  0.725000
0.059463  -0.235086  0.726000
0.061013  -0.235733  0.728000
0.062486  -0.236057  0.729000
0.064050  -0.236705  0.731000
0.065531  -0.237029  0.732000
0.066926  -0.237029  0.732000
0.068693  -0.238324  0.736000
0.070190  -0.238648  0.737000
0.071594  -0.238648  0.737000
0.073196  -0.239295  0.739000
0.074705  -0.239619  0.740000
0.076320  -0.240267  0.742000
0.077838  -0.240590  0.743000
0.079253  -0.240590  0.743000
0.080886  -0.241238  0.745000
0.082526  -0.241886  0.747000
0.083949  -0.241886  0.747000
0.085486  -0.242210  0.748000
0.086910  -0.242210  0.748000
0.088571  -0.242857  0.750000
0.090240  -0.243505  0.752000
0.091794  -0.243829  0.753000
0.093476  -0.244476  0.755000
0.095040  -0.244800  0.756000
0.096735  -0.245448  0.758000
0.098438  -0.246095  0.760000
0.099886  -0.246095  0.760000
0.101467  -0.246419  0.761000
0.103187  -0.247067  0.763000
0.104914  -0.247714  0.765000
0.106650  -0.248362  0.767000
0.108251  -0.248686  0.768000
0.110000  -0.249333  0.770000
0.111467  -0.249333  0.770000
0.112933  -0.249333  0.770000
0.114697  -0.249981  0.772000
0.116318  -0.250305  0.773000
0.118095  -0.250952  0.775000
0.119571  -0.250952  0.775000
0.121360  -0.251600  0.777000
0.123156  -0.252248  0.779000
0.124800  -0.252571  0.780000
0.126610  -0.253219  0.782000
0.128099  -0.253219  0.782000
0.129920  -0.253867  0.784000
0.131749  -0.254514  0.786000
0.133585  -0.255162  0.788000
0.135086  -0.255162  0.788000
0.136760  -0.255486  0.789000
0.138613  -0.256133  0.791000
0.140474  -0.256781  0.793000
0.142701  -0.258076  0.797000
0.144219  -0.258076  0.797000
0.145920  -0.258400  0.798000
0.147440  -0.258400  0.798000
0.149333  -0.259048  0.800000
0.151234  -0.259695  0.802000
0.153143  -0.260343  0.804000
0.155059  -0.260990  0.806000
0.156594  -0.260990  0.806000
0.158522  -0.261638  0.808000
0.160457  -0.262286  0.810000
0.162400  -0.262933  0.812000
0.164350  -0.263581  0.814000
0.165901  -0.263581  0.814000
0.167657  -0.263905  0.815000
0.169210  -0.263905  0.815000
0.170762  -0.263905  0.815000
0.172737  -0.264552  0.817000
0.174293  -0.264552  0.817000
0.193996  -0.284305  0.878000
0.195669  -0.284305  0.878000
0.196667  -0.283333  0.875000
0.198333  -0.283333  0.875000
0.200000  -0.283333  0.875000
0.201667  -0.283333  0.875000
0.203333  -0.283333  0.875000
0.205703  -0.284305  0.878000
0.205722  -0.282038  0.871000
0.207381  -0.282038  0.871000
0.209040  -0.282038  0.871000
-0.515705  -0.281743  0.865000
-0.514057  -0.281743  0.865000
-0.512410  -0.281743  0.865000
-0.510762  -0.281743  0.865000
-0.509114  -0.281743  0.865000
-0.508640  -0.282394  0.867000
-0.506989  -0.282394  0.867000
-0.505337  -0.282394  0.867000
-0.503686  -0.282394  0.867000
-0.502034  -0.282394  0.867000
-0.500383  -0.282394  0.867000
-0.498731  -0.282394  0.867000
-0.494213  -0.280766  0.862000
-0.492571  -0.280766  0.862000
-0.492638  -0.281743  0.865000
-0.492126  -0.282394  0.867000
-0.491606  -0.283046  0.869000
-0.484876  -0.280114  0.860000
-0.483238  -0.280114  0.860000
-0.481600  -0.280114  0.860000
-0.479962  -0.280114  0.860000
-0.478324  -0.280114  0.860000
-0.476686  -0.280114  0.860000
-0.475048  -0.280114  0.860000
-0.473410  -0.280114  0.860000
-0.471771  -0.280114  0.860000
-0.467947  -0.278811  0.856000
-0.466316  -0.278811  0.856000
-0.464686  -0.278811  0.856000
-0.466301  -0.280766  0.862000
-0.464659  -0.280766  0.862000
-0.463017  -0.280766  0.862000
-0.461375  -0.280766  0.862000
-0.462400  -0.282394  0.867000
-0.460749  -0.282394  0.867000
-0.459097  -0.282394  0.867000
-0.458501  -0.283046  0.869000
-0.456846  -0.283046  0.869000
-0.460952  -0.286629  0.880000
-0.460320  -0.287280  0.882000
-0.419657  -0.263829  0.810000
-0.418114  -0.263829  0.810000
-0.416571  -0.263829  0.810000
-0.415029  -0.263829  0.810000
-0.410423  -0.261874  0.804000
-0.406857  -0.260571  0.800000
-0.402800  -0.258943  0.795000
-0.400276  -0.258291  0.793000
-0.398766  -0.258291  0.793000
-0.397255  -0.258291  0.793000
-0.393749  -0.256989  0.789000
-0.391749  -0.256663  0.788000
-0.390248  -0.256663  0.788000
-0.387760  -0.256011  0.786000
-0.385280  -0.255360  0.784000
-0.383787  -0.255360  0.784000
-0.381318  -0.254709  0.782000
-0.379829  -0.254709  0.782000
-0.379307  -0.255360  0.784000
-0.377813  -0.255360  0.784000
-0.376320  -0.255360  0.784000
-0.375783  -0.256011  0.786000
-0.374286  -0.256011  0.786000
-0.372789  -0.256011  0.786000
-0.371291  -0.256011  0.786000
-0.369794  -0.256011  0.786000
-0.368297  -0.256011  0.786000
-0.366800  -0.256011  0.786000
-0.365303  -0.256011  0.786000
-0.364731  -0.256663  0.788000
-0.363230  -0.256663  0.788000
-0.361730  -0.256663  0.788000
-0.360229  -0.256663  0.788000
-0.358728  -0.256663  0.788000
-0.357227  -0.256663  0.788000
-0.355726  -0.256663  0.788000
-0.354674  -0.256989  0.789000
-0.353171  -0.256989  0.789000
-0.351669  -0.256989  0.789000
-0.351053  -0.257640  0.791000
-0.350430  -0.258291  0.793000
-0.349800  -0.258943  0.795000
-0.348286  -0.258943  0.795000
-0.347644  -0.259594  0.797000
-0.346560  -0.259920  0.798000
-0.345040  -0.259920  0.798000
-0.344381  -0.260571  0.800000
-0.342857  -0.260571  0.800000
-0.341333  -0.260571  0.800000
-0.339810  -0.260571  0.800000
-0.338286  -0.260571  0.800000
-0.337604  -0.261223  0.802000
-0.336914  -0.261874  0.804000
-0.335383  -0.261874  0.804000
-0.334682  -0.262526  0.806000
-0.333973  -0.263177  0.808000
-0.333257  -0.263829  0.810000
-0.330076  -0.262526  0.806000
-0.328541  -0.262526  0.806000
-0.327817  -0.263177  0.808000
-0.327086  -0.263829  0.810000
-0.327150  -0.265131  0.814000
-0.326000  -0.265457  0.815000
-0.324448  -0.265457  0.815000
-0.322895  -0.265457  0.815000
-0.321343  -0.265457  0.815000
-0.320575  -0.266109  0.817000
-0.319019  -0.266109  0.817000
-0.318240  -0.266760  0.819000
-0.316680  -0.266760  0.819000
-0.315120  -0.266760  0.819000
-0.314326  -0.267411  0.821000
-0.312762  -0.267411  0.821000
-0.304693  -0.264480  0.812000
-0.303147  -0.264480  0.812000
-0.321855  -0.283697  0.871000
-0.320196  -0.283697  0.871000
-0.317074  -0.282394  0.867000
-0.315423  -0.282394  0.867000
-0.305966  -0.284349  0.873000
-0.304303  -0.284349  0.873000
-0.225566  -0.238097  0.731000
-0.224173  -0.238097  0.731000
-0.221257  -0.236469  0.726000
-0.219571  -0.236143  0.725000
-0.217589  -0.235491  0.723000
-0.215912  -0.235166  0.722000
-0.214537  -0.235166  0.722000
-0.212571  -0.234514  0.720000
-0.211200  -0.234514  0.720000
-0.209537  -0.234189  0.719000
-0.208168  -0.234189  0.719000
-0.206798  -0.234189  0.719000
-0.204857  -0.233537  0.717000
-0.203491  -0.233537  0.717000
-0.202126  -0.233537  0.717000
-0.200760  -0.233537  0.717000
-0.199394  -0.233537  0.717000
-0.197752  -0.233211  0.716000
-0.196389  -0.233211  0.716000
-0.194480  -0.232560  0.714000
-0.193120  -0.232560  0.714000
-0.191491  -0.232234  0.713000
-0.190133  -0.232234  0.713000
-0.188775  -0.232234  0.713000
-0.187417  -0.232234  0.713000
-0.186059  -0.232234  0.713000
-0.184701  -0.232234  0.713000
-0.183343  -0.232234  0.713000
-0.181985  -0.232234  0.713000
-0.180880  -0.232560  0.714000
-0.179520  -0.232560  0.714000
-0.178160  -0.232560  0.714000
-0.177295  -0.233211  0.716000
-0.175931  -0.233211  0.716000
-0.174568  -0.233211  0.716000
-0.173204  -0.233211  0.716000
-0.171840  -0.233211  0.716000
-0.170476  -0.233211  0.716000
-0.169349  -0.233537  0.717000
-0.167983  -0.233537  0.717000
-0.166617  -0.233537  0.717000
-0.165712  -0.234189  0.719000
-0.164343  -0.234189  0.719000
-0.162973  -0.234189  0.719000
-0.161829  -0.234514  0.720000
-0.160457  -0.234514  0.720000
-0.159528  -0.235166  0.722000
-0.158371  -0.235491  0.723000
-0.156994  -0.235491  0.723000
-0.156048  -0.236143  0.725000
-0.154667  -0.236143  0.725000
-0.153497  -0.236469  0.726000
-0.152114  -0.236469  0.726000
-0.151147  -0.237120  0.728000
-0.149966  -0.237446  0.729000
-0.148985  -0.238097  0.731000
-0.147794  -0.238423  0.732000
-0.146800  -0.239074  0.734000
-0.145798  -0.239726  0.736000
-0.144592  -0.240051  0.737000
-0.143577  -0.240703  0.739000
-0.142362  -0.241029  0.740000
-0.140952  -0.241029  0.740000
-0.146743  -0.278811  0.856000
-0.145112  -0.278811  0.856000
-0.144152  -0.280114  0.860000
-0.142514  -0.280114  0.860000
-0.143006  -0.284349  0.873000
-0.141343  -0.284349  0.873000
-0.138400  -0.281743  0.865000
-0.136752  -0.281743  0.865000
-0.135105  -0.281743  0.865000
-0.133766  -0.282394  0.867000
-0.132114  -0.282394  0.867000
-0.130764  -0.283046  0.869000
-0.129109  -0.283046  0.869000
-0.125840  -0.279463  0.858000
-0.124206  -0.279463  0.858000
-0.122286  -0.278811  0.856000
-0.120655  -0.278811  0.856000
-0.119025  -0.278811  0.856000
-0.117394  -0.278811  0.856000
-0.115764  -0.278811  0.856000
-0.117067  -0.285977  0.878000
-0.115394  -0.285977  0.878000
-0.113333  -0.285000  0.875000
-0.111667  -0.285000  0.875000
-0.110377  -0.285977  0.878000
-0.108705  -0.285977  0.878000
-0.107032  -0.285977  0.878000
-0.105600  -0.286629  0.880000
-0.103924  -0.286629  0.880000
-0.100737  -0.282394  0.867000
-0.099086  -0.282394  0.867000
-0.097434  -0.282394  0.867000
-0.095783  -0.282394  0.867000
-0.094131  -0.282394  0.867000
-0.092480  -0.282394  0.867000
-0.090829  -0.282394  0.867000
-0.089177  -0.282394  0.867000
-0.087526  -0.282394  0.867000
-0.086072  -0.283046  0.869000
-0.084611  -0.283697  0.871000
-0.082952  -0.283697  0.871000
-0.081293  -0.283697  0.871000
-0.079817  -0.284349  0.873000
-0.078154  -0.284349  0.873000
-0.074827  -0.278160  0.854000
-0.073371  -0.278811  0.856000
-0.071741  -0.278811  0.856000
-0.070110  -0.278811  0.856000
-0.068480  -0.278811  0.856000
-0.066850  -0.278811  0.856000
-0.065219  -0.278811  0.856000
-0.063737  -0.279463  0.858000
-0.062248  -0.280114  0.860000
-0.060610  -0.280114  0.860000
-0.058971  -0.280114  0.860000
-0.058200  -0.284349  0.873000
-0.056537  -0.284349  0.873000
-0.054874  -0.284349  0.873000
-0.053211  -0.284349  0.873000
-0.051962  -0.286629  0.880000
-0.050286  -0.286629  0.880000
-0.048333  -0.285000  0.875000
-0.046667  -0.285000  0.875000
-0.045000  -0.285000  0.875000
-0.043333  -0.285000  0.875000
-0.041571  -0.284349  0.873000
-0.039909  -0.284349  0.873000
-0.038246  -0.284349  0.873000
-0.031010  -0.241029  0.740000
-0.029600  -0.241029  0.740000
-0.028152  -0.240703  0.739000
-0.026745  -0.240703  0.739000
-0.025337  -0.240703  0.739000
-0.023930  -0.240703  0.739000
-0.022461  -0.240051  0.737000
-0.021029  -0.239726  0.736000
-0.019573  -0.239074  0.734000
-0.018101  -0.238097  0.731000
-0.016663  -0.237446  0.729000
-0.015253  -0.237120  0.728000
-0.013867  -0.237120  0.728000
-0.012446  -0.236469  0.726000
-0.011048  -0.236143  0.725000
-0.009640  -0.235491  0.723000
-0.008263  -0.235491  0.723000
-0.006876  -0.235166  0.722000
-0.005486  -0.234514  0.720000
-0.004114  -0.234514  0.720000
-0.002739  -0.234189  0.719000
-0.001360  -0.232560  0.714000
0.000000  -0.232234  0.713000
0.001354  -0.231583  0.711000
0.002705  -0.231257  0.710000
0.004057  -0.231257  0.710000
0.005394  -0.230606  0.708000
0.006733  -0.230280  0.707000
0.008057  -0.229629  0.705000
0.009387  -0.229303  0.704000
0.010728  -0.229303  0.704000
0.012017  -0.228326  0.701000
0.013333  -0.228000  0.700000
0.014625  -0.227349  0.698000
0.015954  -0.227349  0.698000
0.017284  -0.227349  0.698000
0.018587  -0.227023  0.697000
0.019914  -0.227023  0.697000
0.021272  -0.227349  0.698000
0.022602  -0.227349  0.698000
0.024000  -0.228000  0.700000
0.025370  -0.228326  0.701000
0.026705  -0.228326  0.701000
0.028040  -0.228326  0.701000
0.029459  -0.228977  0.703000
0.030842  -0.229303  0.704000
0.032229  -0.229629  0.705000
0.033667  -0.230280  0.707000
0.035063  -0.230606  0.708000
0.036514  -0.231257  0.710000
0.037920  -0.231583  0.711000
0.039385  -0.232234  0.713000
0.040743  -0.232234  0.713000
0.042160  -0.232560  0.714000
0.043642  -0.233211  0.716000
0.045006  -0.233211  0.716000
0.046434  -0.233537  0.717000
0.047800  -0.233537  0.717000
0.049303  -0.234189  0.719000
0.050743  -0.234514  0.720000
0.052114  -0.234514  0.720000
0.053634  -0.235166  0.722000
0.055086  -0.235491  0.723000
0.056619  -0.236143  0.725000
0.058000  -0.236143  0.725000
0.059463  -0.236469  0.726000
0.061013  -0.237120  0.728000
0.062486  -0.237446  0.729000
0.064050  -0.238097  0.731000
0.065531  -0.238423  0.732000
0.067109  -0.239074  0.734000
0.068693  -0.239726  0.736000
0.070190  -0.240051  0.737000
0.071594  -0.240051  0.737000
0.073295  -0.241029  0.740000
0.074705  -0.241029  0.740000
0.076320  -0.241680  0.742000
0.077838  -0.242006  0.743000
0.079253  -0.242006  0.743000
0.080886  -0.242657  0.745000
0.082526  -0.243309  0.747000
0.083949  -0.243309  0.747000
0.085486  -0.243634  0.748000
0.086910  -0.243634  0.748000
0.088571  -0.244286  0.750000
0.090240  -0.244937  0.752000
0.091794  -0.245263  0.753000
0.093476  -0.245914  0.755000
0.095040  -0.246240  0.756000
0.096735  -0.246891  0.758000
0.098438  -0.247543  0.760000
0.099886  -0.247543  0.760000
0.101467  -0.247869  0.761000
0.103187  -0.248520  0.763000
0.104914  -0.249171  0.765000
0.106650  -0.249823  0.767000
0.108251  -0.250149  0.768000
0.109714  -0.250149  0.768000
0.111467  -0.250800  0.770000
0.112933  -0.250800  0.770000
0.114697  -0.251451  0.772000
0.116318  -0.251777  0.773000
0.118095  -0.252429  0.775000
0.119571  -0.252429  0.775000
0.121360  -0.253080  0.777000
0.123156  -0.253731  0.779000
0.124800  -0.254057  0.780000
0.126610  -0.254709  0.782000
0.128099  -0.254709  0.782000
0.129920  -0.255360  0.784000
0.131749  -0.256011  0.786000
0.133585  -0.256663  0.788000
0.135086  -0.256663  0.788000
0.136760  -0.256989  0.789000
0.138613  -0.257640  0.791000
0.140474  -0.258291  0.793000
0.142343  -0.258943  0.795000
0.144219  -0.259594  0.797000
0.145920  -0.259920  0.798000
0.147810  -0.260571  0.800000
0.149333  -0.260571  0.800000
0.151234  -0.261223  0.802000
0.153143  -0.261874  0.804000
0.155059  -0.262526  0.806000
0.156594  -0.262526  0.806000
0.158522  -0.263177  0.808000
0.160457  -0.263829  0.810000
0.162400  -0.264480  0.812000
0.164350  -0.265131  0.814000
0.165901  -0.265131  0.814000
0.167657  -0.265457  0.815000
0.169210  -0.265457  0.815000
0.170762  -0.265457  0.815000
0.172737  -0.266109  0.817000
0.174293  -0.266109  0.817000
0.175850  -0.266109  0.817000
0.191667  -0.285000  0.875000
0.193333  -0.285000  0.875000
0.195000  -0.285000  0.875000
0.196217  -0.284349  0.873000
0.197880  -0.284349  0.873000
0.199543  -0.284349  0.873000
0.201206  -0.284349  0.873000
0.203333  -0.285000  0.875000
0.204531  -0.284349  0.873000
0.205250  -0.283046  0.869000
0.206905  -0.283046  0.869000
0.208560  -0.283046  0.869000
-0.513916  -0.282408  0.862000
-0.512274  -0.282408  0.862000
-0.510632  -0.282408  0.862000
-0.508990  -0.282408  0.862000
-0.507349  -0.282408  0.862000
-0.507467  -0.283390  0.865000
-0.505819  -0.283390  0.865000
-0.504171  -0.283390  0.865000
-0.500781  -0.282408  0.862000
-0.499139  -0.282408  0.862000
-0.497497  -0.282408  0.862000
-0.495855  -0.282408  0.862000
-0.491920  -0.281097  0.858000
-0.490286  -0.281097  0.858000
-0.488651  -0.281097  0.858000
-0.487017  -0.281097  0.858000
-0.485383  -0.281097  0.858000
-0.482621  -0.280442  0.856000
-0.480990  -0.280442  0.856000
-0.479360  -0.280442  0.856000
-0.477730  -0.280442  0.856000
-0.476099  -0.280442  0.856000
-0.474469  -0.280442  0.856000
-0.472838  -0.280442  0.856000
-0.471208  -0.280442  0.856000
-0.468480  -0.279787  0.854000
-0.465760  -0.279131  0.852000
-0.464137  -0.279131  0.852000
-0.464686  -0.280442  0.856000
-0.463055  -0.280442  0.856000
-0.462503  -0.281097  0.858000
-0.463017  -0.282408  0.862000
-0.461375  -0.282408  0.862000
-0.461333  -0.283390  0.865000
-0.459686  -0.283390  0.865000
-0.459097  -0.284046  0.867000
-0.457446  -0.284046  0.867000
-0.455794  -0.284046  0.867000
-0.417082  -0.264716  0.808000
-0.415543  -0.264716  0.808000
-0.412979  -0.264061  0.806000
-0.408381  -0.262095  0.800000
-0.405331  -0.261112  0.797000
-0.402800  -0.260457  0.795000
-0.400276  -0.259802  0.793000
-0.398766  -0.259802  0.793000
-0.397255  -0.259802  0.793000
-0.393749  -0.258491  0.789000
-0.391749  -0.258164  0.788000
-0.390248  -0.258164  0.788000
-0.386773  -0.256853  0.784000
-0.385280  -0.256853  0.784000
-0.383787  -0.256853  0.784000
-0.381318  -0.256198  0.782000
-0.379829  -0.256198  0.782000
-0.378339  -0.256198  0.782000
-0.376850  -0.256198  0.782000
-0.375360  -0.256198  0.782000
-0.373870  -0.256198  0.782000
-0.373333  -0.256853  0.784000
-0.371840  -0.256853  0.784000
-0.371291  -0.257509  0.786000
-0.369794  -0.257509  0.786000
-0.368297  -0.257509  0.786000
-0.366800  -0.257509  0.786000
-0.365303  -0.257509  0.786000
-0.364731  -0.258164  0.788000
-0.363230  -0.258164  0.788000
-0.361730  -0.258164  0.788000
-0.360229  -0.258164  0.788000
-0.358728  -0.258164  0.788000
-0.357227  -0.258164  0.788000
-0.356177  -0.258491  0.789000
-0.354674  -0.258491  0.789000
-0.353171  -0.258491  0.789000
-0.352560  -0.259147  0.791000
-0.351941  -0.259802  0.793000
-0.350430  -0.259802  0.793000
-0.349800  -0.260457  0.795000
-0.348286  -0.260457  0.795000
-0.347644  -0.261112  0.797000
-0.346126  -0.261112  0.797000
-0.345040  -0.261440  0.798000
-0.343520  -0.261440  0.798000
-0.342857  -0.262095  0.800000
-0.341333  -0.262095  0.800000
-0.339810  -0.262095  0.800000
-0.338286  -0.262095  0.800000
