# .PCD v.5 - Point Cloud Data file format
FIELDS x y z 
SIZE 4 4 4
TYPE F F F
COUNT 1 1 1
WIDTH 1552
HEIGHT 1
POINTS 1552
DATA ascii
0.032503  -0.184183  0.948000
0.034381  -0.184571  0.950000
0.036305  -0.185154  0.953000
0.038320  -0.186126  0.958000
0.040145  -0.186126  0.958000
0.042189  -0.187097  0.963000
0.044160  -0.187680  0.966000
0.046143  -0.188263  0.969000
0.048236  -0.189234  0.974000
0.050246  -0.189817  0.977000
0.052267  -0.190400  0.980000
0.054575  -0.191954  0.988000
0.056629  -0.192537  0.991000
0.058693  -0.193120  0.994000
0.060770  -0.193703  0.997000
0.062857  -0.194286  1.000000
-0.569600  -0.219733  1.120000
-0.567467  -0.219733  1.120000
-0.565333  -0.219733  1.120000
-0.563200  -0.219733  1.120000
-0.561067  -0.219733  1.120000
-0.558933  -0.219733  1.120000
-0.556800  -0.219733  1.120000
-0.554667  -0.219733  1.120000
-0.552533  -0.219733  1.120000
-0.550400  -0.219733  1.120000
-0.548267  -0.219733  1.120000
-0.546133  -0.219733  1.120000
-0.545457  -0.220322  1.123000
-0.543318  -0.220322  1.123000
-0.541179  -0.220322  1.123000
-0.540960  -0.221107  1.127000
-0.538813  -0.221107  1.127000
-0.536667  -0.221107  1.127000
-0.536417  -0.221891  1.131000
-0.534263  -0.221891  1.131000
-0.533520  -0.222480  1.134000
-0.531360  -0.222480  1.134000
-0.531067  -0.223265  1.138000
-0.528899  -0.223265  1.138000
-0.528583  -0.224050  1.142000
-0.528251  -0.224834  1.146000
-0.526069  -0.224834  1.146000
-0.527086  -0.226208  1.153000
-0.526710  -0.226992  1.157000
-0.528133  -0.228562  1.165000
-0.525914  -0.228562  1.165000
-0.523695  -0.228562  1.165000
-0.523267  -0.229347  1.169000
-0.521040  -0.229347  1.169000
-0.518813  -0.229347  1.169000
-0.516587  -0.229347  1.169000
-0.514360  -0.229347  1.169000
-0.512133  -0.229347  1.169000
-0.339627  -0.175787  0.896000
-0.337920  -0.175787  0.896000
-0.352857  -0.186381  0.950000
-0.328507  -0.174413  0.889000
-0.326813  -0.174413  0.889000
-0.325120  -0.174413  0.889000
-0.346710  -0.186970  0.953000
-0.344895  -0.186970  0.953000
-0.343080  -0.186970  0.953000
-0.341265  -0.186970  0.953000
-0.340162  -0.187362  0.955000
-0.339406  -0.187950  0.958000
-0.337581  -0.187950  0.958000
-0.335756  -0.187950  0.958000
-0.333931  -0.187950  0.958000
-0.333147  -0.188539  0.961000
-0.331316  -0.188539  0.961000
-0.329486  -0.188539  0.961000
-0.328337  -0.188931  0.963000
-0.326503  -0.188931  0.963000
-0.324669  -0.188931  0.963000
-0.322834  -0.188931  0.963000
-0.321000  -0.188931  0.963000
-0.320160  -0.189520  0.966000
-0.318320  -0.189520  0.966000
-0.316480  -0.189520  0.966000
-0.315617  -0.190109  0.969000
-0.313771  -0.190109  0.969000
-0.312891  -0.190697  0.972000
-0.310080  -0.190109  0.969000
-0.308234  -0.190109  0.969000
-0.306389  -0.190109  0.969000
-0.305486  -0.190697  0.972000
-0.303634  -0.190697  0.972000
-0.278808  -0.176179  0.898000
-0.277097  -0.176179  0.898000
-0.275387  -0.176179  0.898000
-0.275810  -0.177552  0.905000
-0.274086  -0.177552  0.905000
-0.273265  -0.178141  0.908000
-0.272133  -0.178533  0.910000
-0.270400  -0.178533  0.910000
-0.270143  -0.179514  0.915000
-0.268400  -0.179514  0.915000
-0.267240  -0.179907  0.917000
-0.266362  -0.180495  0.920000
-0.266048  -0.181476  0.925000
-0.264857  -0.181869  0.927000
-0.263091  -0.181869  0.927000
-0.261326  -0.181869  0.927000
-0.260400  -0.182457  0.930000
-0.161345  -0.202665  1.033000
-0.158914  -0.202076  1.030000
-0.156952  -0.202076  1.030000
-0.154990  -0.202076  1.030000
-0.152434  -0.201291  1.026000
-0.150480  -0.201291  1.026000
-0.148526  -0.201291  1.026000
-0.146571  -0.201291  1.026000
-0.144617  -0.201291  1.026000
-0.142663  -0.201291  1.026000
-0.140709  -0.201291  1.026000
-0.138754  -0.201291  1.026000
-0.136800  -0.201291  1.026000
-0.134451  -0.200703  1.023000
-0.132114  -0.200114  1.020000
-0.129789  -0.199526  1.017000
-0.127851  -0.199526  1.017000
-0.125543  -0.198937  1.014000
-0.123246  -0.198349  1.011000
-0.121320  -0.198349  1.011000
-0.119394  -0.198349  1.011000
-0.117120  -0.197760  1.008000
-0.115200  -0.197760  1.008000
-0.113280  -0.197760  1.008000
-0.111360  -0.197760  1.008000
-0.109223  -0.197368  1.006000
-0.107307  -0.197368  1.006000
-0.105076  -0.196779  1.003000
-0.103166  -0.196779  1.003000
-0.101255  -0.196779  1.003000
-0.099345  -0.196779  1.003000
-0.097434  -0.196779  1.003000
-0.095238  -0.196190  1.000000
-0.093333  -0.196190  1.000000
-0.091154  -0.195602  0.997000
-0.089255  -0.195602  0.997000
-0.087093  -0.195013  0.994000
-0.085200  -0.195013  0.994000
-0.083307  -0.195013  0.994000
-0.081413  -0.195013  0.994000
-0.079280  -0.194425  0.991000
-0.077392  -0.194425  0.991000
-0.075505  -0.194425  0.991000
-0.073617  -0.194425  0.991000
-0.071730  -0.194425  0.991000
-0.069842  -0.194425  0.991000
-0.067749  -0.193836  0.988000
-0.065867  -0.193836  0.988000
-0.063790  -0.193248  0.985000
-0.061914  -0.193248  0.985000
-0.059916  -0.192855  0.983000
-0.058044  -0.192855  0.983000
-0.056171  -0.192855  0.983000
-0.054133  -0.192267  0.980000
-0.052267  -0.192267  0.980000
-0.050400  -0.192267  0.980000
-0.048533  -0.192267  0.980000
-0.046667  -0.192267  0.980000
-0.044800  -0.192267  0.980000
-0.042802  -0.191678  0.977000
-0.040941  -0.191678  0.977000
-0.039080  -0.191678  0.977000
-0.037219  -0.191678  0.977000
-0.035250  -0.191090  0.974000
-0.033394  -0.191090  0.974000
-0.031539  -0.191090  0.974000
-0.029623  -0.190697  0.972000
-0.027771  -0.190697  0.972000
-0.025920  -0.190697  0.972000
-0.023994  -0.190109  0.969000
-0.022149  -0.190109  0.969000
-0.020303  -0.190109  0.969000
-0.018457  -0.190109  0.969000
-0.016560  -0.189520  0.966000
-0.014720  -0.189520  0.966000
-0.012880  -0.189520  0.966000
-0.011040  -0.189520  0.966000
-0.009171  -0.188931  0.963000
-0.007322  -0.188539  0.961000
-0.005491  -0.188539  0.961000
-0.003650  -0.187950  0.958000
-0.001819  -0.187362  0.955000
0.000000  -0.187362  0.955000
0.001819  -0.187362  0.955000
0.003638  -0.187362  0.955000
0.005457  -0.187362  0.955000
0.007276  -0.187362  0.955000
0.009076  -0.186970  0.953000
0.010891  -0.186970  0.953000
0.012667  -0.186381  0.950000
0.014476  -0.186381  0.950000
0.016286  -0.186381  0.950000
0.018057  -0.185989  0.948000
0.019863  -0.185989  0.948000
0.021669  -0.185989  0.948000
0.023474  -0.185989  0.948000
0.025280  -0.185989  0.948000
0.027086  -0.185989  0.948000
0.028891  -0.185989  0.948000
0.030697  -0.185989  0.948000
0.032503  -0.185989  0.948000
0.034381  -0.186381  0.950000
0.036305  -0.186970  0.953000
0.038200  -0.187362  0.955000
0.040145  -0.187950  0.958000
0.042101  -0.188539  0.961000
0.044160  -0.189520  0.966000
0.046286  -0.190697  0.972000
0.048236  -0.191090  0.974000
0.050246  -0.191678  0.977000
0.052267  -0.192267  0.980000
0.054410  -0.193248  0.985000
0.056629  -0.194425  0.991000
0.058693  -0.195013  0.994000
0.060770  -0.195602  0.997000
0.062857  -0.196190  1.000000
0.064956  -0.196779  1.003000
-0.571126  -0.222461  1.123000
-0.568987  -0.222461  1.123000
-0.566848  -0.222461  1.123000
-0.563200  -0.221867  1.120000
-0.561067  -0.221867  1.120000
-0.558933  -0.221867  1.120000
-0.556800  -0.221867  1.120000
-0.554667  -0.221867  1.120000
-0.552533  -0.221867  1.120000
-0.550400  -0.221867  1.120000
-0.548267  -0.221867  1.120000
-0.546133  -0.221867  1.120000
-0.545457  -0.222461  1.123000
-0.543318  -0.222461  1.123000
-0.541179  -0.222461  1.123000
-0.539040  -0.222461  1.123000
-0.536901  -0.222461  1.123000
-0.536667  -0.223253  1.127000
-0.534520  -0.223253  1.127000
-0.534263  -0.224046  1.131000
-0.533520  -0.224640  1.134000
-0.531360  -0.224640  1.134000
-0.531067  -0.225432  1.138000
-0.528899  -0.225432  1.138000
-0.528583  -0.226225  1.142000
-0.528251  -0.227017  1.146000
-0.526069  -0.227017  1.146000
-0.525714  -0.227810  1.150000
-0.526710  -0.229196  1.157000
-0.526320  -0.229989  1.161000
-0.525914  -0.230781  1.165000
-0.525493  -0.231573  1.169000
-0.523267  -0.231573  1.169000
-0.521040  -0.231573  1.169000
-0.518813  -0.231573  1.169000
-0.516587  -0.231573  1.169000
-0.514360  -0.231573  1.169000
-0.512133  -0.231573  1.169000
-0.509907  -0.231573  1.169000
-0.346670  -0.178484  0.901000
-0.344954  -0.178484  0.901000
-0.342095  -0.177890  0.898000
-0.339627  -0.177493  0.896000
-0.337920  -0.177493  0.896000
-0.335463  -0.177097  0.894000
-0.333760  -0.177097  0.894000
-0.330943  -0.176503  0.891000
-0.328507  -0.176107  0.889000
-0.326813  -0.176107  0.889000
-0.325120  -0.176107  0.889000
-0.324154  -0.176503  0.891000
-0.344895  -0.188785  0.953000
-0.343080  -0.188785  0.953000
-0.341265  -0.188785  0.953000
-0.340162  -0.189181  0.955000
-0.338343  -0.189181  0.955000
-0.337581  -0.189775  0.958000
-0.335756  -0.189775  0.958000
-0.333931  -0.189775  0.958000
-0.332107  -0.189775  0.958000
-0.331316  -0.190370  0.961000
-0.329486  -0.190370  0.961000
-0.327655  -0.190370  0.961000
-0.325825  -0.190370  0.961000
-0.299720  -0.176107  0.889000
-0.298027  -0.176107  0.889000
-0.297000  -0.176503  0.891000
-0.295303  -0.176503  0.891000
-0.318320  -0.191360  0.966000
-0.316480  -0.191360  0.966000
-0.316594  -0.192549  0.972000
-0.314743  -0.192549  0.972000
-0.312891  -0.192549  0.972000
-0.310080  -0.191954  0.969000
-0.308234  -0.191954  0.969000
-0.283939  -0.177890  0.898000
-0.282229  -0.177890  0.898000
-0.282080  -0.178880  0.903000
-0.278808  -0.177890  0.898000
-0.277097  -0.177890  0.898000
-0.277533  -0.179276  0.905000
-0.275810  -0.179276  0.905000
-0.274086  -0.179276  0.905000
-0.273265  -0.179870  0.908000
-0.272133  -0.180267  0.910000
-0.270400  -0.180267  0.910000
-0.270143  -0.181257  0.915000
-0.268400  -0.181257  0.915000
-0.267240  -0.181653  0.917000
-0.266362  -0.182248  0.920000
-0.265185  -0.182644  0.922000
-0.263429  -0.182644  0.922000
-0.261672  -0.182644  0.922000
-0.260762  -0.183238  0.925000
-0.260400  -0.184229  0.930000
-0.161345  -0.204632  1.033000
-0.158914  -0.204038  1.030000
-0.156952  -0.204038  1.030000
-0.154990  -0.204038  1.030000
-0.152434  -0.203246  1.026000
-0.150480  -0.203246  1.026000
-0.148526  -0.203246  1.026000
-0.146571  -0.203246  1.026000
-0.144617  -0.203246  1.026000
-0.142663  -0.203246  1.026000
-0.140709  -0.203246  1.026000
-0.138754  -0.203246  1.026000
-0.136400  -0.202651  1.023000
-0.134057  -0.202057  1.020000
-0.132114  -0.202057  1.020000
-0.129789  -0.201463  1.017000
-0.127851  -0.201463  1.017000
-0.125543  -0.200869  1.014000
-0.123246  -0.200274  1.011000
-0.121320  -0.200274  1.011000
-0.119394  -0.200274  1.011000
-0.117120  -0.199680  1.008000
-0.115200  -0.199680  1.008000
-0.113280  -0.199680  1.008000
-0.111360  -0.199680  1.008000
-0.109223  -0.199284  1.006000
-0.107307  -0.199284  1.006000
-0.105390  -0.199284  1.006000
-0.103166  -0.198690  1.003000
-0.101255  -0.198690  1.003000
-0.099345  -0.198690  1.003000
-0.097434  -0.198690  1.003000
-0.095524  -0.198690  1.003000
-0.093333  -0.198095  1.000000
-0.091154  -0.197501  0.997000
-0.089255  -0.197501  0.997000
-0.087093  -0.196907  0.994000
-0.085200  -0.196907  0.994000
-0.083307  -0.196907  0.994000
-0.081413  -0.196907  0.994000
-0.079280  -0.196312  0.991000
-0.077392  -0.196312  0.991000
-0.075505  -0.196312  0.991000
-0.073617  -0.196312  0.991000
-0.071730  -0.196312  0.991000
-0.069842  -0.196312  0.991000
-0.067749  -0.195718  0.988000
-0.065867  -0.195718  0.988000
-0.063790  -0.195124  0.985000
-0.061914  -0.195124  0.985000
-0.059916  -0.194728  0.983000
-0.058044  -0.194728  0.983000
-0.056171  -0.194728  0.983000
-0.054133  -0.194133  0.980000
-0.052267  -0.194133  0.980000
-0.050400  -0.194133  0.980000
-0.048533  -0.194133  0.980000
-0.046667  -0.194133  0.980000
-0.044800  -0.194133  0.980000
-0.042802  -0.193539  0.977000
-0.040941  -0.193539  0.977000
-0.039080  -0.193539  0.977000
-0.037219  -0.193539  0.977000
-0.035250  -0.192945  0.974000
-0.033394  -0.192945  0.974000
-0.031539  -0.192945  0.974000
-0.029623  -0.192549  0.972000
-0.027771  -0.192549  0.972000
-0.025920  -0.192549  0.972000
-0.024069  -0.192549  0.972000
-0.022149  -0.191954  0.969000
-0.020303  -0.191954  0.969000
-0.018457  -0.191954  0.969000
-0.016611  -0.191954  0.969000
-0.014720  -0.191360  0.966000
-0.012880  -0.191360  0.966000
-0.011006  -0.190766  0.963000
-0.009171  -0.190766  0.963000
-0.007322  -0.190370  0.961000
-0.005491  -0.190370  0.961000
-0.003661  -0.190370  0.961000
-0.001819  -0.189181  0.955000
0.000000  -0.189181  0.955000
0.001819  -0.189181  0.955000
0.003638  -0.189181  0.955000
0.005457  -0.189181  0.955000
0.007276  -0.189181  0.955000
0.009076  -0.188785  0.953000
0.010891  -0.188785  0.953000
0.012667  -0.188190  0.950000
0.014476  -0.188190  0.950000
0.016286  -0.188190  0.950000
0.018057  -0.187794  0.948000
0.019863  -0.187794  0.948000
0.021669  -0.187794  0.948000
0.023474  -0.187794  0.948000
0.025280  -0.187794  0.948000
0.027086  -0.187794  0.948000
0.028891  -0.187794  0.948000
0.030697  -0.187794  0.948000
0.032503  -0.187794  0.948000
0.034381  -0.188190  0.950000
0.036305  -0.188785  0.953000
0.038200  -0.189181  0.955000
0.040145  -0.189775  0.958000
0.042101  -0.190370  0.961000
0.044160  -0.191360  0.966000
0.046286  -0.192549  0.972000
0.048236  -0.192945  0.974000
0.050246  -0.193539  0.977000
0.052267  -0.194133  0.980000
0.054410  -0.195124  0.985000
0.056629  -0.196312  0.991000
0.058693  -0.196907  0.994000
0.060770  -0.197501  0.997000
0.063046  -0.198690  1.003000
0.064956  -0.198690  1.003000
-0.571126  -0.224600  1.123000
-0.568987  -0.224600  1.123000
-0.566848  -0.224600  1.123000
-0.563200  -0.224000  1.120000
-0.561067  -0.224000  1.120000
-0.558933  -0.224000  1.120000
-0.556800  -0.224000  1.120000
-0.554667  -0.224000  1.120000
-0.552533  -0.224000  1.120000
-0.550400  -0.224000  1.120000
-0.548267  -0.224000  1.120000
-0.546133  -0.224000  1.120000
-0.545457  -0.224600  1.123000
-0.543318  -0.224600  1.123000
-0.541179  -0.224600  1.123000
-0.539040  -0.224600  1.123000
-0.536901  -0.224600  1.123000
-0.534762  -0.224600  1.123000
-0.534520  -0.225400  1.127000
-0.532373  -0.225400  1.127000
-0.532109  -0.226200  1.131000
-0.531360  -0.226800  1.134000
-0.531067  -0.227600  1.138000
-0.528899  -0.227600  1.138000
-0.528583  -0.228400  1.142000
-0.528251  -0.229200  1.146000
-0.526069  -0.229200  1.146000
-0.525714  -0.230000  1.150000
-0.524890  -0.230600  1.153000
-0.524507  -0.231400  1.157000
-0.525914  -0.233000  1.165000
-0.523695  -0.233000  1.165000
-0.523267  -0.233800  1.169000
-0.521040  -0.233800  1.169000
-0.518813  -0.233800  1.169000
-0.516587  -0.233800  1.169000
-0.514360  -0.233800  1.169000
-0.512133  -0.233800  1.169000
-0.509907  -0.233800  1.169000
-0.507680  -0.233800  1.169000
-0.349933  -0.181000  0.905000
-0.346670  -0.180200  0.901000
-0.344954  -0.180200  0.901000
-0.342095  -0.179600  0.898000
-0.340385  -0.179600  0.898000
-0.337920  -0.179200  0.896000
-0.335463  -0.178800  0.894000
-0.333760  -0.178800  0.894000
-0.330943  -0.178200  0.891000
-0.329246  -0.178200  0.891000
-0.327549  -0.178200  0.891000
-0.325851  -0.178200  0.891000
-0.324154  -0.178200  0.891000
-0.322457  -0.178200  0.891000
-0.320760  -0.178200  0.891000
-0.341981  -0.191000  0.955000
-0.340162  -0.191000  0.955000
-0.338343  -0.191000  0.955000
-0.336524  -0.191000  0.955000
-0.335756  -0.191600  0.958000
-0.333931  -0.191600  0.958000
-0.332107  -0.191600  0.958000
-0.331316  -0.192200  0.961000
-0.329486  -0.192200  0.961000
-0.303789  -0.178200  0.891000
-0.302091  -0.178200  0.891000
-0.299720  -0.177800  0.889000
-0.298027  -0.177800  0.889000
-0.297000  -0.178200  0.891000
-0.295303  -0.178200  0.891000
-0.294594  -0.178800  0.894000
-0.292891  -0.178800  0.894000
-0.291840  -0.179200  0.896000
-0.290133  -0.179200  0.896000
-0.288427  -0.179200  0.896000
-0.287360  -0.179600  0.898000
-0.285650  -0.179600  0.898000
-0.283939  -0.179600  0.898000
-0.282229  -0.179600  0.898000
-0.282080  -0.180600  0.903000
-0.280981  -0.181000  0.905000
-0.279257  -0.181000  0.905000
-0.277533  -0.181000  0.905000
-0.275810  -0.181000  0.905000
-0.274994  -0.181600  0.908000
-0.273867  -0.182000  0.910000
-0.272133  -0.182000  0.910000
-0.270400  -0.182000  0.910000
-0.270143  -0.183000  0.915000
-0.268400  -0.183000  0.915000
-0.267240  -0.183400  0.917000
-0.266362  -0.184000  0.920000
-0.265185  -0.184400  0.922000
-0.263429  -0.184400  0.922000
-0.261672  -0.184400  0.922000
-0.260762  -0.185000  0.925000
-0.160876  -0.206000  1.030000
-0.158914  -0.206000  1.030000
-0.156952  -0.206000  1.030000
-0.154990  -0.206000  1.030000
-0.153029  -0.206000  1.030000
-0.151067  -0.206000  1.030000
-0.149105  -0.206000  1.030000
-0.146571  -0.205200  1.026000
-0.144617  -0.205200  1.026000
-0.142663  -0.205200  1.026000
-0.140709  -0.205200  1.026000
-0.138754  -0.205200  1.026000
-0.136400  -0.204600  1.023000
-0.134057  -0.204000  1.020000
-0.131726  -0.203400  1.017000
-0.129789  -0.203400  1.017000
-0.127474  -0.202800  1.014000
-0.125543  -0.202800  1.014000
-0.123246  -0.202200  1.011000
-0.121320  -0.202200  1.011000
-0.119040  -0.201600  1.008000
-0.117120  -0.201600  1.008000
-0.115200  -0.201600  1.008000
-0.113280  -0.201600  1.008000
-0.111360  -0.201600  1.008000
-0.109440  -0.201600  1.008000
-0.107307  -0.201200  1.006000
-0.105390  -0.201200  1.006000
-0.103474  -0.201200  1.006000
-0.101255  -0.200600  1.003000
-0.099345  -0.200600  1.003000
-0.097434  -0.200600  1.003000
-0.095524  -0.200600  1.003000
-0.093333  -0.200000  1.000000
-0.091429  -0.200000  1.000000
-0.089255  -0.199400  0.997000
-0.087093  -0.198800  0.994000
-0.085200  -0.198800  0.994000
-0.083307  -0.198800  0.994000
-0.081413  -0.198800  0.994000
-0.079280  -0.198200  0.991000
-0.077392  -0.198200  0.991000
-0.075505  -0.198200  0.991000
-0.073617  -0.198200  0.991000
-0.071730  -0.198200  0.991000
-0.069842  -0.198200  0.991000
-0.067749  -0.197600  0.988000
-0.065867  -0.197600  0.988000
-0.063790  -0.197000  0.985000
-0.061914  -0.197000  0.985000
-0.059916  -0.196600  0.983000
-0.058044  -0.196600  0.983000
-0.056171  -0.196600  0.983000
-0.054133  -0.196000  0.980000
-0.052267  -0.196000  0.980000
-0.050400  -0.196000  0.980000
-0.048533  -0.196000  0.980000
-0.046667  -0.196000  0.980000
-0.044800  -0.196000  0.980000
-0.042802  -0.195400  0.977000
-0.040941  -0.195400  0.977000
-0.039080  -0.195400  0.977000
-0.037219  -0.195400  0.977000
-0.035250  -0.194800  0.974000
-0.033394  -0.194800  0.974000
-0.031539  -0.194800  0.974000
-0.029623  -0.194400  0.972000
-0.027771  -0.194400  0.972000
-0.025920  -0.194400  0.972000
-0.024069  -0.194400  0.972000
-0.022149  -0.193800  0.969000
-0.020303  -0.193800  0.969000
-0.018457  -0.193800  0.969000
-0.016611  -0.193800  0.969000
-0.014720  -0.193200  0.966000
-0.012880  -0.193200  0.966000
-0.011006  -0.192600  0.963000
-0.009171  -0.192600  0.963000
-0.007322  -0.192200  0.961000
-0.005491  -0.192200  0.961000
-0.003661  -0.192200  0.961000
-0.001825  -0.191600  0.958000
0.000000  -0.191600  0.958000
0.001819  -0.191000  0.955000
0.003638  -0.191000  0.955000
0.005457  -0.191000  0.955000
0.007276  -0.191000  0.955000
0.009076  -0.190600  0.953000
0.010891  -0.190600  0.953000
0.012667  -0.190000  0.950000
0.014476  -0.190000  0.950000
0.016286  -0.190000  0.950000
0.018057  -0.189600  0.948000
0.019863  -0.189600  0.948000
0.021669  -0.189600  0.948000
0.023474  -0.189600  0.948000
0.025280  -0.189600  0.948000
0.027086  -0.189600  0.948000
0.028891  -0.189600  0.948000
0.030697  -0.189600  0.948000
0.032503  -0.189600  0.948000
0.034381  -0.190000  0.950000
0.036305  -0.190600  0.953000
0.038200  -0.191000  0.955000
0.040145  -0.191600  0.958000
0.042101  -0.192200  0.961000
0.044160  -0.193200  0.966000
0.046286  -0.194400  0.972000
0.048236  -0.194800  0.974000
0.050246  -0.195400  0.977000
0.052267  -0.196000  0.980000
0.054410  -0.197000  0.985000
0.056629  -0.198200  0.991000
0.058870  -0.199400  0.997000
0.060770  -0.199400  0.997000
0.062857  -0.200000  1.000000
0.064956  -0.200600  1.003000
-0.571126  -0.226739  1.123000
-0.568987  -0.226739  1.123000
-0.566848  -0.226739  1.123000
-0.563200  -0.226133  1.120000
-0.561067  -0.226133  1.120000
-0.558933  -0.226133  1.120000
-0.556800  -0.226133  1.120000
-0.554667  -0.226133  1.120000
-0.552533  -0.226133  1.120000
-0.550400  -0.226133  1.120000
-0.548267  -0.226133  1.120000
-0.546133  -0.226133  1.120000
-0.545457  -0.226739  1.123000
-0.543318  -0.226739  1.123000
-0.541179  -0.226739  1.123000
-0.539040  -0.226739  1.123000
-0.536901  -0.226739  1.123000
-0.534762  -0.226739  1.123000
-0.532623  -0.226739  1.123000
-0.530484  -0.226739  1.123000
-0.530227  -0.227547  1.127000
-0.529954  -0.228354  1.131000
-0.529200  -0.228960  1.134000
-0.527040  -0.228960  1.134000
-0.528583  -0.230575  1.142000
-0.528251  -0.231383  1.146000
-0.526069  -0.231383  1.146000
-0.525714  -0.232190  1.150000
-0.524890  -0.232796  1.153000
-0.524507  -0.233604  1.157000
-0.522303  -0.233604  1.157000
-0.521897  -0.234411  1.161000
-0.521476  -0.235219  1.165000
-0.521040  -0.236027  1.169000
-0.518813  -0.236027  1.169000
-0.516587  -0.236027  1.169000
-0.514360  -0.236027  1.169000
-0.512133  -0.236027  1.169000
-0.509907  -0.236027  1.169000
-0.507680  -0.236027  1.169000
-0.349933  -0.182724  0.905000
-0.347440  -0.182320  0.903000
-0.345720  -0.182320  0.903000
-0.343238  -0.181916  0.901000
-0.341522  -0.181916  0.901000
-0.338674  -0.181310  0.898000
-0.336213  -0.180907  0.896000
-0.334507  -0.180907  0.896000
-0.332057  -0.180503  0.894000
-0.330354  -0.180503  0.894000
-0.327549  -0.179897  0.891000
-0.325851  -0.179897  0.891000
-0.325973  -0.180907  0.896000
-0.322457  -0.179897  0.891000
-0.320760  -0.179897  0.891000
-0.319063  -0.179897  0.891000
-0.316653  -0.179493  0.889000
-0.314960  -0.179493  0.889000
-0.313267  -0.179493  0.889000
-0.311573  -0.179493  0.889000
-0.309880  -0.179493  0.889000
-0.308880  -0.179897  0.891000
-0.307183  -0.179897  0.891000
-0.305486  -0.179897  0.891000
-0.303789  -0.179897  0.891000
-0.302091  -0.179897  0.891000
-0.300394  -0.179897  0.891000
-0.298697  -0.179897  0.891000
-0.297000  -0.179897  0.891000
-0.295303  -0.179897  0.891000
-0.294594  -0.180503  0.894000
-0.292891  -0.180503  0.894000
-0.291840  -0.180907  0.896000
-0.290133  -0.180907  0.896000
-0.288427  -0.180907  0.896000
-0.286720  -0.180907  0.896000
-0.285650  -0.181310  0.898000
-0.283939  -0.181310  0.898000
-0.282229  -0.181310  0.898000
-0.281455  -0.181916  0.901000
-0.279739  -0.181916  0.901000
-0.278640  -0.182320  0.903000
-0.277533  -0.182724  0.905000
-0.275810  -0.182724  0.905000
-0.274994  -0.183330  0.908000
-0.273265  -0.183330  0.908000
-0.272133  -0.183733  0.910000
-0.270400  -0.183733  0.910000
-0.269552  -0.184339  0.913000
-0.268400  -0.184743  0.915000
-0.267240  -0.185147  0.917000
-0.266362  -0.185752  0.920000
-0.265185  -0.186156  0.922000
-0.263429  -0.186156  0.922000
-0.261672  -0.186156  0.922000
-0.160876  -0.207962  1.030000
-0.158914  -0.207962  1.030000
-0.156952  -0.207962  1.030000
-0.154990  -0.207962  1.030000
-0.153029  -0.207962  1.030000
-0.151067  -0.207962  1.030000
-0.149105  -0.207962  1.030000
-0.146571  -0.207154  1.026000
-0.144617  -0.207154  1.026000
-0.142663  -0.207154  1.026000
-0.140709  -0.207154  1.026000
-0.138754  -0.207154  1.026000
-0.136400  -0.206549  1.023000
-0.134057  -0.205943  1.020000
-0.131726  -0.205337  1.017000
-0.129789  -0.205337  1.017000
-0.127474  -0.204731  1.014000
-0.125543  -0.204731  1.014000
-0.123246  -0.204126  1.011000
-0.121320  -0.204126  1.011000
-0.119040  -0.203520  1.008000
-0.117120  -0.203520  1.008000
-0.115200  -0.203520  1.008000
-0.113280  -0.203520  1.008000
-0.111139  -0.203116  1.006000
-0.109223  -0.203116  1.006000
-0.107307  -0.203116  1.006000
-0.105390  -0.203116  1.006000
-0.103474  -0.203116  1.006000
-0.101558  -0.203116  1.006000
-0.099642  -0.203116  1.006000
-0.097434  -0.202510  1.003000
-0.095524  -0.202510  1.003000
-0.093613  -0.202510  1.003000
-0.091429  -0.201905  1.000000
-0.089255  -0.201299  0.997000
-0.087093  -0.200693  0.994000
-0.085200  -0.200693  0.994000
-0.083307  -0.200693  0.994000
-0.081413  -0.200693  0.994000
-0.079280  -0.200088  0.991000
-0.077392  -0.200088  0.991000
-0.075505  -0.200088  0.991000
-0.073617  -0.200088  0.991000
-0.071730  -0.200088  0.991000
-0.069842  -0.200088  0.991000
-0.067749  -0.199482  0.988000
-0.065867  -0.199482  0.988000
-0.063790  -0.198876  0.985000
-0.061914  -0.198876  0.985000
-0.059916  -0.198472  0.983000
-0.058044  -0.198472  0.983000
-0.056171  -0.198472  0.983000
-0.054133  -0.197867  0.980000
-0.052267  -0.197867  0.980000
-0.050400  -0.197867  0.980000
-0.048533  -0.197867  0.980000
-0.046667  -0.197867  0.980000
-0.044800  -0.197867  0.980000
-0.042802  -0.197261  0.977000
-0.040941  -0.197261  0.977000
-0.039080  -0.197261  0.977000
-0.037219  -0.197261  0.977000
-0.035250  -0.196655  0.974000
-0.033394  -0.196655  0.974000
-0.031539  -0.196655  0.974000
-0.029623  -0.196251  0.972000
-0.027771  -0.196251  0.972000
-0.025920  -0.196251  0.972000
-0.023994  -0.195646  0.969000
-0.022149  -0.195646  0.969000
-0.020303  -0.195646  0.969000
-0.018457  -0.195646  0.969000
-0.016611  -0.195646  0.969000
-0.014766  -0.195646  0.969000
-0.012880  -0.195040  0.966000
-0.011006  -0.194434  0.963000
-0.009171  -0.194434  0.963000
-0.007322  -0.194030  0.961000
-0.005491  -0.194030  0.961000
-0.003661  -0.194030  0.961000
-0.001825  -0.193425  0.958000
0.000000  -0.193425  0.958000
0.001819  -0.192819  0.955000
0.003638  -0.192819  0.955000
0.005457  -0.192819  0.955000
0.007276  -0.192819  0.955000
0.009076  -0.192415  0.953000
0.010891  -0.192415  0.953000
0.012667  -0.191810  0.950000
0.014476  -0.191810  0.950000
0.016286  -0.191810  0.950000
0.018057  -0.191406  0.948000
0.019863  -0.191406  0.948000
0.021669  -0.191406  0.948000
0.023474  -0.191406  0.948000
0.025280  -0.191406  0.948000
0.027086  -0.191406  0.948000
0.028891  -0.191406  0.948000
0.030697  -0.191406  0.948000
0.032503  -0.191406  0.948000
0.034381  -0.191810  0.950000
0.036305  -0.192415  0.953000
0.038200  -0.192819  0.955000
0.040145  -0.193425  0.958000
0.042101  -0.194030  0.961000
0.044160  -0.195040  0.966000
0.046286  -0.196251  0.972000
0.048236  -0.196655  0.974000
0.050246  -0.197261  0.977000
0.052267  -0.197867  0.980000
0.054575  -0.199482  0.988000
0.056800  -0.200693  0.994000
0.058870  -0.201299  0.997000
0.060770  -0.201299  0.997000
0.062857  -0.201905  1.000000
0.064956  -0.202510  1.003000
-0.571126  -0.228878  1.123000
-0.568987  -0.228878  1.123000
-0.566848  -0.228878  1.123000
-0.563200  -0.228267  1.120000
-0.561067  -0.228267  1.120000
-0.558933  -0.228267  1.120000
-0.556800  -0.228267  1.120000
-0.554667  -0.228267  1.120000
-0.552533  -0.228267  1.120000
-0.550400  -0.228267  1.120000
-0.548267  -0.228267  1.120000
-0.546133  -0.228267  1.120000
-0.545457  -0.228878  1.123000
-0.543318  -0.228878  1.123000
-0.541179  -0.228878  1.123000
-0.539040  -0.228878  1.123000
-0.536901  -0.228878  1.123000
-0.534762  -0.228878  1.123000
-0.532623  -0.228878  1.123000
-0.530484  -0.228878  1.123000
-0.530227  -0.229693  1.127000
-0.528080  -0.229693  1.127000
-0.529200  -0.231120  1.134000
-0.527040  -0.231120  1.134000
-0.528583  -0.232750  1.142000
-0.528251  -0.233566  1.146000
-0.526069  -0.233566  1.146000
-0.525714  -0.234381  1.150000
-0.524890  -0.234992  1.153000
-0.524507  -0.235808  1.157000
-0.522303  -0.235808  1.157000
-0.521897  -0.236623  1.161000
-0.521476  -0.237438  1.165000
-0.519257  -0.237438  1.165000
-0.518813  -0.238253  1.169000
-0.516587  -0.238253  1.169000
-0.514360  -0.238253  1.169000
-0.510381  -0.237438  1.165000
-0.506417  -0.236623  1.161000
-0.504206  -0.236623  1.161000
-0.349933  -0.184448  0.905000
-0.347440  -0.184040  0.903000
-0.344954  -0.183632  0.901000
-0.343238  -0.183632  0.901000
-0.341522  -0.183632  0.901000
-0.338674  -0.183021  0.898000
-0.336964  -0.183021  0.898000
-0.334507  -0.182613  0.896000
-0.332800  -0.182613  0.896000
-0.331093  -0.182613  0.896000
-0.328651  -0.182206  0.894000
-0.326949  -0.182206  0.894000
-0.325973  -0.182613  0.896000
-0.323543  -0.182206  0.894000
-0.321840  -0.182206  0.894000
-0.319063  -0.181594  0.891000
-0.316653  -0.181187  0.889000
-0.314960  -0.181187  0.889000
-0.313267  -0.181187  0.889000
-0.311573  -0.181187  0.889000
-0.309880  -0.181187  0.889000
-0.308880  -0.181594  0.891000
-0.307183  -0.181594  0.891000
-0.305486  -0.181594  0.891000
-0.303789  -0.181594  0.891000
-0.302091  -0.181594  0.891000
-0.300394  -0.181594  0.891000
-0.298697  -0.181594  0.891000
-0.297000  -0.181594  0.891000
-0.296297  -0.182206  0.894000
-0.294594  -0.182206  0.894000
-0.292891  -0.182206  0.894000
-0.291189  -0.182206  0.894000
-0.289486  -0.182206  0.894000
-0.288427  -0.182613  0.896000
-0.286720  -0.182613  0.896000
-0.285650  -0.183021  0.898000
-0.283939  -0.183021  0.898000
-0.282229  -0.183021  0.898000
-0.280518  -0.183021  0.898000
-0.279739  -0.183632  0.901000
-0.278640  -0.184040  0.903000
-0.277533  -0.184448  0.905000
-0.275810  -0.184448  0.905000
-0.274994  -0.185059  0.908000
-0.273265  -0.185059  0.908000
-0.271535  -0.185059  0.908000
-0.270400  -0.185467  0.910000
-0.268667  -0.185467  0.910000
-0.268400  -0.186486  0.915000
-0.267240  -0.186893  0.917000
-0.266362  -0.187505  0.920000
-0.264610  -0.187505  0.920000
-0.263429  -0.187912  0.922000
-0.158914  -0.209924  1.030000
-0.156952  -0.209924  1.030000
-0.154990  -0.209924  1.030000
-0.153029  -0.209924  1.030000
-0.151067  -0.209924  1.030000
-0.148526  -0.209109  1.026000
-0.146571  -0.209109  1.026000
-0.144617  -0.209109  1.026000
-0.142663  -0.209109  1.026000
-0.140709  -0.209109  1.026000
-0.138349  -0.208497  1.023000
-0.136400  -0.208497  1.023000
-0.134057  -0.207886  1.020000
-0.131726  -0.207274  1.017000
-0.129789  -0.207274  1.017000
-0.127474  -0.206663  1.014000
-0.125543  -0.206663  1.014000
-0.123246  -0.206051  1.011000
-0.121320  -0.206051  1.011000
-0.119394  -0.206051  1.011000
-0.117120  -0.205440  1.008000
-0.115200  -0.205440  1.008000
-0.113280  -0.205440  1.008000
-0.111139  -0.205032  1.006000
-0.109223  -0.205032  1.006000
-0.107307  -0.205032  1.006000
-0.105390  -0.205032  1.006000
-0.103474  -0.205032  1.006000
-0.101558  -0.205032  1.006000
-0.099642  -0.205032  1.006000
-0.097434  -0.204421  1.003000
-0.095524  -0.204421  1.003000
-0.093613  -0.204421  1.003000
-0.091429  -0.203810  1.000000
-0.089255  -0.203198  0.997000
-0.087356  -0.203198  0.997000
-0.085200  -0.202587  0.994000
-0.083307  -0.202587  0.994000
-0.081413  -0.202587  0.994000
-0.079520  -0.202587  0.994000
-0.077392  -0.201975  0.991000
-0.075505  -0.201975  0.991000
-0.073617  -0.201975  0.991000
-0.071730  -0.201975  0.991000
-0.069842  -0.201975  0.991000
-0.067749  -0.201364  0.988000
-0.065867  -0.201364  0.988000
-0.063985  -0.201364  0.988000
-0.062103  -0.201364  0.988000
-0.060038  -0.200752  0.985000
-0.058162  -0.200752  0.985000
-0.056171  -0.200345  0.983000
-0.054299  -0.200345  0.983000
-0.052267  -0.199733  0.980000
-0.050400  -0.199733  0.980000
-0.048533  -0.199733  0.980000
-0.046667  -0.199733  0.980000
-0.044800  -0.199733  0.980000
-0.042802  -0.199122  0.977000
-0.040941  -0.199122  0.977000
-0.039080  -0.199122  0.977000
-0.037219  -0.199122  0.977000
-0.035250  -0.198510  0.974000
-0.033394  -0.198510  0.974000
-0.031474  -0.198103  0.972000
-0.029623  -0.198103  0.972000
-0.027771  -0.198103  0.972000
-0.025920  -0.198103  0.972000
-0.023994  -0.197491  0.969000
-0.022149  -0.197491  0.969000
-0.020303  -0.197491  0.969000
-0.018457  -0.197491  0.969000
-0.016611  -0.197491  0.969000
-0.014766  -0.197491  0.969000
-0.012880  -0.196880  0.966000
-0.011040  -0.196880  0.966000
-0.009171  -0.196269  0.963000
-0.007322  -0.195861  0.961000
-0.005491  -0.195861  0.961000
-0.003661  -0.195861  0.961000
-0.001825  -0.195250  0.958000
0.000000  -0.195250  0.958000
0.001825  -0.195250  0.958000
0.003650  -0.195250  0.958000
0.005474  -0.195250  0.958000
0.007276  -0.194638  0.955000
0.009076  -0.194230  0.953000
0.010891  -0.194230  0.953000
0.012707  -0.194230  0.953000
0.014476  -0.193619  0.950000
0.016286  -0.193619  0.950000
0.018095  -0.193619  0.950000
0.019863  -0.193211  0.948000
0.021669  -0.193211  0.948000
0.023474  -0.193211  0.948000
0.025280  -0.193211  0.948000
0.027086  -0.193211  0.948000
0.028891  -0.193211  0.948000
0.030697  -0.193211  0.948000
0.032503  -0.193211  0.948000
0.034381  -0.193619  0.950000
0.036305  -0.194230  0.953000
0.038200  -0.194638  0.955000
0.040145  -0.195250  0.958000
0.042101  -0.195861  0.961000
0.044160  -0.196880  0.966000
0.046286  -0.198103  0.972000
0.048236  -0.198510  0.974000
0.050246  -0.199122  0.977000
0.052427  -0.200345  0.983000
0.054575  -0.201364  0.988000
0.056629  -0.201975  0.991000
0.058693  -0.202587  0.994000
0.060770  -0.203198  0.997000
0.062857  -0.203810  1.000000
0.064762  -0.203810  1.000000
-0.571126  -0.231017  1.123000
-0.568987  -0.231017  1.123000
-0.566848  -0.231017  1.123000
-0.563200  -0.230400  1.120000
-0.561067  -0.230400  1.120000
-0.558933  -0.230400  1.120000
-0.556800  -0.230400  1.120000
-0.554667  -0.230400  1.120000
-0.552533  -0.230400  1.120000
-0.550400  -0.230400  1.120000
-0.548267  -0.230400  1.120000
-0.546133  -0.230400  1.120000
-0.544000  -0.230400  1.120000
-0.541867  -0.230400  1.120000
-0.539733  -0.230400  1.120000
-0.537600  -0.230400  1.120000
-0.536901  -0.231017  1.123000
-0.534762  -0.231017  1.123000
-0.531200  -0.230400  1.120000
-0.529067  -0.230400  1.120000
-0.528345  -0.231017  1.123000
-0.526206  -0.231017  1.123000
-0.527800  -0.232663  1.131000
-0.525646  -0.232663  1.131000
-0.526731  -0.234103  1.138000
-0.526408  -0.234926  1.142000
-0.526069  -0.235749  1.146000
-0.525714  -0.236571  1.150000
-0.524890  -0.237189  1.153000
-0.522693  -0.237189  1.153000
-0.520497  -0.237189  1.153000
-0.520099  -0.238011  1.157000
-0.519686  -0.238834  1.161000
-0.517474  -0.238834  1.161000
-0.517038  -0.239657  1.165000
-0.514819  -0.239657  1.165000
-0.512600  -0.239657  1.165000
-0.508629  -0.238834  1.161000
-0.506417  -0.238834  1.161000
-0.504206  -0.238834  1.161000
-0.349933  -0.186171  0.905000
-0.346670  -0.185349  0.901000
-0.344954  -0.185349  0.901000
-0.342095  -0.184731  0.898000
-0.340385  -0.184731  0.898000
-0.338674  -0.184731  0.898000
-0.336964  -0.184731  0.898000
-0.334507  -0.184320  0.896000
-0.332800  -0.184320  0.896000
-0.330354  -0.183909  0.894000
-0.328651  -0.183909  0.894000
-0.326949  -0.183909  0.894000
-0.325246  -0.183909  0.894000
-0.323543  -0.183909  0.894000
-0.321840  -0.183909  0.894000
-0.319063  -0.183291  0.891000
-0.317366  -0.183291  0.891000
-0.315669  -0.183291  0.891000
-0.313971  -0.183291  0.891000
-0.312274  -0.183291  0.891000
-0.310577  -0.183291  0.891000
-0.308880  -0.183291  0.891000
-0.307183  -0.183291  0.891000
-0.305486  -0.183291  0.891000
-0.303789  -0.183291  0.891000
-0.302091  -0.183291  0.891000
-0.300394  -0.183291  0.891000
-0.298697  -0.183291  0.891000
-0.297000  -0.183291  0.891000
-0.296297  -0.183909  0.894000
-0.294594  -0.183909  0.894000
-0.292891  -0.183909  0.894000
-0.291189  -0.183909  0.894000
-0.289486  -0.183909  0.894000
-0.288427  -0.184320  0.896000
-0.286720  -0.184320  0.896000
-0.285650  -0.184731  0.898000
-0.283939  -0.184731  0.898000
-0.282229  -0.184731  0.898000
-0.280518  -0.184731  0.898000
-0.278808  -0.184731  0.898000
-0.278023  -0.185349  0.901000
-0.276920  -0.185760  0.903000
-0.275810  -0.186171  0.905000
-0.274994  -0.186789  0.908000
-0.273265  -0.186789  0.908000
-0.271535  -0.186789  0.908000
-0.270400  -0.187200  0.910000
-0.268667  -0.187200  0.910000
-0.268400  -0.188229  0.915000
-0.267240  -0.188640  0.917000
-0.266362  -0.189257  0.920000
-0.264610  -0.189257  0.920000
-0.263429  -0.189669  0.922000
-0.158914  -0.211886  1.030000
-0.156952  -0.211886  1.030000
-0.154990  -0.211886  1.030000
-0.152434  -0.211063  1.026000
-0.150480  -0.211063  1.026000
-0.148526  -0.211063  1.026000
-0.146571  -0.211063  1.026000
-0.144617  -0.211063  1.026000
-0.142663  -0.211063  1.026000
-0.140709  -0.211063  1.026000
-0.138349  -0.210446  1.023000
-0.136400  -0.210446  1.023000
-0.134057  -0.209829  1.020000
-0.131726  -0.209211  1.017000
-0.129789  -0.209211  1.017000
-0.127474  -0.208594  1.014000
-0.125543  -0.208594  1.014000
-0.123246  -0.207977  1.011000
-0.121320  -0.207977  1.011000
-0.119394  -0.207977  1.011000
-0.117120  -0.207360  1.008000
-0.115200  -0.207360  1.008000
-0.113280  -0.207360  1.008000
-0.111139  -0.206949  1.006000
-0.109223  -0.206949  1.006000
-0.107307  -0.206949  1.006000
-0.105390  -0.206949  1.006000
-0.103474  -0.206949  1.006000
-0.101558  -0.206949  1.006000
-0.099642  -0.206949  1.006000
-0.097434  -0.206331  1.003000
-0.095524  -0.206331  1.003000
-0.093613  -0.206331  1.003000
-0.091429  -0.205714  1.000000
-0.089255  -0.205097  0.997000
-0.087356  -0.205097  0.997000
-0.085200  -0.204480  0.994000
-0.083307  -0.204480  0.994000
-0.081413  -0.204480  0.994000
-0.079520  -0.204480  0.994000
-0.077392  -0.203863  0.991000
-0.075505  -0.203863  0.991000
-0.073617  -0.203863  0.991000
-0.071730  -0.203863  0.991000
-0.069842  -0.203863  0.991000
-0.067749  -0.203246  0.988000
-0.065867  -0.203246  0.988000
-0.063985  -0.203246  0.988000
-0.062103  -0.203246  0.988000
-0.060038  -0.202629  0.985000
-0.058162  -0.202629  0.985000
-0.056171  -0.202217  0.983000
-0.054299  -0.202217  0.983000
-0.052267  -0.201600  0.980000
-0.050400  -0.201600  0.980000
-0.048533  -0.201600  0.980000
-0.046667  -0.201600  0.980000
-0.044800  -0.201600  0.980000
-0.042802  -0.200983  0.977000
-0.040941  -0.200983  0.977000
-0.039080  -0.200983  0.977000
-0.037219  -0.200983  0.977000
-0.035250  -0.200366  0.974000
-0.033326  -0.199954  0.972000
-0.031474  -0.199954  0.972000
-0.029623  -0.199954  0.972000
-0.027686  -0.199337  0.969000
-0.025840  -0.199337  0.969000
-0.023994  -0.199337  0.969000
-0.022149  -0.199337  0.969000
-0.020303  -0.199337  0.969000
-0.018457  -0.199337  0.969000
-0.016611  -0.199337  0.969000
-0.014766  -0.199337  0.969000
-0.012880  -0.198720  0.966000
-0.011040  -0.198720  0.966000
-0.009171  -0.198103  0.963000
-0.007322  -0.197691  0.961000
-0.005491  -0.197691  0.961000
-0.003661  -0.197691  0.961000
-0.001825  -0.197074  0.958000
0.000000  -0.197074  0.958000
0.001825  -0.197074  0.958000
0.003650  -0.197074  0.958000
0.005474  -0.197074  0.958000
0.007276  -0.196457  0.955000
0.009076  -0.196046  0.953000
0.010891  -0.196046  0.953000
0.012707  -0.196046  0.953000
0.014476  -0.195429  0.950000
0.016286  -0.195429  0.950000
0.018095  -0.195429  0.950000
0.019863  -0.195017  0.948000
0.021669  -0.195017  0.948000
0.023474  -0.195017  0.948000
0.025280  -0.195017  0.948000
0.027086  -0.195017  0.948000
0.028891  -0.195017  0.948000
0.030697  -0.195017  0.948000
0.032503  -0.195017  0.948000
0.034381  -0.195429  0.950000
0.036305  -0.196046  0.953000
0.038200  -0.196457  0.955000
0.040145  -0.197074  0.958000
0.042101  -0.197691  0.961000
0.044160  -0.198720  0.966000
0.046143  -0.199337  0.969000
0.048236  -0.200366  0.974000
0.050246  -0.200983  0.977000
0.052427  -0.202217  0.983000
0.054575  -0.203246  0.988000
0.056629  -0.203863  0.991000
0.058693  -0.204480  0.994000
0.060770  -0.205097  0.997000
0.062669  -0.205097  0.997000
0.064762  -0.205714  1.000000
-0.573160  -0.233987  1.127000
-0.571013  -0.233987  1.127000
-0.566848  -0.233156  1.123000
-0.564709  -0.233156  1.123000
-0.562569  -0.233156  1.123000
-0.560430  -0.233156  1.123000
-0.556800  -0.232533  1.120000
-0.554667  -0.232533  1.120000
-0.552533  -0.232533  1.120000
-0.550400  -0.232533  1.120000
-0.548267  -0.232533  1.120000
-0.546133  -0.232533  1.120000
-0.544000  -0.232533  1.120000
-0.541867  -0.232533  1.120000
-0.539733  -0.232533  1.120000
-0.537600  -0.232533  1.120000
-0.535467  -0.232533  1.120000
-0.533333  -0.232533  1.120000
-0.531200  -0.232533  1.120000
-0.529067  -0.232533  1.120000
-0.528345  -0.233156  1.123000
-0.526206  -0.233156  1.123000
-0.527800  -0.234817  1.131000
-0.525646  -0.234817  1.131000
-0.524880  -0.235440  1.134000
-0.526408  -0.237101  1.142000
-0.526069  -0.237931  1.146000
-0.523886  -0.237931  1.146000
-0.523524  -0.238762  1.150000
-0.521333  -0.238762  1.150000
-0.519143  -0.238762  1.150000
-0.518301  -0.239385  1.153000
-0.517895  -0.240215  1.157000
-0.517474  -0.241046  1.161000
-0.515263  -0.241046  1.161000
-0.513051  -0.241046  1.161000
-0.512600  -0.241876  1.165000
-0.508629  -0.241046  1.161000
-0.506417  -0.241046  1.161000
-0.349160  -0.187480  0.903000
-0.346670  -0.187065  0.901000
-0.344954  -0.187065  0.901000
-0.342095  -0.186442  0.898000
-0.340385  -0.186442  0.898000
-0.338674  -0.186442  0.898000
-0.336964  -0.186442  0.898000
-0.334507  -0.186027  0.896000
-0.332800  -0.186027  0.896000
-0.330354  -0.185611  0.894000
-0.328651  -0.185611  0.894000
-0.326949  -0.185611  0.894000
-0.325246  -0.185611  0.894000
-0.323543  -0.185611  0.894000
-0.321840  -0.185611  0.894000
-0.319063  -0.184989  0.891000
-0.317366  -0.184989  0.891000
-0.315669  -0.184989  0.891000
-0.313971  -0.184989  0.891000
-0.312274  -0.184989  0.891000
-0.310577  -0.184989  0.891000
-0.308880  -0.184989  0.891000
-0.307183  -0.184989  0.891000
-0.305486  -0.184989  0.891000
-0.303789  -0.184989  0.891000
-0.302091  -0.184989  0.891000
-0.300394  -0.184989  0.891000
-0.298697  -0.184989  0.891000
-0.297000  -0.184989  0.891000
-0.296297  -0.185611  0.894000
-0.295253  -0.186027  0.896000
-0.293547  -0.186027  0.896000
-0.291840  -0.186027  0.896000
-0.290133  -0.186027  0.896000
-0.288427  -0.186027  0.896000
-0.286720  -0.186027  0.896000
-0.285650  -0.186442  0.898000
-0.283939  -0.186442  0.898000
-0.282229  -0.186442  0.898000
-0.280518  -0.186442  0.898000
-0.278808  -0.186442  0.898000
-0.278023  -0.187065  0.901000
-0.276920  -0.187480  0.903000
-0.275810  -0.187895  0.905000
-0.274086  -0.187895  0.905000
-0.273265  -0.188518  0.908000
-0.271535  -0.188518  0.908000
-0.270400  -0.188933  0.910000
-0.268667  -0.188933  0.910000
-0.268400  -0.189971  0.915000
-0.267240  -0.190387  0.917000
-0.266362  -0.191010  0.920000
-0.264610  -0.191010  0.920000
-0.158914  -0.213848  1.030000
-0.156952  -0.213848  1.030000
-0.154990  -0.213848  1.030000
-0.152434  -0.213017  1.026000
-0.150480  -0.213017  1.026000
-0.148526  -0.213017  1.026000
-0.146571  -0.213017  1.026000
-0.144617  -0.213017  1.026000
-0.142663  -0.213017  1.026000
-0.140709  -0.213017  1.026000
-0.138349  -0.212394  1.023000
-0.136400  -0.212394  1.023000
-0.134057  -0.211771  1.020000
-0.132114  -0.211771  1.020000
-0.129789  -0.211149  1.017000
-0.127851  -0.211149  1.017000
-0.125543  -0.210526  1.014000
-0.123611  -0.210526  1.014000
-0.121680  -0.210526  1.014000
-0.119394  -0.209903  1.011000
-0.117469  -0.209903  1.011000
-0.115200  -0.209280  1.008000
-0.113280  -0.209280  1.008000
-0.111360  -0.209280  1.008000
-0.109223  -0.208865  1.006000
-0.107307  -0.208865  1.006000
-0.105390  -0.208865  1.006000
-0.103474  -0.208865  1.006000
-0.101558  -0.208865  1.006000
-0.099642  -0.208865  1.006000
-0.097434  -0.208242  1.003000
-0.095524  -0.208242  1.003000
-0.093333  -0.207619  1.000000
-0.091429  -0.207619  1.000000
-0.089255  -0.206996  0.997000
-0.087356  -0.206996  0.997000
-0.085457  -0.206996  0.997000
-0.083307  -0.206373  0.994000
-0.081413  -0.206373  0.994000
-0.079520  -0.206373  0.994000
-0.077392  -0.205750  0.991000
-0.075505  -0.205750  0.991000
-0.073617  -0.205750  0.991000
-0.071730  -0.205750  0.991000
-0.069842  -0.205750  0.991000
-0.067749  -0.205128  0.988000
-0.065867  -0.205128  0.988000
-0.063985  -0.205128  0.988000
-0.062103  -0.205128  0.988000
-0.060038  -0.204505  0.985000
-0.058162  -0.204505  0.985000
-0.056286  -0.204505  0.985000
-0.054299  -0.204090  0.983000
-0.052427  -0.204090  0.983000
-0.050400  -0.203467  0.980000
-0.048533  -0.203467  0.980000
-0.046667  -0.203467  0.980000
-0.044800  -0.203467  0.980000
-0.042933  -0.203467  0.980000
-0.041067  -0.203467  0.980000
-0.039200  -0.203467  0.980000
-0.037219  -0.202844  0.977000
-0.035250  -0.202221  0.974000
-0.033326  -0.201806  0.972000
-0.031474  -0.201806  0.972000
-0.029623  -0.201806  0.972000
-0.027686  -0.201183  0.969000
-0.025840  -0.201183  0.969000
-0.023994  -0.201183  0.969000
-0.022149  -0.201183  0.969000
-0.020303  -0.201183  0.969000
-0.018457  -0.201183  0.969000
-0.016611  -0.201183  0.969000
-0.014766  -0.201183  0.969000
-0.012880  -0.200560  0.966000
-0.011040  -0.200560  0.966000
-0.009171  -0.199937  0.963000
-0.007322  -0.199522  0.961000
-0.005491  -0.199522  0.961000
-0.003661  -0.199522  0.961000
-0.001825  -0.198899  0.958000
0.000000  -0.198899  0.958000
0.001825  -0.198899  0.958000
0.003650  -0.198899  0.958000
0.005474  -0.198899  0.958000
0.007276  -0.198276  0.955000
0.009076  -0.197861  0.953000
0.010891  -0.197861  0.953000
0.012707  -0.197861  0.953000
0.014476  -0.197238  0.950000
0.016286  -0.197238  0.950000
0.018095  -0.197238  0.950000
0.019905  -0.197238  0.950000
0.021714  -0.197238  0.950000
0.023474  -0.196823  0.948000
0.025280  -0.196823  0.948000
0.027086  -0.196823  0.948000
0.028891  -0.196823  0.948000
0.030697  -0.196823  0.948000
0.032503  -0.196823  0.948000
0.034381  -0.197238  0.950000
0.036305  -0.197861  0.953000
0.038200  -0.198276  0.955000
0.040270  -0.199522  0.961000
0.042189  -0.199937  0.963000
0.044160  -0.200560  0.966000
0.046143  -0.201183  0.969000
0.048137  -0.201806  0.972000
0.050246  -0.202844  0.977000
0.052267  -0.203467  0.980000
0.054575  -0.205128  0.988000
0.056629  -0.205750  0.991000
0.058693  -0.206373  0.994000
0.060770  -0.206996  0.997000
0.062669  -0.206996  0.997000
0.064762  -0.207619  1.000000
-0.578880  -0.237600  1.134000
-0.575194  -0.236971  1.131000
-0.571013  -0.236133  1.127000
-0.568867  -0.236133  1.127000
-0.564709  -0.235295  1.123000
-0.562569  -0.235295  1.123000
-0.560430  -0.235295  1.123000
-0.558291  -0.235295  1.123000
-0.554667  -0.234667  1.120000
-0.552533  -0.234667  1.120000
-0.550400  -0.234667  1.120000
-0.548267  -0.234667  1.120000
-0.546133  -0.234667  1.120000
-0.544000  -0.234667  1.120000
-0.541867  -0.234667  1.120000
-0.539733  -0.234667  1.120000
-0.537600  -0.234667  1.120000
-0.535467  -0.234667  1.120000
-0.533333  -0.234667  1.120000
-0.531200  -0.234667  1.120000
-0.529067  -0.234667  1.120000
-0.526933  -0.234667  1.120000
-0.524800  -0.234667  1.120000
-0.525933  -0.236133  1.127000
-0.523787  -0.236133  1.127000
-0.523491  -0.236971  1.131000
-0.524564  -0.238438  1.138000
-0.524232  -0.239276  1.142000
-0.522057  -0.239276  1.142000
-0.521703  -0.240114  1.146000
-0.519520  -0.240114  1.146000
-0.517337  -0.240114  1.146000
-0.516952  -0.240952  1.150000
-0.514762  -0.240952  1.150000
-0.513909  -0.241581  1.153000
-0.511712  -0.241581  1.153000
-0.509516  -0.241581  1.153000
-0.507320  -0.241581  1.153000
-0.505124  -0.241581  1.153000
-0.349160  -0.189200  0.903000
-0.346670  -0.188781  0.901000
-0.343806  -0.188152  0.898000
-0.342095  -0.188152  0.898000
-0.340385  -0.188152  0.898000
-0.338674  -0.188152  0.898000
-0.336213  -0.187733  0.896000
-0.334507  -0.187733  0.896000
-0.332800  -0.187733  0.896000
-0.331093  -0.187733  0.896000
-0.328651  -0.187314  0.894000
-0.326949  -0.187314  0.894000
-0.325246  -0.187314  0.894000
-0.323543  -0.187314  0.894000
-0.321840  -0.187314  0.894000
-0.320137  -0.187314  0.894000
-0.317366  -0.186686  0.891000
-0.315669  -0.186686  0.891000
-0.313971  -0.186686  0.891000
-0.312274  -0.186686  0.891000
-0.310577  -0.186686  0.891000
-0.308880  -0.186686  0.891000
-0.307183  -0.186686  0.891000
-0.305486  -0.186686  0.891000
-0.303789  -0.186686  0.891000
-0.302091  -0.186686  0.891000
