# .PCD v.5 - Point Cloud Data file format
FIELDS x y z 
SIZE 4 4 4
TYPE F F F
COUNT 1 1 1
WIDTH 1556
HEIGHT 1
POINTS 1556
DATA ascii
-0.443604  -0.294632  0.869000
-0.440931  -0.293954  0.867000
-0.433707  -0.290225  0.856000
-0.432076  -0.290225  0.856000
-0.430446  -0.290225  0.856000
-0.428815  -0.290225  0.856000
-0.426187  -0.289547  0.854000
-0.424560  -0.289547  0.854000
-0.423924  -0.290225  0.856000
-0.423280  -0.290903  0.858000
-0.421646  -0.290903  0.858000
-0.420990  -0.291581  0.860000
-0.420328  -0.292259  0.862000
-0.418686  -0.292259  0.862000
-0.418495  -0.293276  0.865000
-0.417811  -0.293954  0.867000
-0.416160  -0.293954  0.867000
-0.414509  -0.293954  0.867000
-0.412857  -0.293954  0.867000
-0.411206  -0.293954  0.867000
-0.409554  -0.293954  0.867000
-0.406962  -0.293276  0.865000
-0.405314  -0.293276  0.865000
-0.402267  -0.292259  0.862000
-0.398766  -0.290903  0.858000
-0.397131  -0.290903  0.858000
-0.396419  -0.291581  0.860000
-0.393863  -0.290903  0.858000
-0.390400  -0.289547  0.854000
-0.388773  -0.289547  0.854000
-0.387147  -0.289547  0.854000
-0.386423  -0.290225  0.856000
-0.385691  -0.290903  0.858000
-0.384952  -0.291581  0.860000
-0.381531  -0.290225  0.856000
-0.379901  -0.290225  0.856000
-0.384899  -0.295310  0.871000
-0.383240  -0.295310  0.871000
-0.382457  -0.295989  0.873000
-0.377305  -0.293276  0.865000
-0.375657  -0.293276  0.865000
-0.371848  -0.291581  0.860000
-0.370210  -0.291581  0.860000
-0.370714  -0.293276  0.865000
-0.369067  -0.293276  0.865000
-0.366145  -0.292259  0.862000
-0.311223  -0.249539  0.736000
-0.309821  -0.249539  0.736000
-0.306743  -0.248183  0.732000
-0.305349  -0.248183  0.732000
-0.302293  -0.246827  0.728000
-0.298427  -0.244792  0.722000
-0.297051  -0.244792  0.722000
-0.296905  -0.245810  0.725000
-0.294301  -0.244792  0.722000
-0.291709  -0.243775  0.719000
-0.289531  -0.243097  0.717000
-0.287764  -0.242758  0.716000
-0.286400  -0.242758  0.716000
-0.285036  -0.242758  0.716000
-0.282880  -0.242080  0.714000
-0.281520  -0.242080  0.714000
-0.279768  -0.241741  0.713000
-0.277238  -0.240724  0.710000
-0.274720  -0.239707  0.707000
-0.272600  -0.239029  0.705000
-0.270872  -0.238690  0.704000
-0.269531  -0.238690  0.704000
-0.268190  -0.238690  0.704000
-0.266470  -0.238350  0.703000
-0.264377  -0.237672  0.701000
-0.263042  -0.237672  0.701000
-0.260587  -0.236655  0.698000
-0.258886  -0.236316  0.697000
-0.256819  -0.235638  0.695000
-0.255128  -0.235299  0.694000
-0.253806  -0.235299  0.694000
-0.252120  -0.234960  0.693000
-0.250800  -0.234960  0.693000
-0.248760  -0.234282  0.691000
-0.247086  -0.233943  0.690000
-0.245415  -0.233604  0.689000
-0.244103  -0.233604  0.689000
-0.242790  -0.233604  0.689000
-0.241478  -0.233604  0.689000
-0.240166  -0.233604  0.689000
-0.239200  -0.233943  0.690000
-0.237886  -0.233943  0.690000
-0.236914  -0.234282  0.691000
-0.235598  -0.234282  0.691000
-0.234960  -0.234960  0.693000
-0.233977  -0.235299  0.694000
-0.232990  -0.235638  0.695000
-0.232333  -0.236316  0.697000
-0.231337  -0.236655  0.698000
-0.230008  -0.236655  0.698000
-0.229333  -0.237333  0.700000
-0.228000  -0.237333  0.700000
-0.226990  -0.237672  0.701000
-0.226299  -0.238350  0.703000
-0.225280  -0.238690  0.704000
-0.224893  -0.239707  0.707000
-0.223863  -0.240046  0.708000
-0.223143  -0.240724  0.710000
-0.221790  -0.240724  0.710000
-0.220749  -0.241063  0.711000
-0.219394  -0.241063  0.711000
-0.218653  -0.241741  0.713000
-0.217600  -0.242080  0.714000
-0.216846  -0.242758  0.716000
-0.215783  -0.243097  0.717000
-0.215015  -0.243775  0.719000
-0.213943  -0.244114  0.720000
-0.213162  -0.244792  0.722000
-0.211787  -0.244792  0.722000
-0.211286  -0.245810  0.725000
-0.210194  -0.246149  0.726000
-0.209387  -0.246827  0.728000
-0.208000  -0.246827  0.728000
-0.206897  -0.247166  0.729000
-0.205509  -0.247166  0.729000
-0.204680  -0.247844  0.731000
-0.203288  -0.247844  0.731000
-0.202171  -0.248183  0.732000
-0.201874  -0.249539  0.736000
-0.200472  -0.249539  0.736000
-0.199341  -0.249878  0.737000
-0.197937  -0.249878  0.737000
-0.197333  -0.250895  0.740000
-0.196453  -0.251573  0.742000
-0.195303  -0.251912  0.743000
-0.194410  -0.252590  0.745000
-0.193509  -0.253269  0.747000
-0.192343  -0.253608  0.748000
-0.191429  -0.254286  0.750000
-0.190507  -0.254964  0.752000
-0.189326  -0.255303  0.753000
-0.188390  -0.255981  0.755000
-0.186952  -0.255981  0.755000
-0.185760  -0.256320  0.756000
-0.184320  -0.256320  0.756000
-0.183364  -0.256998  0.758000
-0.182400  -0.257676  0.760000
-0.181190  -0.258015  0.761000
-0.179741  -0.258015  0.761000
-0.178760  -0.258693  0.763000
-0.177307  -0.258693  0.763000
-0.176314  -0.259371  0.765000
-0.175314  -0.260050  0.767000
-0.174080  -0.260389  0.768000
-0.173067  -0.261067  0.770000
-0.172046  -0.261745  0.772000
-0.170796  -0.262084  0.773000
-0.169762  -0.262762  0.775000
-0.168720  -0.263440  0.777000
-0.167240  -0.263440  0.777000
-0.166187  -0.264118  0.779000
-0.164914  -0.264457  0.780000
-0.163848  -0.265135  0.782000
-0.162773  -0.265813  0.784000
-0.161691  -0.266491  0.786000
-0.160806  -0.267509  0.789000
-0.159707  -0.268187  0.791000
-0.158200  -0.268187  0.791000
-0.157090  -0.268865  0.793000
-0.155579  -0.268865  0.793000
-0.154457  -0.269543  0.795000
-0.153328  -0.270221  0.797000
-0.152000  -0.270560  0.798000
-0.162171  -0.291581  0.860000
-0.160533  -0.291581  0.860000
-0.159265  -0.292259  0.862000
-0.157623  -0.292259  0.862000
-0.156524  -0.293276  0.865000
-0.155234  -0.293954  0.867000
-0.153937  -0.294632  0.869000
-0.152983  -0.295989  0.873000
-0.151320  -0.295989  0.873000
-0.149657  -0.295989  0.873000
-0.149181  -0.298362  0.880000
-0.146667  -0.296667  0.875000
-0.145000  -0.296667  0.875000
-0.143333  -0.296667  0.875000
-0.141667  -0.296667  0.875000
-0.139360  -0.295310  0.871000
-0.137701  -0.295310  0.871000
-0.136042  -0.295310  0.871000
-0.134383  -0.295310  0.871000
-0.132724  -0.295310  0.871000
-0.131065  -0.295310  0.871000
-0.129109  -0.294632  0.869000
-0.127453  -0.294632  0.869000
-0.126088  -0.295310  0.871000
-0.125000  -0.296667  0.875000
-0.121501  -0.292259  0.862000
-0.119859  -0.292259  0.862000
-0.118217  -0.292259  0.862000
-0.116575  -0.292259  0.862000
-0.114933  -0.292259  0.862000
-0.113291  -0.292259  0.862000
-0.111650  -0.292259  0.862000
-0.110008  -0.292259  0.862000
-0.108366  -0.292259  0.862000
-0.107590  -0.294632  0.869000
-0.106179  -0.295310  0.871000
-0.104520  -0.295310  0.871000
-0.102861  -0.295310  0.871000
-0.100737  -0.293954  0.867000
-0.099086  -0.293954  0.867000
-0.097659  -0.294632  0.869000
-0.096225  -0.295310  0.871000
-0.095000  -0.296667  0.875000
-0.093653  -0.297684  0.878000
-0.092400  -0.299040  0.882000
-0.090720  -0.299040  0.882000
-0.086415  -0.290225  0.856000
-0.085379  -0.292259  0.862000
-0.083737  -0.292259  0.862000
-0.082095  -0.292259  0.862000
-0.080453  -0.292259  0.862000
-0.078811  -0.292259  0.862000
-0.077170  -0.292259  0.862000
-0.075790  -0.293276  0.865000
-0.074143  -0.293276  0.865000
-0.072663  -0.293954  0.867000
-0.071175  -0.294632  0.869000
-0.069520  -0.294632  0.869000
-0.068333  -0.296667  0.875000
-0.066895  -0.297684  0.878000
-0.065223  -0.297684  0.878000
-0.063550  -0.297684  0.878000
-0.060187  -0.289547  0.854000
-0.058560  -0.289547  0.854000
-0.056933  -0.289547  0.854000
-0.055307  -0.289547  0.854000
-0.053680  -0.289547  0.854000
-0.052053  -0.289547  0.854000
-0.050427  -0.289547  0.854000
-0.048800  -0.289547  0.854000
-0.048112  -0.295310  0.871000
-0.046453  -0.295310  0.871000
-0.044794  -0.295310  0.871000
-0.043135  -0.295310  0.871000
-0.041476  -0.295310  0.871000
-0.039817  -0.295310  0.871000
-0.038158  -0.295310  0.871000
-0.036583  -0.295989  0.873000
-0.034920  -0.295989  0.873000
-0.033257  -0.295989  0.873000
-0.031775  -0.297684  0.878000
-0.030103  -0.297684  0.878000
-0.028430  -0.297684  0.878000
-0.026819  -0.298362  0.880000
-0.025143  -0.298362  0.880000
-0.023413  -0.297684  0.878000
-0.021741  -0.297684  0.878000
-0.020069  -0.297684  0.878000
-0.018396  -0.297684  0.878000
-0.014133  -0.251573  0.742000
-0.012720  -0.251573  0.742000
-0.011307  -0.251573  0.742000
-0.009893  -0.251573  0.742000
-0.008480  -0.251573  0.742000
-0.007067  -0.251573  0.742000
-0.005653  -0.251573  0.742000
-0.004240  -0.251573  0.742000
-0.002827  -0.251573  0.742000
-0.001413  -0.251573  0.742000
0.000000  -0.251573  0.742000
0.001370  -0.243775  0.719000
0.002739  -0.243775  0.719000
0.004114  -0.244114  0.720000
0.005509  -0.245131  0.723000
0.006905  -0.245810  0.725000
0.008286  -0.245810  0.725000
0.009640  -0.245131  0.723000
0.011017  -0.245131  0.723000
0.012394  -0.245131  0.723000
0.013752  -0.244792  0.722000
0.015128  -0.244792  0.722000
0.016457  -0.244114  0.720000
0.017829  -0.244114  0.720000
0.019200  -0.244114  0.720000
0.020543  -0.243775  0.719000
0.021912  -0.243775  0.719000
0.023282  -0.243775  0.719000
0.024651  -0.243775  0.719000
0.026021  -0.243775  0.719000
0.027390  -0.243775  0.719000
0.028760  -0.243775  0.719000
0.030130  -0.243775  0.719000
0.031499  -0.243775  0.719000
0.032869  -0.243775  0.719000
0.034238  -0.243775  0.719000
0.035608  -0.243775  0.719000
0.036977  -0.243775  0.719000
0.038347  -0.243775  0.719000
0.039771  -0.244114  0.720000
0.041143  -0.244114  0.720000
0.042514  -0.244114  0.720000
0.043886  -0.244114  0.720000
0.045257  -0.244114  0.720000
0.046629  -0.244114  0.720000
0.048000  -0.244114  0.720000
0.049371  -0.244114  0.720000
0.050743  -0.244114  0.720000
0.052259  -0.244792  0.722000
0.053634  -0.244792  0.722000
0.055010  -0.244792  0.722000
0.056463  -0.245131  0.723000
0.057840  -0.245131  0.723000
0.059381  -0.245810  0.725000
0.060846  -0.246149  0.726000
0.062400  -0.246827  0.728000
0.063874  -0.247166  0.729000
0.065263  -0.247166  0.729000
0.066834  -0.247844  0.731000
0.068320  -0.248183  0.732000
0.069905  -0.248861  0.734000
0.071594  -0.249878  0.737000
0.072998  -0.249878  0.737000
0.074705  -0.250895  0.740000
0.076423  -0.251912  0.743000
0.077838  -0.251912  0.743000
0.079253  -0.251912  0.743000
0.107032  -0.297684  0.878000
0.108705  -0.297684  0.878000
0.110377  -0.297684  0.878000
0.112050  -0.297684  0.878000
0.113722  -0.297684  0.878000
0.115000  -0.296667  0.875000
0.116400  -0.295989  0.873000
0.118063  -0.295989  0.873000
0.120000  -0.296667  0.875000
0.121389  -0.295989  0.873000
0.123051  -0.295989  0.873000
0.124429  -0.295310  0.871000
0.126088  -0.295310  0.871000
0.127747  -0.295310  0.871000
0.129703  -0.295989  0.873000
0.131065  -0.295310  0.871000
0.132419  -0.294632  0.869000
0.134074  -0.294632  0.869000
0.136042  -0.295310  0.871000
0.138017  -0.295989  0.873000
0.139680  -0.295989  0.873000
0.142152  -0.297684  0.878000
0.143333  -0.296667  0.875000
0.145000  -0.296667  0.875000
0.146667  -0.296667  0.875000
0.148333  -0.296667  0.875000
0.151200  -0.299040  0.882000
0.152880  -0.299040  0.882000
0.151931  -0.293954  0.867000
0.153583  -0.293954  0.867000
0.155234  -0.293954  0.867000
0.156886  -0.293954  0.867000
0.158537  -0.293954  0.867000
0.160189  -0.293954  0.867000
0.162587  -0.295310  0.871000
0.164623  -0.295989  0.873000
0.165905  -0.295310  0.871000
0.167564  -0.295310  0.871000
0.169611  -0.295989  0.873000
0.171667  -0.296667  0.875000
0.174324  -0.298362  0.880000
0.176000  -0.298362  0.880000
0.176667  -0.296667  0.875000
0.178333  -0.296667  0.875000
0.181029  -0.298362  0.880000
0.182705  -0.298362  0.880000
0.183962  -0.297684  0.878000
0.185634  -0.297684  0.878000
0.187733  -0.298362  0.880000
0.189840  -0.299040  0.882000
0.191520  -0.299040  0.882000
0.193638  -0.299718  0.884000
0.195985  -0.300735  0.887000
0.197674  -0.300735  0.887000
0.199364  -0.300735  0.887000
0.201053  -0.300735  0.887000
0.202743  -0.300735  0.887000
0.199823  -0.293954  0.867000
0.201474  -0.293954  0.867000
0.204063  -0.295310  0.871000
0.205722  -0.295310  0.871000
0.206905  -0.294632  0.869000
0.208080  -0.293954  0.867000
0.209248  -0.293276  0.865000
0.210895  -0.293276  0.865000
0.213034  -0.293954  0.867000
0.214190  -0.293276  0.865000
0.215090  -0.292259  0.862000
0.216731  -0.292259  0.862000
0.218373  -0.292259  0.862000
0.220781  -0.293276  0.865000
0.222429  -0.293276  0.865000
0.223299  -0.292259  0.862000
0.224941  -0.292259  0.862000
-0.509147  -0.291173  0.854000
-0.507520  -0.291173  0.854000
-0.505893  -0.291173  0.854000
-0.506629  -0.292537  0.858000
-0.506171  -0.293219  0.860000
-0.505707  -0.293901  0.862000
-0.506989  -0.295606  0.867000
-0.505337  -0.295606  0.867000
-0.504848  -0.296288  0.869000
-0.500876  -0.294924  0.865000
-0.496343  -0.293219  0.860000
-0.494705  -0.293219  0.860000
-0.495933  -0.294924  0.865000
-0.491429  -0.293219  0.860000
-0.489790  -0.293219  0.860000
-0.488152  -0.293219  0.860000
-0.486514  -0.293219  0.860000
-0.484876  -0.293219  0.860000
-0.484362  -0.293901  0.862000
-0.488880  -0.297651  0.873000
-0.473265  -0.289128  0.848000
-0.469981  -0.288105  0.845000
-0.467263  -0.287423  0.843000
-0.465657  -0.287423  0.843000
-0.469006  -0.290491  0.852000
-0.467383  -0.290491  0.852000
-0.465760  -0.290491  0.852000
-0.465227  -0.291173  0.854000
-0.463600  -0.291173  0.854000
-0.464137  -0.292537  0.858000
-0.463581  -0.293219  0.860000
-0.461943  -0.293219  0.860000
-0.460305  -0.293219  0.860000
-0.458667  -0.293219  0.860000
-0.455966  -0.292537  0.858000
-0.454331  -0.292537  0.858000
-0.452697  -0.292537  0.858000
-0.451063  -0.292537  0.858000
-0.449429  -0.292537  0.858000
-0.447794  -0.292537  0.858000
-0.446160  -0.292537  0.858000
-0.444526  -0.292537  0.858000
-0.443924  -0.293219  0.860000
-0.442286  -0.293219  0.860000
-0.443210  -0.294924  0.865000
-0.443604  -0.296288  0.869000
-0.439914  -0.294924  0.865000
-0.431680  -0.290491  0.852000
-0.430057  -0.290491  0.852000
-0.429440  -0.291173  0.854000
-0.427813  -0.291173  0.854000
-0.426187  -0.291173  0.854000
-0.424560  -0.291173  0.854000
-0.422933  -0.291173  0.854000
-0.421307  -0.291173  0.854000
-0.419680  -0.291173  0.854000
-0.419032  -0.291855  0.856000
-0.418377  -0.292537  0.858000
-0.416743  -0.292537  0.858000
-0.416076  -0.293219  0.860000
-0.415402  -0.293901  0.862000
-0.413760  -0.293901  0.862000
-0.413552  -0.294924  0.865000
-0.410476  -0.293901  0.862000
-0.408834  -0.293901  0.862000
-0.407192  -0.293901  0.862000
-0.404610  -0.293219  0.860000
-0.402971  -0.293219  0.860000
-0.399467  -0.291855  0.856000
-0.397836  -0.291855  0.856000
-0.396206  -0.291855  0.856000
-0.395497  -0.292537  0.858000
-0.391109  -0.290491  0.852000
-0.389486  -0.290491  0.852000
-0.387863  -0.290491  0.852000
-0.386240  -0.290491  0.852000
-0.385520  -0.291173  0.854000
-0.384792  -0.291855  0.856000
-0.382267  -0.291173  0.854000
-0.380640  -0.291173  0.854000
-0.379901  -0.291855  0.856000
-0.377387  -0.291173  0.854000
-0.375760  -0.291173  0.854000
-0.373257  -0.290491  0.852000
-0.371634  -0.290491  0.852000
-0.371749  -0.291855  0.856000
-0.370983  -0.292537  0.858000
-0.369349  -0.292537  0.858000
-0.366857  -0.291855  0.856000
-0.365227  -0.291855  0.856000
-0.364446  -0.292537  0.858000
-0.362811  -0.292537  0.858000
-0.309821  -0.250941  0.736000
-0.306324  -0.249236  0.731000
-0.304931  -0.249236  0.731000
-0.302293  -0.248213  0.728000
-0.298427  -0.246168  0.722000
-0.297051  -0.246168  0.722000
-0.297314  -0.247531  0.726000
-0.294301  -0.246168  0.722000
-0.291709  -0.245145  0.719000
-0.289531  -0.244463  0.717000
-0.287764  -0.244122  0.716000
-0.286400  -0.244122  0.716000
-0.284240  -0.243440  0.714000
-0.282880  -0.243440  0.714000
-0.281520  -0.243440  0.714000
-0.279768  -0.243099  0.713000
-0.277238  -0.242076  0.710000
-0.274720  -0.241053  0.707000
-0.272600  -0.240371  0.705000
-0.270872  -0.240030  0.704000
-0.269531  -0.240030  0.704000
-0.267810  -0.239690  0.703000
-0.266470  -0.239690  0.703000
-0.264377  -0.239008  0.701000
-0.262667  -0.238667  0.700000
-0.260587  -0.237985  0.698000
-0.258886  -0.237644  0.697000
-0.257558  -0.237644  0.697000
-0.255128  -0.236621  0.694000
-0.253806  -0.236621  0.694000
-0.252120  -0.236280  0.693000
-0.250076  -0.235598  0.691000
-0.248760  -0.235598  0.691000
-0.247086  -0.235257  0.690000
-0.245415  -0.234916  0.689000
-0.244103  -0.234916  0.689000
-0.242790  -0.234916  0.689000
-0.241478  -0.234916  0.689000
-0.240166  -0.234916  0.689000
-0.239200  -0.235257  0.690000
-0.237886  -0.235257  0.690000
-0.236914  -0.235598  0.691000
-0.235598  -0.235598  0.691000
-0.234960  -0.236280  0.693000
-0.233977  -0.236621  0.694000
-0.232990  -0.236962  0.695000
-0.232333  -0.237644  0.697000
-0.231337  -0.237985  0.698000
-0.230008  -0.237985  0.698000
-0.229333  -0.238667  0.700000
-0.228000  -0.238667  0.700000
-0.226990  -0.239008  0.701000
-0.226299  -0.239690  0.703000
-0.225280  -0.240030  0.704000
-0.224893  -0.241053  0.707000
-0.223863  -0.241394  0.708000
-0.223143  -0.242076  0.710000
-0.221790  -0.242076  0.710000
-0.220749  -0.242417  0.711000
-0.220011  -0.243099  0.713000
-0.218653  -0.243099  0.713000
-0.217600  -0.243440  0.714000
-0.216846  -0.244122  0.716000
-0.215783  -0.244463  0.717000
-0.215314  -0.245486  0.720000
-0.213943  -0.245486  0.720000
-0.213162  -0.246168  0.722000
-0.211787  -0.246168  0.722000
-0.211286  -0.247190  0.725000
-0.210194  -0.247531  0.726000
-0.209387  -0.248213  0.728000
-0.208000  -0.248213  0.728000
-0.206897  -0.248554  0.729000
-0.205509  -0.248554  0.729000
-0.204680  -0.249236  0.731000
-0.203288  -0.249236  0.731000
-0.202724  -0.250259  0.734000
-0.201874  -0.250941  0.736000
-0.200472  -0.250941  0.736000
-0.199341  -0.251282  0.737000
-0.197937  -0.251282  0.737000
-0.197333  -0.252305  0.740000
-0.196453  -0.252987  0.742000
-0.195303  -0.253328  0.743000
-0.194931  -0.254691  0.747000
-0.193768  -0.255032  0.748000
-0.192343  -0.255032  0.748000
-0.191429  -0.255714  0.750000
-0.190507  -0.256396  0.752000
-0.189326  -0.256737  0.753000
-0.188390  -0.257419  0.755000
-0.186952  -0.257419  0.755000
-0.185760  -0.257760  0.756000
-0.184320  -0.257760  0.756000
-0.183364  -0.258442  0.758000
-0.182400  -0.259124  0.760000
-0.181190  -0.259465  0.761000
-0.179741  -0.259465  0.761000
-0.178760  -0.260147  0.763000
-0.177307  -0.260147  0.763000
-0.176314  -0.260829  0.765000
-0.175314  -0.261510  0.767000
-0.174080  -0.261851  0.768000
-0.173067  -0.262533  0.770000
-0.172269  -0.263556  0.773000
-0.171238  -0.264238  0.775000
-0.169762  -0.264238  0.775000
-0.168720  -0.264920  0.777000
-0.167240  -0.264920  0.777000
-0.166187  -0.265602  0.779000
-0.164914  -0.265943  0.780000
-0.163848  -0.266625  0.782000
-0.162773  -0.267307  0.784000
-0.161691  -0.267989  0.786000
-0.160806  -0.269011  0.789000
-0.159707  -0.269693  0.791000
-0.158200  -0.269693  0.791000
-0.157090  -0.270375  0.793000
-0.155971  -0.271057  0.795000
-0.154457  -0.271057  0.795000
-0.153328  -0.271739  0.797000
-0.152000  -0.272080  0.798000
-0.161794  -0.292537  0.858000
-0.160160  -0.292537  0.858000
-0.158895  -0.293219  0.860000
-0.157257  -0.293219  0.860000
-0.155981  -0.293901  0.862000
-0.154339  -0.293901  0.862000
-0.150217  -0.289128  0.848000
-0.148602  -0.289128  0.848000
-0.147333  -0.289810  0.850000
-0.149657  -0.297651  0.873000
-0.147994  -0.297651  0.873000
-0.146667  -0.298333  0.875000
-0.145000  -0.298333  0.875000
-0.143333  -0.298333  0.875000
-0.141667  -0.298333  0.875000
-0.139360  -0.296970  0.871000
-0.135013  -0.291173  0.854000
-0.133387  -0.291173  0.854000
-0.131760  -0.291173  0.854000
-0.129829  -0.290491  0.852000
-0.128206  -0.290491  0.852000
-0.127474  -0.292537  0.858000
-0.127160  -0.295606  0.867000
-0.125798  -0.296288  0.869000
-0.123857  -0.295606  0.867000
-0.120937  -0.292537  0.858000
-0.119303  -0.292537  0.858000
-0.117943  -0.293219  0.860000
-0.116305  -0.293219  0.860000
-0.114667  -0.293219  0.860000
-0.112503  -0.291855  0.856000
-0.110872  -0.291855  0.856000
-0.109497  -0.292537  0.858000
-0.108114  -0.293219  0.860000
-0.106724  -0.293901  0.862000
-0.105691  -0.295606  0.867000
-0.104040  -0.295606  0.867000
-0.102389  -0.295606  0.867000
-0.100737  -0.295606  0.867000
-0.099086  -0.295606  0.867000
-0.097434  -0.295606  0.867000
-0.096004  -0.296288  0.869000
-0.095000  -0.298333  0.875000
-0.093653  -0.299356  0.878000
-0.091981  -0.299356  0.878000
-0.088251  -0.292537  0.858000
-0.086415  -0.291855  0.856000
-0.084785  -0.291855  0.856000
-0.083154  -0.291855  0.856000
-0.081714  -0.292537  0.858000
-0.080267  -0.293219  0.860000
-0.078629  -0.293219  0.860000
-0.076990  -0.293219  0.860000
-0.075528  -0.293901  0.862000
-0.073886  -0.293901  0.862000
-0.072244  -0.293901  0.862000
-0.070602  -0.293901  0.862000
-0.068320  -0.291173  0.854000
-0.066693  -0.291173  0.854000
-0.065067  -0.291173  0.854000
-0.063589  -0.291855  0.856000
-0.061958  -0.291855  0.856000
-0.060187  -0.291173  0.854000
-0.058560  -0.291173  0.854000
-0.056933  -0.291173  0.854000
-0.055307  -0.291173  0.854000
-0.053680  -0.291173  0.854000
-0.052053  -0.291173  0.854000
-0.050427  -0.291173  0.854000
-0.048800  -0.291173  0.854000
-0.047173  -0.291173  0.854000
-0.045547  -0.291173  0.854000
-0.044023  -0.291855  0.856000
-0.042392  -0.291855  0.856000
-0.041476  -0.296970  0.871000
-0.039726  -0.296288  0.869000
-0.038070  -0.296288  0.869000
-0.036499  -0.296970  0.871000
-0.034840  -0.296970  0.871000
-0.033181  -0.296970  0.871000
-0.031522  -0.296970  0.871000
-0.029863  -0.296970  0.871000
-0.028204  -0.296970  0.871000
-0.026027  -0.291173  0.854000
-0.024400  -0.291173  0.854000
-0.023280  -0.297651  0.873000
-0.021667  -0.298333  0.875000
-0.019954  -0.297651  0.873000
-0.018291  -0.297651  0.873000
-0.014133  -0.252987  0.742000
-0.012720  -0.252987  0.742000
-0.011307  -0.252987  0.742000
-0.009893  -0.252987  0.742000
-0.008457  -0.252305  0.740000
-0.007048  -0.252305  0.740000
-0.005653  -0.252987  0.742000
-0.004240  -0.252987  0.742000
-0.002819  -0.252305  0.740000
-0.001410  -0.252305  0.740000
0.000000  -0.252305  0.740000
0.001371  -0.245486  0.720000
0.002743  -0.245486  0.720000
0.004126  -0.246168  0.722000
0.005509  -0.246509  0.723000
0.006905  -0.247190  0.725000
0.008286  -0.247190  0.725000
0.009667  -0.247190  0.725000
0.011048  -0.247190  0.725000
0.012429  -0.247190  0.725000
0.013771  -0.246509  0.723000
0.015128  -0.246168  0.722000
0.016457  -0.245486  0.720000
0.017829  -0.245486  0.720000
0.019200  -0.245486  0.720000
0.020543  -0.245145  0.719000
0.021912  -0.245145  0.719000
0.023282  -0.245145  0.719000
0.024651  -0.245145  0.719000
0.026021  -0.245145  0.719000
0.027390  -0.245145  0.719000
0.028760  -0.245145  0.719000
0.030130  -0.245145  0.719000
0.031499  -0.245145  0.719000
0.032869  -0.245145  0.719000
0.034238  -0.245145  0.719000
0.035608  -0.245145  0.719000
0.036977  -0.245145  0.719000
0.038347  -0.245145  0.719000
0.039771  -0.245486  0.720000
0.041143  -0.245486  0.720000
0.042514  -0.245486  0.720000
0.044008  -0.246168  0.722000
0.045383  -0.246168  0.722000
0.046629  -0.245486  0.720000
0.048000  -0.245486  0.720000
0.049509  -0.246168  0.722000
0.050884  -0.246168  0.722000
0.052259  -0.246168  0.722000
0.053634  -0.246168  0.722000
0.055010  -0.246168  0.722000
0.056463  -0.246509  0.723000
0.058000  -0.247190  0.725000
0.059381  -0.247190  0.725000
0.060846  -0.247531  0.726000
0.062400  -0.248213  0.728000
0.063874  -0.248554  0.729000
0.065263  -0.248554  0.729000
0.066834  -0.249236  0.731000
0.068320  -0.249577  0.732000
0.069905  -0.250259  0.734000
0.071594  -0.251282  0.737000
0.072998  -0.251282  0.737000
0.074705  -0.252305  0.740000
0.076423  -0.253328  0.743000
0.077838  -0.253328  0.743000
0.079253  -0.253328  0.743000
0.081103  -0.254691  0.747000
0.108952  -0.300038  0.880000
0.110629  -0.300038  0.880000
0.112305  -0.300038  0.880000
0.113722  -0.299356  0.878000
0.115000  -0.298333  0.875000
0.116400  -0.297651  0.873000
0.118063  -0.297651  0.873000
0.120000  -0.298333  0.875000
0.121389  -0.297651  0.873000
0.122488  -0.296288  0.869000
0.123857  -0.295606  0.867000
0.125509  -0.295606  0.867000
0.127453  -0.296288  0.869000
0.126583  -0.290491  0.852000
0.128206  -0.290491  0.852000
0.130743  -0.292537  0.858000
0.132377  -0.292537  0.858000
0.134011  -0.292537  0.858000
0.135646  -0.292537  0.858000
0.136640  -0.291173  0.854000
0.138267  -0.291173  0.854000
0.140549  -0.292537  0.858000
0.144006  -0.296288  0.869000
0.145661  -0.296288  0.869000
0.145790  -0.293219  0.860000
0.147429  -0.293219  0.860000
0.149933  -0.294924  0.865000
0.151581  -0.294924  0.865000
0.153583  -0.295606  0.867000
0.154876  -0.294924  0.865000
0.156524  -0.294924  0.865000
0.158537  -0.295606  0.867000
0.160189  -0.295606  0.867000
0.162213  -0.296288  0.869000
0.163869  -0.296288  0.869000
0.165524  -0.296288  0.869000
0.167179  -0.296288  0.869000
0.169223  -0.296970  0.871000
0.170882  -0.296970  0.871000
0.174324  -0.300038  0.880000
0.176000  -0.300038  0.880000
0.175455  -0.296288  0.869000
0.177110  -0.296288  0.869000
0.181029  -0.300038  0.880000
0.179590  -0.294924  0.865000
0.181238  -0.294924  0.865000
0.182886  -0.294924  0.865000
0.184533  -0.294924  0.865000
0.186611  -0.295606  0.867000
0.188263  -0.295606  0.867000
0.192762  -0.300038  0.880000
0.195985  -0.302425  0.887000
0.197674  -0.302425  0.887000
0.199364  -0.302425  0.887000
0.201053  -0.302425  0.887000
0.197029  -0.293901  0.862000
0.198670  -0.293901  0.862000
0.201010  -0.294924  0.865000
0.203126  -0.295606  0.867000
0.205250  -0.296288  0.869000
0.206429  -0.295606  0.867000
0.207600  -0.294924  0.865000
0.209248  -0.294924  0.865000
0.210895  -0.294924  0.865000
0.213034  -0.295606  0.867000
0.213448  -0.293901  0.862000
0.215090  -0.293901  0.862000
0.216731  -0.293901  0.862000
0.218373  -0.293901  0.862000
0.220781  -0.294924  0.865000
0.221657  -0.293901  0.862000
0.223299  -0.293901  0.862000
0.224941  -0.293901  0.862000
0.226057  -0.293219  0.860000
0.227695  -0.293219  0.860000
-0.507954  -0.292114  0.852000
-0.506331  -0.292114  0.852000
-0.504709  -0.292114  0.852000
-0.501905  -0.291429  0.850000
-0.500286  -0.291429  0.850000
-0.505707  -0.295543  0.862000
-0.504065  -0.295543  0.862000
-0.486686  -0.286286  0.835000
-0.485095  -0.286286  0.835000
-0.483505  -0.286286  0.835000
-0.486531  -0.289029  0.843000
-0.484926  -0.289029  0.843000
-0.483320  -0.289029  0.843000
-0.479429  -0.287657  0.839000
-0.477830  -0.287657  0.839000
-0.488152  -0.294857  0.860000
-0.485383  -0.294171  0.858000
-0.483749  -0.294171  0.858000
-0.473686  -0.289029  0.843000
-0.472080  -0.289029  0.843000
-0.471590  -0.289714  0.845000
-0.469981  -0.289714  0.845000
-0.467263  -0.289029  0.843000
-0.465657  -0.289029  0.843000
-0.464051  -0.289029  0.843000
-0.462446  -0.289029  0.843000
-0.463573  -0.290743  0.848000
-0.463048  -0.291429  0.850000
-0.462514  -0.292114  0.852000
-0.461973  -0.292800  0.854000
-0.461425  -0.293486  0.856000
-0.460869  -0.294171  0.858000
-0.459234  -0.294171  0.858000
-0.457600  -0.294171  0.858000
-0.455966  -0.294171  0.858000
-0.454331  -0.294171  0.858000
-0.451642  -0.293486  0.856000
-0.443177  -0.289029  0.843000
-0.440524  -0.288343  0.841000
-0.438922  -0.288343  0.841000
-0.446160  -0.294171  0.858000
-0.444526  -0.294171  0.858000
-0.443924  -0.294857  0.860000
-0.442286  -0.294857  0.860000
-0.414004  -0.277029  0.808000
-0.412465  -0.277029  0.808000
-0.410926  -0.277029  0.808000
-0.410400  -0.277714  0.810000
-0.429048  -0.291429  0.850000
-0.428434  -0.292114  0.852000
-0.426811  -0.292114  0.852000
-0.425189  -0.292114  0.852000
-0.423566  -0.292114  0.852000
-0.421943  -0.292114  0.852000
-0.420320  -0.292114  0.852000
-0.418697  -0.292114  0.852000
-0.418053  -0.292800  0.854000
-0.417402  -0.293486  0.856000
-0.415771  -0.293486  0.856000
-0.415109  -0.294171  0.858000
-0.414438  -0.294857  0.860000
-0.412800  -0.294857  0.860000
-0.412118  -0.295543  0.862000
-0.409524  -0.294857  0.860000
-0.407886  -0.294857  0.860000
-0.403413  -0.292800  0.854000
-0.401787  -0.292800  0.854000
-0.399223  -0.292114  0.852000
-0.397600  -0.292114  0.852000
-0.395977  -0.292114  0.852000
-0.394354  -0.292114  0.852000
-0.390888  -0.290743  0.848000
-0.389272  -0.290743  0.848000
-0.387657  -0.290743  0.848000
-0.386042  -0.290743  0.848000
-0.385333  -0.291429  0.850000
-0.384617  -0.292114  0.852000
-0.383893  -0.292800  0.854000
-0.379581  -0.290743  0.848000
-0.377966  -0.290743  0.848000
-0.378126  -0.292114  0.852000
-0.377387  -0.292800  0.854000
-0.375760  -0.292800  0.854000
-0.373257  -0.292114  0.852000
-0.371634  -0.292114  0.852000
-0.371749  -0.293486  0.856000
-0.370118  -0.293486  0.856000
-0.369349  -0.294171  0.858000
-0.366000  -0.292800  0.854000
-0.364373  -0.292800  0.854000
-0.362747  -0.292800  0.854000
-0.361966  -0.293486  0.856000
-0.306874  -0.249943  0.729000
-0.305486  -0.249943  0.729000
-0.304097  -0.249943  0.729000
-0.302293  -0.249600  0.728000
-0.300907  -0.249600  0.728000
-0.299520  -0.249600  0.728000
-0.298133  -0.249600  0.728000
-0.295524  -0.248571  0.725000
-0.291709  -0.246514  0.719000
-0.289531  -0.245829  0.717000
-0.287764  -0.245486  0.716000
-0.285600  -0.244800  0.714000
-0.284240  -0.244800  0.714000
-0.282880  -0.244800  0.714000
-0.281520  -0.244800  0.714000
-0.279768  -0.244457  0.713000
-0.277629  -0.243771  0.711000
-0.275109  -0.242743  0.708000
-0.272600  -0.241714  0.705000
-0.270872  -0.241371  0.704000
-0.269531  -0.241371  0.704000
-0.267810  -0.241029  0.703000
-0.266470  -0.241029  0.703000
-0.264377  -0.240343  0.701000
-0.262667  -0.240000  0.700000
-0.260587  -0.239314  0.698000
-0.258886  -0.238971  0.697000
-0.256819  -0.238286  0.695000
-0.255128  -0.237943  0.694000
-0.253806  -0.237943  0.694000
-0.252120  -0.237600  0.693000
-0.250076  -0.236914  0.691000
-0.248760  -0.236914  0.691000
-0.247086  -0.236571  0.690000
-0.245415  -0.236229  0.689000
-0.244103  -0.236229  0.689000
-0.242790  -0.236229  0.689000
-0.241478  -0.236229  0.689000
-0.240166  -0.236229  0.689000
-0.239200  -0.236571  0.690000
-0.237886  -0.236571  0.690000
-0.236571  -0.236571  0.690000
-0.235598  -0.236914  0.691000
-0.234960  -0.237600  0.693000
-0.233977  -0.237943  0.694000
-0.232990  -0.238286  0.695000
-0.232333  -0.238971  0.697000
-0.231337  -0.239314  0.698000
-0.230008  -0.239314  0.698000
-0.229333  -0.240000  0.700000
-0.228326  -0.240343  0.701000
-0.226990  -0.240343  0.701000
-0.226299  -0.241029  0.703000
-0.225280  -0.241371  0.704000
-0.224257  -0.241714  0.705000
-0.223863  -0.242743  0.708000
-0.223143  -0.243429  0.710000
-0.221790  -0.243429  0.710000
-0.220749  -0.243771  0.711000
-0.220011  -0.244457  0.713000
-0.218653  -0.244457  0.713000
-0.218210  -0.245486  0.716000
-0.216846  -0.245486  0.716000
-0.216385  -0.246514  0.719000
-0.215314  -0.246857  0.720000
-0.214537  -0.247543  0.722000
-0.213162  -0.247543  0.722000
-0.211787  -0.247543  0.722000
-0.211286  -0.248571  0.725000
-0.210194  -0.248914  0.726000
-0.209387  -0.249600  0.728000
-0.208000  -0.249600  0.728000
-0.206897  -0.249943  0.729000
-0.205509  -0.249943  0.729000
-0.204680  -0.250629  0.731000
-0.203566  -0.250971  0.732000
-0.202724  -0.251657  0.734000
-0.201874  -0.252343  0.736000
-0.200472  -0.252343  0.736000
-0.199341  -0.252686  0.737000
-0.197937  -0.252686  0.737000
-0.197067  -0.253371  0.739000
-0.196453  -0.254400  0.742000
-0.195829  -0.255429  0.745000
-0.194931  -0.256114  0.747000
-0.193768  -0.256457  0.748000
-0.192343  -0.256457  0.748000
-0.191429  -0.257143  0.750000
-0.190507  -0.257829  0.752000
-0.189326  -0.258171  0.753000
-0.188390  -0.258857  0.755000
-0.186952  -0.258857  0.755000
-0.185760  -0.259200  0.756000
-0.184320  -0.259200  0.756000
-0.183364  -0.259886  0.758000
-0.182400  -0.260571  0.760000
-0.181190  -0.260914  0.761000
-0.179741  -0.260914  0.761000
-0.178760  -0.261600  0.763000
-0.177307  -0.261600  0.763000
-0.176314  -0.262286  0.765000
-0.175314  -0.262971  0.767000
-0.174080  -0.263314  0.768000
-0.173516  -0.264686  0.772000
-0.172269  -0.265029  0.773000
-0.171238  -0.265714  0.775000
-0.170200  -0.266400  0.777000
-0.168720  -0.266400  0.777000
-0.167240  -0.266400  0.777000
-0.166187  -0.267086  0.779000
-0.164914  -0.267429  0.780000
-0.163848  -0.268114  0.782000
-0.163189  -0.269486  0.786000
-0.162103  -0.270171  0.788000
-0.160806  -0.270514  0.789000
-0.159707  -0.271200  0.791000
-0.158200  -0.271200  0.791000
-0.157090  -0.271886  0.793000
-0.155971  -0.272571  0.795000
-0.154457  -0.272571  0.795000
-0.153328  -0.273257  0.797000
-0.152000  -0.273600  0.798000
-0.160663  -0.292114  0.852000
-0.159040  -0.292114  0.852000
-0.157417  -0.292114  0.852000
-0.155063  -0.290743  0.848000
-0.153448  -0.290743  0.848000
-0.151832  -0.290743  0.848000
-0.150217  -0.290743  0.848000
-0.148602  -0.290743  0.848000
-0.146467  -0.289714  0.845000
-0.144857  -0.289714  0.845000
-0.143248  -0.289714  0.845000
-0.142141  -0.290743  0.848000
-0.140526  -0.290743  0.848000
-0.138910  -0.290743  0.848000
-0.137295  -0.290743  0.848000
-0.135680  -0.290743  0.848000
-0.134065  -0.290743  0.848000
-0.132762  -0.291429  0.850000
-0.131143  -0.291429  0.850000
-0.129219  -0.290743  0.848000
-0.127604  -0.290743  0.848000
-0.126583  -0.292114  0.852000
-0.125253  -0.292800  0.854000
-0.125798  -0.297943  0.869000
-0.123857  -0.297257  0.867000
-0.120373  -0.292800  0.854000
-0.118747  -0.292800  0.854000
-0.117394  -0.293486  0.856000
-0.115764  -0.293486  0.856000
-0.113867  -0.292800  0.854000
-0.112240  -0.292800  0.854000
-0.110613  -0.292800  0.854000
-0.109242  -0.293486  0.856000
-0.107611  -0.293486  0.856000
-0.106229  -0.294171  0.858000
-0.104107  -0.292800  0.854000
-0.102480  -0.292800  0.854000
-0.100853  -0.292800  0.854000
-0.099227  -0.292800  0.854000
-0.097600  -0.292800  0.854000
-0.095299  -0.290743  0.848000
-0.093684  -0.290743  0.848000
-0.092069  -0.290743  0.848000
-0.090453  -0.290743  0.848000
-0.089467  -0.292800  0.854000
-0.088046  -0.293486  0.856000
-0.086415  -0.293486  0.856000
-0.084785  -0.293486  0.856000
-0.083154  -0.293486  0.856000
-0.081714  -0.294171  0.858000
-0.080080  -0.294171  0.858000
-0.078446  -0.294171  0.858000
-0.076811  -0.294171  0.858000
-0.075177  -0.294171  0.858000
-0.073543  -0.294171  0.858000
-0.071741  -0.293486  0.856000
-0.069947  -0.292800  0.854000
-0.068160  -0.292114  0.852000
-0.066537  -0.292114  0.852000
-0.065067  -0.292800  0.854000
-0.063440  -0.292800  0.854000
-0.061958  -0.293486  0.856000
-0.060187  -0.292800  0.854000
-0.058560  -0.292800  0.854000
-0.056933  -0.292800  0.854000
-0.055307  -0.292800  0.854000
-0.053680  -0.292800  0.854000
-0.052053  -0.292800  0.854000
-0.050427  -0.292800  0.854000
-0.048800  -0.292800  0.854000
-0.047173  -0.292800  0.854000
-0.045547  -0.292800  0.854000
-0.043920  -0.292800  0.854000
-0.042293  -0.292800  0.854000
-0.040762  -0.293486  0.856000
-0.039040  -0.292800  0.854000
-0.037413  -0.292800  0.854000
-0.035870  -0.293486  0.856000
-0.034240  -0.293486  0.856000
-0.032610  -0.293486  0.856000
-0.030979  -0.293486  0.856000
-0.029349  -0.293486  0.856000
-0.027653  -0.292800  0.854000
-0.026027  -0.292800  0.854000
-0.024400  -0.292800  0.854000
-0.022773  -0.292800  0.854000
-0.021147  -0.292800  0.854000
-0.019520  -0.292800  0.854000
-0.018208  -0.297943  0.869000
-0.014133  -0.254400  0.742000
-0.012720  -0.254400  0.742000
-0.011307  -0.254400  0.742000
-0.009893  -0.254400  0.742000
-0.008457  -0.253714  0.740000
-0.007048  -0.253714  0.740000
-0.005638  -0.253714  0.740000
-0.004229  -0.253714  0.740000
-0.002815  -0.253371  0.739000
-0.001404  -0.252686  0.737000
0.000000  -0.252686  0.737000
0.001371  -0.246857  0.720000
0.002743  -0.246857  0.720000
0.004131  -0.247886  0.723000
0.005509  -0.247886  0.723000
0.006905  -0.248571  0.725000
0.008286  -0.248571  0.725000
0.009667  -0.248571  0.725000
0.011048  -0.248571  0.725000
0.012429  -0.248571  0.725000
0.013771  -0.247886  0.723000
0.015149  -0.247886  0.723000
0.016503  -0.247543  0.722000
0.017829  -0.246857  0.720000
0.019200  -0.246857  0.720000
0.020543  -0.246514  0.719000
0.021912  -0.246514  0.719000
0.023282  -0.246514  0.719000
0.024651  -0.246514  0.719000
0.026021  -0.246514  0.719000
0.027390  -0.246514  0.719000
0.028760  -0.246514  0.719000
0.030130  -0.246514  0.719000
0.031499  -0.246514  0.719000
0.032869  -0.246514  0.719000
0.034238  -0.246514  0.719000
0.035608  -0.246514  0.719000
0.036977  -0.246514  0.719000
0.038347  -0.246514  0.719000
0.039771  -0.246857  0.720000
0.041143  -0.246857  0.720000
0.042514  -0.246857  0.720000
0.043886  -0.246857  0.720000
0.045257  -0.246857  0.720000
0.046758  -0.247543  0.722000
0.048133  -0.247543  0.722000
0.049509  -0.247543  0.722000
0.050884  -0.247543  0.722000
0.052259  -0.247543  0.722000
0.053634  -0.247543  0.722000
0.055086  -0.247886  0.723000
0.056463  -0.247886  0.723000
0.058000  -0.248571  0.725000
0.059381  -0.248571  0.725000
0.060846  -0.248914  0.726000
0.062400  -0.249600  0.728000
0.063787  -0.249600  0.728000
0.065263  -0.249943  0.729000
0.066651  -0.249943  0.729000
0.068320  -0.250971  0.732000
0.069905  -0.251657  0.734000
0.071497  -0.252343  0.736000
0.072998  -0.252686  0.737000
0.074705  -0.253714  0.740000
0.076423  -0.254743  0.743000
0.078048  -0.255429  0.745000
0.079467  -0.255429  0.745000
0.080886  -0.255429  0.745000
0.106229  -0.289714  0.845000
0.107838  -0.289714  0.845000
0.109448  -0.289714  0.845000
0.114737  -0.299314  0.873000
0.116400  -0.299314  0.873000
0.113735  -0.288343  0.841000
0.115337  -0.288343  0.841000
0.117912  -0.290743  0.848000
0.120655  -0.293486  0.856000
0.122286  -0.293486  0.856000
0.124785  -0.295543  0.862000
0.126427  -0.295543  0.862000
0.126583  -0.292114  0.852000
0.128206  -0.292114  0.852000
0.130743  -0.294171  0.858000
0.132377  -0.294171  0.858000
0.134011  -0.294171  0.858000
0.135330  -0.293486  0.856000
0.136640  -0.292800  0.854000
0.138267  -0.292800  0.854000
0.140549  -0.294171  0.858000
0.142183  -0.294171  0.858000
0.144152  -0.294857  0.860000
0.145451  -0.294171  0.858000
0.147086  -0.294171  0.858000
0.149413  -0.295543  0.862000
0.151055  -0.295543  0.862000
0.152697  -0.295543  0.862000
0.154339  -0.295543  0.862000
0.155981  -0.295543  0.862000
0.157623  -0.295543  0.862000
0.159819  -0.296571  0.865000
0.161467  -0.296571  0.865000
0.162549  -0.295543  0.862000
0.164190  -0.295543  0.862000
0.166410  -0.296571  0.865000
0.169223  -0.298629  0.871000
0.170882  -0.298629  0.871000
0.172541  -0.298629  0.871000
0.173800  -0.297943  0.869000
0.175455  -0.297943  0.869000
0.177110  -0.297943  0.869000
0.175269  -0.292114  0.852000
0.176891  -0.292114  0.852000
0.178933  -0.292800  0.854000
0.180560  -0.292800  0.854000
0.182613  -0.293486  0.856000
0.184244  -0.293486  0.856000
0.185874  -0.293486  0.856000
0.187505  -0.293486  0.856000
0.189135  -0.293486  0.856000
0.190766  -0.293486  0.856000
0.192396  -0.293486  0.856000
0.194027  -0.293486  0.856000
0.196114  -0.294171  0.858000
0.197749  -0.294171  0.858000
0.199848  -0.294857  0.860000
0.201954  -0.295543  0.862000
0.204305  -0.296571  0.865000
0.205952  -0.296571  0.865000
0.206880  -0.295543  0.862000
0.208522  -0.295543  0.862000
0.210895  -0.296571  0.865000
0.212543  -0.296571  0.865000
0.213448  -0.295543  0.862000
0.215090  -0.295543  0.862000
0.216731  -0.295543  0.862000
0.218373  -0.295543  0.862000
0.220015  -0.295543  0.862000
0.221657  -0.295543  0.862000
0.222781  -0.294857  0.860000
0.224419  -0.294857  0.860000
0.226057  -0.294857  0.860000
0.227695  -0.294857  0.860000
-0.505570  -0.292358  0.848000
-0.503954  -0.292358  0.848000
-0.500562  -0.291324  0.845000
-0.497771  -0.290634  0.843000
-0.496166  -0.290634  0.843000
-0.495733  -0.291324  0.845000
-0.494124  -0.291324  0.845000
-0.489017  -0.289255  0.839000
-0.485095  -0.287876  0.835000
-0.483505  -0.287876  0.835000
-0.485377  -0.289945  0.841000
-0.483775  -0.289945  0.841000
-0.481027  -0.289255  0.839000
-0.479429  -0.289255  0.839000
-0.477830  -0.289255  0.839000
-0.478503  -0.290634  0.843000
-0.476897  -0.290634  0.843000
-0.482621  -0.295116  0.856000
-0.473686  -0.290634  0.843000
-0.472080  -0.290634  0.843000
-0.470474  -0.290634  0.843000
-0.467756  -0.289945  0.841000
-0.466154  -0.289945  0.841000
-0.464552  -0.289945  0.841000
-0.462950  -0.289945  0.841000
-0.461349  -0.289945  0.841000
-0.460840  -0.290634  0.843000
-0.459234  -0.290634  0.843000
-0.458714  -0.291324  0.845000
-0.458728  -0.292358  0.848000
-0.457112  -0.292358  0.848000
-0.459794  -0.295116  0.856000
-0.456023  -0.293737  0.852000
-0.452267  -0.292358  0.848000
-0.449057  -0.291324  0.845000
-0.446389  -0.290634  0.843000
-0.441617  -0.288566  0.837000
-0.440023  -0.288566  0.837000
-0.439476  -0.289255  0.839000
-0.438922  -0.289945  0.841000
-0.437320  -0.289945  0.841000
-0.435718  -0.289945  0.841000
-0.434116  -0.289945  0.841000
-0.432514  -0.289945  0.841000
-0.414004  -0.278568  0.808000
-0.412465  -0.278568  0.808000
-0.410926  -0.278568  0.808000
-0.410400  -0.279257  0.810000
-0.426524  -0.291324  0.845000
-0.426423  -0.292358  0.848000
-0.425810  -0.293048  0.850000
-0.424190  -0.293048  0.850000
-0.422571  -0.293048  0.850000
-0.420952  -0.293048  0.850000
-0.420320  -0.293737  0.852000
-0.418697  -0.293737  0.852000
-0.417074  -0.293737  0.852000
-0.416427  -0.294427  0.854000
-0.414800  -0.294427  0.854000
-0.414141  -0.295116  0.856000
-0.413474  -0.295806  0.858000
-0.410880  -0.295116  0.856000
-0.407337  -0.293737  0.852000
-0.404762  -0.293048  0.850000
-0.403143  -0.293048  0.850000
-0.401524  -0.293048  0.850000
-0.399905  -0.293048  0.850000
-0.398286  -0.293048  0.850000
-0.396667  -0.293048  0.850000
-0.395048  -0.293048  0.850000
-0.394354  -0.293737  0.852000
-0.388583  -0.290634  0.843000
-0.386977  -0.290634  0.843000
-0.385371  -0.290634  0.843000
-0.383766  -0.290634  0.843000
-0.383067  -0.291324  0.845000
-0.383714  -0.293048  0.850000
-0.381196  -0.292358  0.848000
-0.378238  -0.291324  0.845000
-0.376629  -0.291324  0.845000
-0.377238  -0.293048  0.850000
-0.376503  -0.293737  0.852000
-0.371800  -0.291324  0.845000
-0.369314  -0.290634  0.843000
-0.367709  -0.290634  0.843000
-0.366103  -0.290634  0.843000
-0.364497  -0.290634  0.843000
-0.367627  -0.294427  0.854000
-0.364286  -0.293048  0.850000
-0.362667  -0.293048  0.850000
-0.361048  -0.293048  0.850000
-0.360274  -0.293737  0.852000
-0.306874  -0.251331  0.729000
-0.305486  -0.251331  0.729000
-0.304097  -0.251331  0.729000
-0.302709  -0.251331  0.729000
-0.300907  -0.250987  0.728000
-0.299520  -0.250987  0.728000
-0.298133  -0.250987  0.728000
-0.295931  -0.250297  0.726000
-0.291709  -0.247884  0.719000
-0.289128  -0.246850  0.716000
-0.287764  -0.246850  0.716000
-0.285600  -0.246160  0.714000
-0.284240  -0.246160  0.714000
-0.282880  -0.246160  0.714000
-0.281520  -0.246160  0.714000
-0.279768  -0.245815  0.713000
-0.277629  -0.245126  0.711000
-0.275109  -0.244091  0.708000
-0.272600  -0.243057  0.705000
-0.270872  -0.242712  0.704000
-0.269149  -0.242368  0.703000
-0.267048  -0.241678  0.701000
-0.265712  -0.241678  0.701000
-0.264000  -0.241333  0.700000
-0.262667  -0.241333  0.700000
-0.260587  -0.240644  0.698000
-0.258886  -0.240299  0.697000
-0.256819  -0.239610  0.695000
-0.255128  -0.239265  0.694000
-0.253440  -0.238920  0.693000
-0.251392  -0.238230  0.691000
-0.249714  -0.237886  0.690000
-0.248400  -0.237886  0.690000
-0.246728  -0.237541  0.689000
-0.245415  -0.237541  0.689000
-0.244103  -0.237541  0.689000
-0.242790  -0.237541  0.689000
-0.241478  -0.237541  0.689000
-0.240166  -0.237541  0.689000
-0.238853  -0.237541  0.689000
-0.237541  -0.237541  0.689000
-0.236571  -0.237886  0.690000
-0.235598  -0.238230  0.691000
-0.234960  -0.238920  0.693000
-0.233977  -0.239265  0.694000
-0.232990  -0.239610  0.695000
-0.232333  -0.240299  0.697000
-0.231337  -0.240644  0.698000
-0.230008  -0.240644  0.698000
-0.229333  -0.241333  0.700000
-0.228326  -0.241678  0.701000
-0.227638  -0.242368  0.703000
-0.226299  -0.242368  0.703000
-0.225280  -0.242712  0.704000
-0.224257  -0.243057  0.705000
-0.223863  -0.244091  0.708000
-0.223143  -0.244781  0.710000
-0.221790  -0.244781  0.710000
-0.220749  -0.245126  0.711000
-0.220011  -0.245815  0.713000
-0.218960  -0.246160  0.714000
-0.218210  -0.246850  0.716000
-0.217149  -0.247194  0.717000
-0.215783  -0.247194  0.717000
-0.215015  -0.247884  0.719000
-0.213943  -0.248229  0.720000
-0.213162  -0.248918  0.722000
-0.212080  -0.249263  0.723000
-0.211286  -0.249952  0.725000
-0.210194  -0.250297  0.726000
-0.209387  -0.250987  0.728000
-0.208000  -0.250987  0.728000
-0.206897  -0.251331  0.729000
-0.205509  -0.251331  0.729000
-0.204680  -0.252021  0.731000
-0.203566  -0.252366  0.732000
-0.202724  -0.253055  0.734000
-0.201874  -0.253745  0.736000
-0.200472  -0.253745  0.736000
-0.199341  -0.254090  0.737000
-0.197937  -0.254090  0.737000
-0.197067  -0.254779  0.739000
-0.196453  -0.255813  0.742000
-0.195303  -0.256158  0.743000
-0.194931  -0.257537  0.747000
-0.193768  -0.257882  0.748000
-0.192343  -0.257882  0.748000
-0.191429  -0.258571  0.750000
-0.190507  -0.259261  0.752000
-0.189326  -0.259606  0.753000
-0.188390  -0.260295  0.755000
-0.186952  -0.260295  0.755000
-0.185760  -0.260640  0.756000
-0.184320  -0.260640  0.756000
-0.183364  -0.261330  0.758000
-0.181920  -0.261330  0.758000
-0.180952  -0.262019  0.760000
-0.179741  -0.262364  0.761000
-0.178760  -0.263053  0.763000
-0.177307  -0.263053  0.763000
-0.176314  -0.263743  0.765000
-0.175543  -0.264777  0.768000
-0.174533  -0.265467  0.770000
-0.173516  -0.266156  0.772000
-0.172269  -0.266501  0.773000
-0.171238  -0.267190  0.775000
-0.170200  -0.267880  0.777000
-0.168720  -0.267880  0.777000
-0.167240  -0.267880  0.777000
-0.166187  -0.268570  0.779000
-0.164914  -0.268914  0.780000
-0.163848  -0.269604  0.782000
-0.163189  -0.270983  0.786000
-0.162103  -0.271672  0.788000
-0.160806  -0.272017  0.789000
-0.159707  -0.272707  0.791000
-0.158200  -0.272707  0.791000
-0.157090  -0.273396  0.793000
-0.155971  -0.274086  0.795000
-0.154457  -0.274086  0.795000
-0.152943  -0.274086  0.795000
-0.151810  -0.274775  0.797000
-0.159909  -0.292358  0.848000
-0.158667  -0.293048  0.850000
-0.157048  -0.293048  0.850000
-0.155063  -0.292358  0.848000
-0.153448  -0.292358  0.848000
-0.151832  -0.292358  0.848000
-0.150217  -0.292358  0.848000
-0.148602  -0.292358  0.848000
-0.146467  -0.291324  0.845000
-0.144857  -0.291324  0.845000
-0.143248  -0.291324  0.845000
-0.141638  -0.291324  0.845000
-0.140526  -0.292358  0.848000
-0.138910  -0.292358  0.848000
-0.137295  -0.292358  0.848000
-0.135680  -0.292358  0.848000
-0.134065  -0.292358  0.848000
-0.132762  -0.293048  0.850000
-0.131143  -0.293048  0.850000
-0.129219  -0.292358  0.848000
-0.127604  -0.292358  0.848000
-0.125989  -0.292358  0.848000
-0.124373  -0.292358  0.848000
-0.122324  -0.291324  0.845000
-0.120714  -0.291324  0.845000
-0.119105  -0.291324  0.845000
-0.117912  -0.292358  0.848000
-0.116297  -0.292358  0.848000
-0.114682  -0.292358  0.848000
-0.113067  -0.292358  0.848000
-0.111451  -0.292358  0.848000
-0.110095  -0.293048  0.850000
-0.108731  -0.293737  0.852000
-0.106606  -0.292358  0.848000
-0.104990  -0.292358  0.848000
-0.103375  -0.292358  0.848000
-0.101760  -0.292358  0.848000
-0.100145  -0.292358  0.848000
-0.098530  -0.292358  0.848000
-0.096914  -0.292358  0.848000
-0.095299  -0.292358  0.848000
-0.093684  -0.292358  0.848000
-0.092069  -0.292358  0.848000
-0.090453  -0.292358  0.848000
-0.089467  -0.294427  0.854000
-0.087840  -0.294427  0.854000
-0.086213  -0.294427  0.854000
-0.084587  -0.294427  0.854000
-0.083154  -0.295116  0.856000
-0.081524  -0.295116  0.856000
-0.080080  -0.295806  0.858000
-0.078446  -0.295806  0.858000
