# .PCD v.5 - Point Cloud Data file format
FIELDS x y z 
SIZE 4 4 4
TYPE F F F
COUNT 1 1 1
WIDTH 1629
HEIGHT 1
POINTS 1629
DATA ascii
0.090926  0.177189  0.612000
0.091941  0.176899  0.611000
0.092648  0.176030  0.608000
0.093343  0.175162  0.605000
0.094339  0.174872  0.604000
0.095331  0.174583  0.603000
0.096320  0.174293  0.602000
0.097305  0.174004  0.601000
0.098286  0.173714  0.600000
0.099263  0.173425  0.599000
0.100069  0.172846  0.597000
0.100867  0.172267  0.595000
0.101829  0.171977  0.594000
0.102613  0.171398  0.592000
0.103566  0.171109  0.591000
0.104514  0.170819  0.590000
0.105459  0.170530  0.589000
0.106400  0.170240  0.588000
0.107520  0.170240  0.588000
0.108455  0.169950  0.587000
0.109573  0.169950  0.587000
0.110880  0.170240  0.588000
0.112000  0.170240  0.588000
0.113120  0.170240  0.588000
0.114240  0.170240  0.588000
0.115360  0.170240  0.588000
0.116480  0.170240  0.588000
0.117800  0.170530  0.589000
0.119124  0.170819  0.590000
0.120451  0.171109  0.591000
0.121577  0.171109  0.591000
0.122910  0.171398  0.592000
0.124248  0.171688  0.593000
0.125377  0.171688  0.593000
0.126720  0.171977  0.594000
0.127851  0.171977  0.594000
0.129200  0.172267  0.595000
0.130552  0.172556  0.596000
0.131688  0.172556  0.596000
0.132823  0.172556  0.596000
0.133733  0.172267  0.595000
0.134867  0.172267  0.595000
0.136229  0.172556  0.596000
0.137594  0.172846  0.597000
0.138964  0.173135  0.598000
0.140103  0.173135  0.598000
0.141478  0.173425  0.599000
0.142619  0.173425  0.599000
0.144000  0.173714  0.600000
0.145385  0.174004  0.601000
0.146773  0.174293  0.602000
0.147920  0.174293  0.602000
0.149067  0.174293  0.602000
0.150463  0.174583  0.603000
0.151611  0.174583  0.603000
0.152760  0.174583  0.603000
0.154164  0.174872  0.604000
0.155314  0.174872  0.604000
0.156724  0.175162  0.605000
0.157876  0.175162  0.605000
0.159029  0.175162  0.605000
0.160446  0.175451  0.606000
0.161867  0.175741  0.607000
0.163023  0.175741  0.607000
0.164450  0.176030  0.608000
0.165608  0.176030  0.608000
0.167040  0.176320  0.609000
0.168752  0.176899  0.611000
0.169916  0.176899  0.611000
0.171360  0.177189  0.612000
0.172808  0.177478  0.613000
0.173975  0.177478  0.613000
0.175143  0.177478  0.613000
-0.154554  0.213034  0.731000
-0.153162  0.213034  0.731000
-0.151770  0.213034  0.731000
-0.150377  0.213034  0.731000
-0.148985  0.213034  0.731000
-0.147592  0.213034  0.731000
-0.146200  0.213034  0.731000
-0.144808  0.213034  0.731000
-0.143415  0.213034  0.731000
-0.142023  0.213034  0.731000
-0.140630  0.213034  0.731000
-0.140190  0.214491  0.736000
-0.138977  0.214783  0.737000
-0.137947  0.215366  0.739000
-0.136724  0.215657  0.740000
-0.135680  0.216240  0.742000
-0.134267  0.216240  0.742000
-0.133032  0.216531  0.743000
-0.131617  0.216531  0.743000
-0.130202  0.216531  0.743000
-0.128787  0.216531  0.743000
-0.127714  0.217114  0.745000
-0.126295  0.217114  0.745000
-0.124876  0.217114  0.745000
-0.123457  0.217114  0.745000
0.046533  0.203417  0.698000
0.047794  0.203126  0.697000
0.049122  0.203126  0.697000
0.050450  0.203126  0.697000
0.051629  0.202543  0.695000
0.052876  0.202251  0.694000
0.053964  0.201377  0.691000
0.054880  0.199920  0.686000
0.055941  0.199046  0.683000
0.056990  0.198171  0.680000
0.058200  0.197880  0.679000
0.059230  0.197006  0.676000
0.060339  0.196423  0.674000
0.061440  0.195840  0.672000
0.062440  0.194966  0.669000
0.063714  0.194966  0.669000
0.064794  0.194383  0.667000
0.065867  0.193800  0.665000
0.066830  0.192926  0.662000
0.067886  0.192343  0.660000
0.068829  0.191469  0.657000
0.069867  0.190886  0.655000
0.070897  0.190303  0.653000
0.072030  0.190011  0.652000
0.073048  0.189429  0.650000
0.074057  0.188846  0.648000
0.075059  0.188263  0.646000
0.075817  0.187097  0.642000
0.076800  0.186514  0.640000
0.077775  0.185931  0.638000
0.078619  0.185057  0.635000
0.079577  0.184474  0.633000
0.080528  0.183891  0.631000
0.081470  0.183309  0.629000
0.082406  0.182726  0.627000
0.083467  0.182434  0.626000
0.084659  0.182434  0.626000
0.085714  0.182143  0.625000
0.086766  0.181851  0.624000
0.087813  0.181560  0.623000
0.088571  0.180686  0.620000
0.088739  0.178646  0.613000
0.089907  0.178646  0.613000
0.090777  0.178063  0.611000
0.091640  0.177480  0.609000
0.092495  0.176897  0.607000
0.093343  0.176314  0.605000
0.094339  0.176023  0.604000
0.095331  0.175731  0.603000
0.096320  0.175440  0.602000
0.097305  0.175149  0.601000
0.098286  0.174857  0.600000
0.099097  0.174274  0.598000
0.100069  0.173983  0.597000
0.100867  0.173400  0.595000
0.101657  0.172817  0.593000
0.102440  0.172234  0.591000
0.103390  0.171943  0.590000
0.104337  0.171651  0.589000
0.105459  0.171651  0.589000
0.106400  0.171360  0.588000
0.107520  0.171360  0.588000
0.108455  0.171069  0.587000
0.109573  0.171069  0.587000
0.110880  0.171360  0.588000
0.112000  0.171360  0.588000
0.113120  0.171360  0.588000
0.114240  0.171360  0.588000
0.115360  0.171360  0.588000
0.116480  0.171360  0.588000
0.117800  0.171651  0.589000
0.119124  0.171943  0.590000
0.120451  0.172234  0.591000
0.121577  0.172234  0.591000
0.122910  0.172526  0.592000
0.124248  0.172817  0.593000
0.125377  0.172817  0.593000
0.126507  0.172817  0.593000
0.127851  0.173109  0.594000
0.129200  0.173400  0.595000
0.130333  0.173400  0.595000
0.131688  0.173691  0.596000
0.132823  0.173691  0.596000
0.133733  0.173400  0.595000
0.134867  0.173400  0.595000
0.136229  0.173691  0.596000
0.137594  0.173983  0.597000
0.138731  0.173983  0.597000
0.140103  0.174274  0.598000
0.141242  0.174274  0.598000
0.142619  0.174566  0.599000
0.144000  0.174857  0.600000
0.145143  0.174857  0.600000
0.146530  0.175149  0.601000
0.147920  0.175440  0.602000
0.149067  0.175440  0.602000
0.150463  0.175731  0.603000
0.151611  0.175731  0.603000
0.152760  0.175731  0.603000
0.154164  0.176023  0.604000
0.155314  0.176023  0.604000
0.156465  0.176023  0.604000
0.157876  0.176314  0.605000
0.159029  0.176314  0.605000
0.160446  0.176606  0.606000
0.161867  0.176897  0.607000
0.163023  0.176897  0.607000
0.164450  0.177189  0.608000
0.165608  0.177189  0.608000
0.167040  0.177480  0.609000
0.168752  0.178063  0.611000
0.169916  0.178063  0.611000
0.171360  0.178354  0.612000
0.172526  0.178354  0.612000
0.173975  0.178646  0.613000
0.175143  0.178646  0.613000
-0.166634  0.212080  0.723000
-0.165257  0.212080  0.723000
-0.163880  0.212080  0.723000
-0.162503  0.212080  0.723000
-0.161571  0.212667  0.725000
-0.160190  0.212667  0.725000
-0.159029  0.212960  0.726000
-0.154554  0.214427  0.731000
-0.153162  0.214427  0.731000
-0.151770  0.214427  0.731000
-0.150377  0.214427  0.731000
-0.148985  0.214427  0.731000
-0.147592  0.214427  0.731000
-0.146200  0.214427  0.731000
-0.144808  0.214427  0.731000
-0.143415  0.214427  0.731000
-0.142023  0.214427  0.731000
-0.140630  0.214427  0.731000
-0.139810  0.215307  0.734000
-0.138977  0.216187  0.737000
-0.137947  0.216773  0.739000
-0.136724  0.217067  0.740000
-0.135314  0.217067  0.740000
-0.134267  0.217653  0.742000
-0.132853  0.217653  0.742000
-0.131617  0.217947  0.743000
-0.130202  0.217947  0.743000
-0.128787  0.217947  0.743000
-0.127371  0.217947  0.743000
-0.125956  0.217947  0.743000
-0.124541  0.217947  0.743000
-0.123457  0.218533  0.745000
0.046533  0.204747  0.698000
0.047863  0.204747  0.698000
0.049192  0.204747  0.698000
0.050450  0.204453  0.697000
0.051629  0.203867  0.695000
0.052876  0.203573  0.694000
0.053886  0.202400  0.690000
0.054720  0.200640  0.684000
0.055695  0.199467  0.680000
0.056990  0.199467  0.680000
0.058200  0.199173  0.679000
0.059230  0.198293  0.676000
0.060339  0.197707  0.674000
0.061440  0.197120  0.672000
0.062533  0.196533  0.670000
0.063714  0.196240  0.669000
0.064794  0.195653  0.667000
0.065867  0.195067  0.665000
0.066730  0.193893  0.661000
0.067680  0.193013  0.658000
0.068724  0.192427  0.656000
0.069653  0.191547  0.653000
0.070789  0.191253  0.652000
0.071920  0.190960  0.651000
0.072823  0.190080  0.648000
0.074057  0.190080  0.648000
0.075059  0.189493  0.646000
0.076053  0.188907  0.644000
0.076920  0.188027  0.641000
0.077775  0.187147  0.638000
0.078619  0.186267  0.635000
0.079577  0.185680  0.633000
0.080528  0.185093  0.631000
0.081470  0.184507  0.629000
0.082406  0.183920  0.627000
0.083467  0.183627  0.626000
0.084659  0.183627  0.626000
0.085714  0.183333  0.625000
0.086766  0.183040  0.624000
0.087672  0.182453  0.622000
0.088143  0.180987  0.617000
0.088739  0.179813  0.613000
0.089907  0.179813  0.613000
0.090777  0.179227  0.611000
0.091640  0.178640  0.609000
0.092495  0.178053  0.607000
0.093343  0.177467  0.605000
0.094339  0.177173  0.604000
0.095331  0.176880  0.603000
0.096320  0.176587  0.602000
0.097305  0.176293  0.601000
0.098122  0.175707  0.599000
0.099097  0.175413  0.598000
0.099901  0.174827  0.596000
0.100697  0.174240  0.594000
0.101657  0.173947  0.593000
0.102440  0.173360  0.591000
0.103390  0.173067  0.590000
0.104337  0.172773  0.589000
0.105280  0.172480  0.588000
0.106400  0.172480  0.588000
0.107337  0.172187  0.587000
0.108455  0.172187  0.587000
0.109573  0.172187  0.587000
0.110880  0.172480  0.588000
0.112000  0.172480  0.588000
0.113120  0.172480  0.588000
0.114240  0.172480  0.588000
0.115360  0.172480  0.588000
0.116480  0.172480  0.588000
0.117800  0.172773  0.589000
0.119124  0.173067  0.590000
0.120248  0.173067  0.590000
0.121577  0.173360  0.591000
0.122703  0.173360  0.591000
0.124038  0.173653  0.592000
0.125377  0.173947  0.593000
0.126507  0.173947  0.593000
0.127851  0.174240  0.594000
0.129200  0.174533  0.595000
0.130333  0.174533  0.595000
0.131688  0.174827  0.596000
0.132823  0.174827  0.596000
0.133958  0.174827  0.596000
0.135093  0.174827  0.596000
0.136229  0.174827  0.596000
0.137594  0.175120  0.597000
0.138731  0.175120  0.597000
0.139869  0.175120  0.597000
0.141006  0.175120  0.597000
0.142619  0.175707  0.599000
0.143760  0.175707  0.599000
0.145143  0.176000  0.600000
0.146530  0.176293  0.601000
0.147920  0.176587  0.602000
0.149067  0.176587  0.602000
0.150463  0.176880  0.603000
0.151611  0.176880  0.603000
0.152760  0.176880  0.603000
0.154164  0.177173  0.604000
0.155314  0.177173  0.604000
0.156465  0.177173  0.604000
0.157615  0.177173  0.604000
0.159029  0.177467  0.605000
0.160446  0.177760  0.606000
0.161867  0.178053  0.607000
0.163023  0.178053  0.607000
0.164450  0.178347  0.608000
0.165608  0.178347  0.608000
0.167040  0.178640  0.609000
0.168200  0.178640  0.609000
0.169916  0.179227  0.611000
0.171080  0.179227  0.611000
0.172526  0.179520  0.612000
0.173691  0.179520  0.612000
0.175143  0.179813  0.613000
0.177173  0.180693  0.616000
-0.213133  0.205190  0.695000
-0.211810  0.205190  0.695000
-0.211091  0.205781  0.697000
-0.209764  0.205781  0.697000
-0.209333  0.206667  0.700000
-0.208000  0.206667  0.700000
-0.206962  0.206962  0.701000
-0.205627  0.206962  0.701000
-0.204874  0.207552  0.703000
-0.199518  0.207552  0.703000
-0.198179  0.207552  0.703000
-0.196280  0.206962  0.701000
-0.194945  0.206962  0.701000
-0.177295  0.211390  0.716000
-0.175931  0.211390  0.716000
-0.174811  0.211686  0.717000
-0.172619  0.214048  0.725000
-0.171238  0.214048  0.725000
-0.169857  0.214048  0.725000
-0.167779  0.213162  0.722000
-0.166404  0.213162  0.722000
-0.165257  0.213457  0.723000
-0.163880  0.213457  0.723000
-0.162503  0.213457  0.723000
-0.161126  0.213457  0.723000
-0.159749  0.213457  0.723000
-0.158810  0.214048  0.725000
-0.157429  0.214048  0.725000
-0.156263  0.214343  0.726000
-0.155307  0.214933  0.728000
-0.154131  0.215229  0.729000
-0.152743  0.215229  0.729000
-0.151770  0.215819  0.731000
-0.149966  0.215229  0.729000
-0.148577  0.215229  0.729000
-0.147189  0.215229  0.729000
-0.146200  0.215819  0.731000
-0.144808  0.215819  0.731000
-0.143415  0.215819  0.731000
-0.142023  0.215819  0.731000
-0.140630  0.215819  0.731000
-0.139429  0.216114  0.732000
-0.138789  0.217295  0.736000
-0.137387  0.217295  0.736000
-0.136170  0.217590  0.737000
-0.135131  0.218181  0.739000
-0.133905  0.218476  0.740000
-0.132853  0.219067  0.742000
-0.131086  0.218476  0.740000
-0.129676  0.218476  0.740000
-0.128613  0.219067  0.742000
-0.127200  0.219067  0.742000
-0.125448  0.218476  0.740000
-0.124038  0.218476  0.740000
-0.122629  0.218476  0.740000
-0.120564  0.217295  0.736000
0.046533  0.206076  0.698000
0.047794  0.205781  0.697000
0.049122  0.205781  0.697000
0.050450  0.205781  0.697000
0.051629  0.205190  0.695000
0.052876  0.204895  0.694000
0.053573  0.202533  0.686000
0.054720  0.201943  0.684000
0.055695  0.200762  0.680000
0.056990  0.200762  0.680000
0.058200  0.200467  0.679000
0.059230  0.199581  0.676000
0.060339  0.198990  0.674000
0.061440  0.198400  0.672000
0.062533  0.197810  0.670000
0.063714  0.197514  0.669000
0.064794  0.196924  0.667000
0.065867  0.196333  0.665000
0.066730  0.195152  0.661000
0.067680  0.194267  0.658000
0.068724  0.193676  0.656000
0.069653  0.192790  0.653000
0.070789  0.192495  0.652000
0.071920  0.192200  0.651000
0.072823  0.191314  0.648000
0.074057  0.191314  0.648000
0.075059  0.190724  0.646000
0.075817  0.189543  0.642000
0.076800  0.188952  0.640000
0.077775  0.188362  0.638000
0.078619  0.187476  0.635000
0.079577  0.186886  0.633000
0.080655  0.186590  0.632000
0.081470  0.185705  0.629000
0.082537  0.185410  0.628000
0.083467  0.184819  0.626000
0.084659  0.184819  0.626000
0.085714  0.184524  0.625000
0.086766  0.184229  0.624000
0.087390  0.183048  0.620000
0.088000  0.181867  0.616000
0.088884  0.181276  0.614000
0.089907  0.180981  0.613000
0.090926  0.180686  0.612000
0.091640  0.179800  0.609000
0.092495  0.179210  0.607000
0.093343  0.178619  0.605000
0.094339  0.178324  0.604000
0.095331  0.178029  0.603000
0.096320  0.177733  0.602000
0.097143  0.177143  0.600000
0.098122  0.176848  0.599000
0.099097  0.176552  0.598000
0.099901  0.175962  0.596000
0.100697  0.175371  0.594000
0.101657  0.175076  0.593000
0.102440  0.174486  0.591000
0.103040  0.173600  0.588000
0.104160  0.173600  0.588000
0.105280  0.173600  0.588000
0.106400  0.173600  0.588000
0.107337  0.173305  0.587000
0.108455  0.173305  0.587000
0.109573  0.173305  0.587000
0.110880  0.173600  0.588000
0.112000  0.173600  0.588000
0.113120  0.173600  0.588000
0.114240  0.173600  0.588000
0.115360  0.173600  0.588000
0.116480  0.173600  0.588000
0.117800  0.173895  0.589000
0.119124  0.174190  0.590000
0.120248  0.174190  0.590000
0.121577  0.174486  0.591000
0.122703  0.174486  0.591000
0.124038  0.174781  0.592000
0.125377  0.175076  0.593000
0.126507  0.175076  0.593000
0.127851  0.175371  0.594000
0.129200  0.175667  0.595000
0.130333  0.175667  0.595000
0.131688  0.175962  0.596000
0.132823  0.175962  0.596000
0.133958  0.175962  0.596000
0.135093  0.175962  0.596000
0.136229  0.175962  0.596000
0.137594  0.176257  0.597000
0.138731  0.176257  0.597000
0.139869  0.176257  0.597000
0.141006  0.176257  0.597000
0.142619  0.176848  0.599000
0.143760  0.176848  0.599000
0.145143  0.177143  0.600000
0.146530  0.177438  0.601000
0.147920  0.177733  0.602000
0.149067  0.177733  0.602000
0.150463  0.178029  0.603000
0.151611  0.178029  0.603000
0.152760  0.178029  0.603000
0.154164  0.178324  0.604000
0.155314  0.178324  0.604000
0.156465  0.178324  0.604000
0.157615  0.178324  0.604000
0.159029  0.178619  0.605000
0.160446  0.178914  0.606000
0.161867  0.179210  0.607000
0.163023  0.179210  0.607000
0.164450  0.179505  0.608000
0.165608  0.179505  0.608000
0.167040  0.179800  0.609000
0.168200  0.179800  0.609000
0.169916  0.180390  0.611000
0.171080  0.180390  0.611000
0.172244  0.180390  0.611000
0.173691  0.180686  0.612000
0.175143  0.180981  0.613000
0.177173  0.181867  0.616000
-0.214229  0.205029  0.690000
-0.212914  0.205029  0.690000
-0.212520  0.205920  0.693000
-0.211505  0.206217  0.694000
-0.210486  0.206514  0.695000
-0.209162  0.206514  0.695000
-0.208735  0.207406  0.698000
-0.208000  0.208000  0.700000
-0.206962  0.208297  0.701000
-0.205627  0.208297  0.701000
-0.204874  0.208891  0.703000
-0.202956  0.208297  0.701000
-0.201621  0.208297  0.701000
-0.200286  0.208297  0.701000
-0.198950  0.208297  0.701000
-0.197615  0.208297  0.701000
-0.196280  0.208297  0.701000
-0.194945  0.208297  0.701000
-0.193610  0.208297  0.701000
-0.192274  0.208297  0.701000
-0.191756  0.209189  0.704000
-0.190686  0.209486  0.705000
-0.189343  0.209486  0.705000
-0.188000  0.209486  0.705000
-0.187187  0.210080  0.707000
-0.185840  0.210080  0.707000
-0.184754  0.210377  0.708000
-0.183406  0.210377  0.708000
-0.181474  0.211269  0.711000
-0.180120  0.211269  0.711000
-0.178766  0.211269  0.711000
-0.177411  0.211269  0.711000
-0.176057  0.211269  0.711000
-0.175194  0.211863  0.713000
-0.173836  0.211863  0.713000
-0.172478  0.211863  0.713000
-0.172080  0.213051  0.717000
-0.170714  0.213051  0.717000
-0.169349  0.213051  0.717000
-0.167983  0.213051  0.717000
-0.167082  0.213646  0.719000
-0.165943  0.213943  0.720000
-0.164571  0.213943  0.720000
-0.163653  0.214537  0.722000
-0.162278  0.214537  0.722000
-0.160903  0.214537  0.722000
-0.159528  0.214537  0.722000
-0.158371  0.214834  0.723000
-0.156994  0.214834  0.723000
-0.156048  0.215429  0.725000
-0.154667  0.215429  0.725000
-0.153920  0.216320  0.728000
-0.152743  0.216617  0.729000
-0.151354  0.216617  0.729000
-0.149966  0.216617  0.729000
-0.148577  0.216617  0.729000
-0.147189  0.216617  0.729000
-0.145800  0.216617  0.729000
-0.144808  0.217211  0.731000
-0.143023  0.216617  0.729000
-0.141634  0.216617  0.729000
-0.140630  0.217211  0.731000
-0.139429  0.217509  0.732000
-0.138034  0.217509  0.732000
-0.137013  0.218103  0.734000
-0.135615  0.218103  0.734000
-0.134217  0.218103  0.734000
-0.133362  0.218994  0.737000
-0.132316  0.219589  0.739000
-0.130554  0.218994  0.737000
-0.129150  0.218994  0.737000
-0.128093  0.219589  0.739000
-0.126686  0.219589  0.739000
-0.124939  0.218994  0.737000
-0.123535  0.218994  0.737000
-0.121966  0.218697  0.736000
-0.120564  0.218697  0.736000
0.046533  0.207406  0.698000
0.047794  0.207109  0.697000
0.049122  0.207109  0.697000
0.050450  0.207109  0.697000
0.051554  0.206217  0.694000
0.052800  0.205920  0.693000
0.053573  0.203840  0.686000
0.054720  0.203246  0.684000
0.055859  0.202651  0.682000
0.056990  0.202057  0.680000
0.058200  0.201760  0.679000
0.059143  0.200571  0.675000
0.060339  0.200274  0.674000
0.061440  0.199680  0.672000
0.062533  0.199086  0.670000
0.063714  0.198789  0.669000
0.064794  0.198194  0.667000
0.065867  0.197600  0.665000
0.066730  0.196411  0.661000
0.067680  0.195520  0.658000
0.068724  0.194926  0.656000
0.069867  0.194629  0.655000
0.070789  0.193737  0.652000
0.071920  0.193440  0.651000
0.073048  0.193143  0.650000
0.074057  0.192549  0.648000
0.074943  0.191657  0.645000
0.075581  0.190171  0.640000
0.076680  0.189874  0.639000
0.077531  0.188983  0.636000
0.078619  0.188686  0.635000
0.079577  0.188091  0.633000
0.080655  0.187794  0.632000
0.081730  0.187497  0.631000
0.082537  0.186606  0.628000
0.083467  0.186011  0.626000
0.084524  0.185714  0.625000
0.085714  0.185714  0.625000
0.086627  0.185120  0.623000
0.087390  0.184229  0.620000
0.087857  0.182743  0.615000
0.088739  0.182149  0.613000
0.089760  0.181851  0.612000
0.090777  0.181554  0.611000
0.091640  0.180960  0.609000
0.092648  0.180663  0.608000
0.093343  0.179771  0.605000
0.094339  0.179474  0.604000
0.095331  0.179177  0.603000
0.096320  0.178880  0.602000
0.097143  0.178286  0.600000
0.097958  0.177691  0.598000
0.098931  0.177394  0.597000
0.099733  0.176800  0.595000
0.100697  0.176503  0.594000
0.101657  0.176206  0.593000
0.102440  0.175611  0.591000
0.103040  0.174720  0.588000
0.104160  0.174720  0.588000
0.105280  0.174720  0.588000
0.106400  0.174720  0.588000
0.107337  0.174423  0.587000
0.108455  0.174423  0.587000
0.109573  0.174423  0.587000
0.110880  0.174720  0.588000
0.112000  0.174720  0.588000
0.113120  0.174720  0.588000
0.114240  0.174720  0.588000
0.115360  0.174720  0.588000
0.116480  0.174720  0.588000
0.117800  0.175017  0.589000
0.119124  0.175314  0.590000
0.120248  0.175314  0.590000
0.121577  0.175611  0.591000
0.122703  0.175611  0.591000
0.124038  0.175909  0.592000
0.125377  0.176206  0.593000
0.126507  0.176206  0.593000
0.128067  0.176800  0.595000
0.129200  0.176800  0.595000
0.130333  0.176800  0.595000
0.131688  0.177097  0.596000
0.132823  0.177097  0.596000
0.133958  0.177097  0.596000
0.135093  0.177097  0.596000
0.136457  0.177394  0.597000
0.137594  0.177394  0.597000
0.138731  0.177394  0.597000
0.140103  0.177691  0.598000
0.141242  0.177691  0.598000
0.142619  0.177989  0.599000
0.144000  0.178286  0.600000
0.145143  0.178286  0.600000
0.146530  0.178583  0.601000
0.147920  0.178880  0.602000
0.149067  0.178880  0.602000
0.150463  0.179177  0.603000
0.151611  0.179177  0.603000
0.152760  0.179177  0.603000
0.154164  0.179474  0.604000
0.155314  0.179474  0.604000
0.156724  0.179771  0.605000
0.157876  0.179771  0.605000
0.159291  0.180069  0.606000
0.160446  0.180069  0.606000
0.161867  0.180366  0.607000
0.163023  0.180366  0.607000
0.164450  0.180663  0.608000
0.165608  0.180663  0.608000
0.167040  0.180960  0.609000
0.168200  0.180960  0.609000
0.169360  0.180960  0.609000
0.170520  0.180960  0.609000
0.172244  0.181554  0.611000
0.173691  0.181851  0.612000
0.175429  0.182446  0.614000
0.177173  0.183040  0.616000
-0.219168  0.206044  0.689000
-0.217855  0.206044  0.689000
-0.216543  0.206044  0.689000
-0.215230  0.206044  0.689000
-0.213918  0.206044  0.689000
-0.212914  0.206343  0.690000
-0.212520  0.207240  0.693000
-0.211200  0.207240  0.693000
-0.209880  0.207240  0.693000
-0.208861  0.207539  0.694000
-0.207838  0.207838  0.695000
-0.207109  0.208436  0.697000
-0.206667  0.209333  0.700000
-0.205627  0.209632  0.701000
-0.204291  0.209632  0.701000
-0.202956  0.209632  0.701000
-0.201621  0.209632  0.701000
-0.200286  0.209632  0.701000
-0.198950  0.209632  0.701000
-0.197615  0.209632  0.701000
-0.196280  0.209632  0.701000
-0.194945  0.209632  0.701000
-0.193610  0.209632  0.701000
-0.192274  0.209632  0.701000
-0.191484  0.210230  0.703000
-0.190686  0.210829  0.705000
-0.189343  0.210829  0.705000
-0.188000  0.210829  0.705000
-0.187187  0.211427  0.707000
-0.185840  0.211427  0.707000
-0.184754  0.211726  0.708000
-0.183406  0.211726  0.708000
-0.182057  0.211726  0.708000
-0.180709  0.211726  0.708000
-0.179867  0.212324  0.710000
-0.178514  0.212324  0.710000
-0.177162  0.212324  0.710000
-0.175810  0.212324  0.710000
-0.174457  0.212324  0.710000
-0.173105  0.212324  0.710000
-0.171994  0.212623  0.711000
-0.171120  0.213221  0.713000
-0.169762  0.213221  0.713000
-0.168640  0.213520  0.714000
-0.167749  0.214118  0.716000
-0.166617  0.214417  0.717000
-0.165712  0.215015  0.719000
-0.164343  0.215015  0.719000
-0.163200  0.215314  0.720000
-0.161829  0.215314  0.720000
-0.160457  0.215314  0.720000
-0.159086  0.215314  0.720000
-0.157714  0.215314  0.720000
-0.156777  0.215912  0.722000
-0.155402  0.215912  0.722000
-0.154240  0.216211  0.723000
-0.153286  0.216810  0.725000
-0.152533  0.217707  0.728000
-0.151147  0.217707  0.728000
-0.149760  0.217707  0.728000
-0.148373  0.217707  0.728000
-0.146987  0.217707  0.728000
-0.145600  0.217707  0.728000
-0.144411  0.218006  0.729000
-0.143023  0.218006  0.729000
-0.141634  0.218006  0.729000
-0.140246  0.218006  0.729000
-0.139238  0.218604  0.731000
-0.137846  0.218604  0.731000
-0.136640  0.218903  0.732000
-0.135246  0.218903  0.732000
-0.133851  0.218903  0.732000
-0.133181  0.220099  0.736000
-0.131779  0.220099  0.736000
-0.130377  0.220099  0.736000
-0.128975  0.220099  0.736000
-0.127747  0.220398  0.737000
-0.126343  0.220398  0.737000
-0.124770  0.220099  0.736000
-0.123368  0.220099  0.736000
-0.121634  0.219501  0.734000
-0.120236  0.219501  0.734000
0.046533  0.208735  0.698000
0.047863  0.208735  0.698000
0.049192  0.208735  0.698000
0.050450  0.208436  0.697000
0.051554  0.207539  0.694000
0.052648  0.206642  0.691000
0.053651  0.205446  0.687000
0.054720  0.204549  0.684000
0.055859  0.203950  0.682000
0.056990  0.203352  0.680000
0.058114  0.202754  0.678000
0.059143  0.201857  0.675000
0.060160  0.200960  0.672000
0.061349  0.200661  0.671000
0.062533  0.200362  0.670000
0.063714  0.200063  0.669000
0.064697  0.199166  0.666000
0.065669  0.198269  0.663000
0.066730  0.197670  0.661000
0.067680  0.196773  0.658000
0.068724  0.196175  0.656000
0.069653  0.195278  0.653000
0.070789  0.194979  0.652000
0.071920  0.194680  0.651000
0.073048  0.194381  0.650000
0.074057  0.193783  0.648000
0.074478  0.191690  0.641000
0.075581  0.191390  0.640000
0.076680  0.191091  0.639000
0.077531  0.190194  0.636000
0.078619  0.189895  0.635000
0.079577  0.189297  0.633000
0.080655  0.188998  0.632000
0.081730  0.188699  0.631000
0.082537  0.187802  0.628000
0.083333  0.186905  0.625000
0.084389  0.186606  0.624000
0.085577  0.186606  0.624000
0.086488  0.186008  0.622000
0.087250  0.185110  0.619000
0.087857  0.183914  0.615000
0.088739  0.183316  0.613000
0.089760  0.183017  0.612000
0.090777  0.182718  0.611000
0.091640  0.182120  0.609000
0.092648  0.181821  0.608000
0.093651  0.181522  0.607000
0.094495  0.180924  0.605000
0.095331  0.180326  0.603000
0.096160  0.179728  0.601000
0.097143  0.179429  0.600000
0.097958  0.178830  0.598000
0.098766  0.178232  0.596000
0.099733  0.177933  0.595000
0.100528  0.177335  0.593000
0.101486  0.177036  0.592000
0.102440  0.176737  0.591000
0.103040  0.175840  0.588000
0.104160  0.175840  0.588000
0.105280  0.175840  0.588000
0.106400  0.175840  0.588000
0.107337  0.175541  0.587000
0.108455  0.175541  0.587000
0.109573  0.175541  0.587000
0.110880  0.175840  0.588000
0.112000  0.175840  0.588000
0.113120  0.175840  0.588000
0.114240  0.175840  0.588000
0.115360  0.175840  0.588000
0.116480  0.175840  0.588000
0.117800  0.176139  0.589000
0.119124  0.176438  0.590000
0.120248  0.176438  0.590000
0.121577  0.176737  0.591000
0.122703  0.176737  0.591000
0.124038  0.177036  0.592000
0.125377  0.177335  0.593000
0.126507  0.177335  0.593000
0.127851  0.177634  0.594000
0.129200  0.177933  0.595000
0.130333  0.177933  0.595000
0.131688  0.178232  0.596000
0.132823  0.178232  0.596000
0.133958  0.178232  0.596000
0.135093  0.178232  0.596000
0.136229  0.178232  0.596000
0.137594  0.178531  0.597000
0.138731  0.178531  0.597000
0.140103  0.178830  0.598000
0.141242  0.178830  0.598000
0.142619  0.179130  0.599000
0.144000  0.179429  0.600000
0.145143  0.179429  0.600000
0.146530  0.179728  0.601000
0.147674  0.179728  0.601000
0.149067  0.180027  0.602000
0.150463  0.180326  0.603000
0.151611  0.180326  0.603000
0.152760  0.180326  0.603000
0.154164  0.180625  0.604000
0.155571  0.180924  0.605000
0.156724  0.180924  0.605000
0.157876  0.180924  0.605000
0.159291  0.181223  0.606000
0.160446  0.181223  0.606000
0.161867  0.181522  0.607000
0.163023  0.181522  0.607000
0.164450  0.181821  0.608000
0.165608  0.181821  0.608000
0.167040  0.182120  0.609000
0.168200  0.182120  0.609000
0.169360  0.182120  0.609000
0.170520  0.182120  0.609000
0.172244  0.182718  0.611000
0.173691  0.183017  0.612000
0.174857  0.183017  0.612000
0.177173  0.184213  0.616000
-0.220480  0.207356  0.689000
-0.218531  0.206754  0.687000
-0.217223  0.206754  0.687000
-0.216543  0.207356  0.689000
-0.215230  0.207356  0.689000
-0.213918  0.207356  0.689000
-0.212914  0.207657  0.690000
-0.211907  0.207958  0.691000
-0.210590  0.207958  0.691000
-0.209274  0.207958  0.691000
-0.208560  0.208560  0.693000
-0.207539  0.208861  0.694000
-0.206514  0.209162  0.695000
-0.205781  0.209764  0.697000
-0.204747  0.210065  0.698000
-0.204000  0.210667  0.700000
-0.202667  0.210667  0.700000
-0.201333  0.210667  0.700000
-0.200000  0.210667  0.700000
-0.198667  0.210667  0.700000
-0.197615  0.210968  0.701000
-0.196280  0.210968  0.701000
-0.194667  0.210667  0.700000
-0.193333  0.210667  0.700000
-0.192274  0.210968  0.701000
-0.190939  0.210968  0.701000
-0.190415  0.211870  0.704000
-0.189343  0.212171  0.705000
-0.188000  0.212171  0.705000
-0.186657  0.212171  0.705000
-0.185840  0.212773  0.707000
-0.184493  0.212773  0.707000
-0.183147  0.212773  0.707000
-0.181800  0.212773  0.707000
-0.180453  0.212773  0.707000
-0.179360  0.213074  0.708000
-0.178011  0.213074  0.708000
-0.176663  0.213074  0.708000
-0.175314  0.213074  0.708000
-0.173966  0.213074  0.708000
-0.172617  0.213074  0.708000
-0.171752  0.213676  0.710000
-0.170640  0.213977  0.711000
-0.169286  0.213977  0.711000
-0.168404  0.214579  0.713000
-0.167046  0.214579  0.713000
-0.165920  0.214880  0.714000
-0.165021  0.215482  0.716000
-0.163886  0.215783  0.717000
-0.162520  0.215783  0.717000
-0.161604  0.216385  0.719000
-0.160234  0.216385  0.719000
-0.158865  0.216385  0.719000
-0.157495  0.216385  0.719000
-0.156126  0.216385  0.719000
-0.154971  0.216686  0.720000
-0.153600  0.216686  0.720000
-0.152651  0.217288  0.722000
-0.151486  0.217589  0.723000
-0.150524  0.218190  0.725000
-0.149349  0.218491  0.726000
-0.147966  0.218491  0.726000
-0.146583  0.218491  0.726000
-0.145200  0.218491  0.726000
-0.143817  0.218491  0.726000
-0.142827  0.219093  0.728000
-0.141440  0.219093  0.728000
-0.140053  0.219093  0.728000
-0.138857  0.219394  0.729000
-0.137469  0.219394  0.729000
-0.136080  0.219394  0.729000
-0.134691  0.219394  0.729000
-0.133669  0.219996  0.731000
-0.132819  0.220899  0.734000
-0.131421  0.220899  0.734000
-0.130023  0.220899  0.734000
-0.128625  0.220899  0.734000
-0.127573  0.221501  0.736000
-0.126171  0.221501  0.736000
-0.124770  0.221501  0.736000
-0.123368  0.221501  0.736000
-0.121634  0.220899  0.734000
-0.120236  0.220899  0.734000
-0.118838  0.220899  0.734000
0.046667  0.210667  0.700000
0.047863  0.210065  0.698000
0.049192  0.210065  0.698000
0.050450  0.209764  0.697000
0.051554  0.208861  0.694000
0.052648  0.207958  0.691000
0.053651  0.206754  0.687000
0.054720  0.205851  0.684000
0.055859  0.205250  0.682000
0.056907  0.204347  0.679000
0.057943  0.203444  0.676000
0.059143  0.203143  0.675000
0.060160  0.202240  0.672000
0.061349  0.201939  0.671000
0.062533  0.201638  0.670000
0.063714  0.201337  0.669000
0.064600  0.200133  0.665000
0.065669  0.199531  0.663000
0.066629  0.198629  0.660000
0.067577  0.197726  0.657000
0.068724  0.197425  0.656000
0.069653  0.196522  0.653000
0.070789  0.196221  0.652000
0.071810  0.195619  0.650000
0.072823  0.195017  0.648000
0.073829  0.194415  0.646000
0.074478  0.192910  0.641000
0.075581  0.192610  0.640000
0.076680  0.192309  0.639000
0.077775  0.192008  0.638000
0.078743  0.191406  0.636000
0.079829  0.191105  0.635000
0.080783  0.190503  0.633000
0.081730  0.189901  0.631000
0.082406  0.188697  0.627000
0.083333  0.188095  0.625000
0.084389  0.187794  0.624000
0.085577  0.187794  0.624000
0.086210  0.186590  0.620000
0.087250  0.186290  0.619000
0.087714  0.184785  0.614000
0.088739  0.184484  0.613000
0.089760  0.184183  0.612000
0.090777  0.183882  0.611000
0.091640  0.183280  0.609000
0.092648  0.182979  0.608000
0.093651  0.182678  0.607000
0.094495  0.182076  0.605000
0.095173  0.181173  0.602000
0.096160  0.180872  0.601000
0.096981  0.180270  0.599000
0.097958  0.179970  0.598000
0.098766  0.179368  0.596000
0.099566  0.178766  0.594000
0.100528  0.178465  0.593000
0.101486  0.178164  0.592000
0.102440  0.177863  0.591000
0.103390  0.177562  0.590000
0.104160  0.176960  0.588000
0.105280  0.176960  0.588000
0.106400  0.176960  0.588000
0.107337  0.176659  0.587000
0.108455  0.176659  0.587000
0.109573  0.176659  0.587000
0.110880  0.176960  0.588000
0.112000  0.176960  0.588000
0.113120  0.176960  0.588000
0.114240  0.176960  0.588000
0.115360  0.176960  0.588000
0.116480  0.176960  0.588000
0.117800  0.177261  0.589000
0.119124  0.177562  0.590000
0.120248  0.177562  0.590000
0.121577  0.177863  0.591000
0.122703  0.177863  0.591000
0.124038  0.178164  0.592000
0.125166  0.178164  0.592000
0.126507  0.178465  0.593000
0.127851  0.178766  0.594000
0.129200  0.179067  0.595000
0.130333  0.179067  0.595000
0.131688  0.179368  0.596000
0.132823  0.179368  0.596000
0.133958  0.179368  0.596000
0.135093  0.179368  0.596000
0.136229  0.179368  0.596000
0.137594  0.179669  0.597000
0.138731  0.179669  0.597000
0.140103  0.179970  0.598000
0.141478  0.180270  0.599000
0.142857  0.180571  0.600000
0.144000  0.180571  0.600000
0.145143  0.180571  0.600000
0.146530  0.180872  0.601000
0.147674  0.180872  0.601000
0.149067  0.181173  0.602000
0.150213  0.181173  0.602000
0.151611  0.181474  0.603000
0.152760  0.181474  0.603000
0.154164  0.181775  0.604000
0.155314  0.181775  0.604000
0.156724  0.182076  0.605000
0.157876  0.182076  0.605000
0.159291  0.182377  0.606000
0.160446  0.182377  0.606000
0.161867  0.182678  0.607000
0.163023  0.182678  0.607000
0.164179  0.182678  0.607000
0.165608  0.182979  0.608000
0.167040  0.183280  0.609000
0.168200  0.183280  0.609000
0.169916  0.183882  0.611000
0.171080  0.183882  0.611000
0.172244  0.183882  0.611000
0.173408  0.183882  0.611000
0.174857  0.184183  0.612000
0.177173  0.185387  0.616000
-0.249613  0.205640  0.679000
-0.248320  0.205640  0.679000
-0.247390  0.205943  0.680000
-0.244286  0.204429  0.675000
-0.242640  0.204126  0.674000
-0.241356  0.204126  0.674000
-0.240072  0.204126  0.674000
-0.238789  0.204126  0.674000
-0.237505  0.204126  0.674000
-0.236571  0.204429  0.675000
-0.235286  0.204429  0.675000
-0.234347  0.204731  0.676000
-0.233749  0.205337  0.678000
-0.232457  0.205337  0.678000
-0.231507  0.205640  0.679000
-0.220827  0.207760  0.686000
-0.219520  0.207760  0.686000
-0.218213  0.207760  0.686000
-0.216907  0.207760  0.686000
-0.215914  0.208063  0.687000
-0.215230  0.208669  0.689000
-0.214229  0.208971  0.690000
-0.212914  0.208971  0.690000
-0.211600  0.208971  0.690000
-0.210590  0.209274  0.691000
-0.209274  0.209274  0.691000
-0.207958  0.209274  0.691000
-0.207240  0.209880  0.693000
-0.205920  0.209880  0.693000
-0.204895  0.210183  0.694000
-0.203867  0.210486  0.695000
-0.203126  0.211091  0.697000
-0.201798  0.211091  0.697000
-0.200758  0.211394  0.698000
-0.200000  0.212000  0.700000
-0.198667  0.212000  0.700000
-0.197333  0.212000  0.700000
-0.196000  0.212000  0.700000
-0.194667  0.212000  0.700000
-0.193333  0.212000  0.700000
-0.192000  0.212000  0.700000
-0.190939  0.212303  0.701000
-0.190145  0.212909  0.703000
-0.189074  0.213211  0.704000
-0.187733  0.213211  0.704000
-0.186392  0.213211  0.704000
-0.185314  0.213514  0.705000
-0.183971  0.213514  0.705000
-0.182629  0.213514  0.705000
-0.181800  0.214120  0.707000
-0.180453  0.214120  0.707000
-0.179107  0.214120  0.707000
-0.178011  0.214423  0.708000
-0.176663  0.214423  0.708000
-0.175314  0.214423  0.708000
-0.173966  0.214423  0.708000
-0.172617  0.214423  0.708000
-0.171269  0.214423  0.708000
-0.170400  0.215029  0.710000
-0.169048  0.215029  0.710000
-0.167931  0.215331  0.711000
-0.166577  0.215331  0.711000
-0.165688  0.215937  0.713000
-0.164560  0.216240  0.714000
-0.163200  0.216240  0.714000
-0.161840  0.216240  0.714000
-0.160930  0.216846  0.716000
-0.159789  0.217149  0.717000
-0.158423  0.217149  0.717000
-0.157057  0.217149  0.717000
-0.155691  0.217149  0.717000
-0.154756  0.217754  0.719000
-0.153387  0.217754  0.719000
-0.152017  0.217754  0.719000
-0.150857  0.218057  0.720000
-0.149901  0.218663  0.722000
-0.148731  0.218966  0.723000
-0.147762  0.219571  0.725000
-0.146381  0.219571  0.725000
-0.145000  0.219571  0.725000
-0.143619  0.219571  0.725000
-0.142434  0.219874  0.726000
-0.141051  0.219874  0.726000
-0.140053  0.220480  0.728000
-0.138667  0.220480  0.728000
-0.137280  0.220480  0.728000
-0.135893  0.220480  0.728000
-0.134507  0.220480  0.728000
-0.133120  0.220480  0.728000
-0.132276  0.221389  0.731000
-0.130884  0.221389  0.731000
-0.129669  0.221691  0.732000
-0.128274  0.221691  0.732000
-0.127227  0.222297  0.734000
-0.126171  0.222903  0.736000
-0.124770  0.222903  0.736000
-0.123032  0.222297  0.734000
-0.121634  0.222297  0.734000
-0.120236  0.222297  0.734000
-0.118838  0.222297  0.734000
0.047863  0.211394  0.698000
0.049122  0.211091  0.697000
0.050305  0.210486  0.695000
0.051480  0.209880  0.693000
0.052571  0.208971  0.690000
0.053573  0.207760  0.686000
0.054640  0.206851  0.683000
0.055859  0.206549  0.682000
0.056907  0.205640  0.679000
0.057943  0.204731  0.676000
0.059143  0.204429  0.675000
0.060160  0.203520  0.672000
0.061349  0.203217  0.671000
0.062533  0.202914  0.670000
0.063714  0.202611  0.669000
0.064600  0.201400  0.665000
0.065570  0.200491  0.662000
0.066427  0.199280  0.658000
0.067577  0.198977  0.657000
0.068619  0.198371  0.655000
0.069653  0.197766  0.653000
0.070789  0.197463  0.652000
0.071810  0.196857  0.650000
0.072823  0.196251  0.648000
0.073714  0.195343  0.645000
0.074478  0.194131  0.641000
0.075581  0.193829  0.640000
0.076800  0.193829  0.640000
0.077897  0.193526  0.639000
0.078990  0.193223  0.638000
0.079829  0.192314  0.635000
0.080783  0.191709  0.633000
0.081470  0.190497  0.629000
0.082406  0.189891  0.627000
0.083200  0.188983  0.624000
0.084389  0.188983  0.624000
0.085577  0.188983  0.624000
0.086210  0.187771  0.620000
0.087109  0.187166  0.618000
0.087714  0.185954  0.614000
0.088739  0.185651  0.613000
0.089760  0.185349  0.612000
0.090777  0.185046  0.611000
0.091640  0.184440  0.609000
0.092648  0.184137  0.608000
0.093651  0.183834  0.607000
0.094651  0.183531  0.606000
0.095173  0.182320  0.602000
0.096000  0.181714  0.600000
0.096819  0.181109  0.598000
0.097630  0.180503  0.596000
0.098600  0.180200  0.595000
0.099566  0.179897  0.594000
0.100528  0.179594  0.593000
0.101486  0.179291  0.592000
0.102440  0.178989  0.591000
0.103390  0.178686  0.590000
0.104337  0.178383  0.589000
0.105280  0.178080  0.588000
0.106219  0.177777  0.587000
0.107337  0.177777  0.587000
0.108455  0.177777  0.587000
0.109573  0.177777  0.587000
0.110880  0.178080  0.588000
0.112000  0.178080  0.588000
0.113120  0.178080  0.588000
0.114240  0.178080  0.588000
0.115360  0.178080  0.588000
0.116480  0.178080  0.588000
0.117800  0.178383  0.589000
0.119124  0.178686  0.590000
0.120248  0.178686  0.590000
0.121577  0.178989  0.591000
0.122703  0.178989  0.591000
0.124038  0.179291  0.592000
0.125166  0.179291  0.592000
0.126507  0.179594  0.593000
0.127851  0.179897  0.594000
0.129200  0.180200  0.595000
0.130333  0.180200  0.595000
0.131467  0.180200  0.595000
0.132600  0.180200  0.595000
0.133733  0.180200  0.595000
0.135093  0.180503  0.596000
0.136229  0.180503  0.596000
0.137594  0.180806  0.597000
0.138731  0.180806  0.597000
0.140103  0.181109  0.598000
0.141478  0.181411  0.599000
0.142619  0.181411  0.599000
0.144000  0.181714  0.600000
0.145143  0.181714  0.600000
0.146286  0.181714  0.600000
0.147674  0.182017  0.601000
0.148819  0.182017  0.601000
0.150213  0.182320  0.602000
0.151360  0.182320  0.602000
0.152760  0.182623  0.603000
0.153909  0.182623  0.603000
0.155314  0.182926  0.604000
0.156465  0.182926  0.604000
0.157876  0.183229  0.605000
0.159029  0.183229  0.605000
0.160446  0.183531  0.606000
0.161867  0.183834  0.607000
0.163023  0.183834  0.607000
0.164179  0.183834  0.607000
0.165608  0.184137  0.608000
0.166766  0.184137  0.608000
0.168200  0.184440  0.609000
0.169360  0.184440  0.609000
0.171080  0.185046  0.611000
0.172244  0.185046  0.611000
0.173408  0.185046  0.611000
0.174857  0.185349  0.612000
0.176310  0.185651  0.613000
-0.252200  0.206933  0.679000
-0.250537  0.206629  0.678000
-0.249246  0.206629  0.678000
-0.247954  0.206629  0.678000
-0.245935  0.206019  0.676000
-0.244286  0.205714  0.675000
-0.242640  0.205410  0.674000
-0.241356  0.205410  0.674000
-0.240072  0.205410  0.674000
-0.238789  0.205410  0.674000
-0.237505  0.205410  0.674000
-0.236221  0.205410  0.674000
-0.234937  0.205410  0.674000
-0.234000  0.205714  0.675000
-0.233059  0.206019  0.676000
-0.231771  0.206019  0.676000
-0.231166  0.206629  0.678000
-0.229874  0.206629  0.678000
-0.228920  0.206933  0.679000
-0.227627  0.206933  0.679000
-0.226667  0.207238  0.680000
-0.225040  0.206933  0.679000
-0.223747  0.206933  0.679000
-0.223436  0.207848  0.682000
-0.222137  0.207848  0.682000
-0.220838  0.207848  0.682000
-0.219861  0.208152  0.683000
-0.218880  0.208457  0.684000
-0.217577  0.208457  0.684000
-0.216274  0.208457  0.684000
-0.215600  0.209067  0.686000
-0.214606  0.209371  0.687000
-0.213918  0.209981  0.689000
-0.212606  0.209981  0.689000
-0.211293  0.209981  0.689000
-0.210286  0.210286  0.690000
-0.208971  0.210286  0.690000
-0.207657  0.210286  0.690000
-0.206343  0.210286  0.690000
-0.205326  0.210590  0.691000
-0.204010  0.210590  0.691000
-0.203280  0.211200  0.693000
-0.202251  0.211505  0.694000
-0.200930  0.211505  0.694000
-0.199895  0.211810  0.695000
-0.199143  0.212419  0.697000
-0.197815  0.212419  0.697000
-0.196770  0.212724  0.698000
-0.195440  0.212724  0.698000
-0.194110  0.212724  0.698000
-0.192781  0.212724  0.698000
-0.191451  0.212724  0.698000
-0.190122  0.212724  0.698000
-0.189333  0.213333  0.700000
-0.188269  0.213638  0.701000
-0.187467  0.214248  0.703000
-0.186128  0.214248  0.703000
-0.184789  0.214248  0.703000
-0.183710  0.214552  0.704000
-0.182370  0.214552  0.704000
-0.181029  0.214552  0.704000
-0.179688  0.214552  0.704000
-0.178600  0.214857  0.705000
-0.177257  0.214857  0.705000
-0.176413  0.215467  0.707000
-0.175067  0.215467  0.707000
-0.173720  0.215467  0.707000
-0.172373  0.215467  0.707000
-0.171027  0.215467  0.707000
-0.169920  0.215771  0.708000
-0.168571  0.215771  0.708000
-0.167223  0.215771  0.708000
-0.166343  0.216381  0.710000
-0.165223  0.216686  0.711000
-0.163869  0.216686  0.711000
-0.162514  0.216686  0.711000
-0.161160  0.216686  0.711000
-0.160255  0.217295  0.713000
-0.159566  0.218210  0.716000
-0.158202  0.218210  0.716000
-0.156838  0.218210  0.716000
-0.155474  0.218210  0.716000
-0.154326  0.218514  0.717000
-0.152960  0.218514  0.717000
-0.152017  0.219124  0.719000
-0.150648  0.219124  0.719000
-0.149486  0.219429  0.720000
-0.148114  0.219429  0.720000
-0.147150  0.220038  0.722000
-0.145977  0.220343  0.723000
-0.144600  0.220343  0.723000
-0.143223  0.220343  0.723000
-0.142238  0.220952  0.725000
-0.140857  0.220952  0.725000
-0.139669  0.221257  0.726000
-0.138286  0.221257  0.726000
-0.136903  0.221257  0.726000
-0.135520  0.221257  0.726000
-0.134137  0.221257  0.726000
-0.132754  0.221257  0.726000
-0.131914  0.222171  0.729000
-0.130526  0.222171  0.729000
-0.129137  0.222171  0.729000
-0.128099  0.222781  0.731000
-0.126880  0.223086  0.732000
-0.125829  0.223695  0.734000
-0.124430  0.223695  0.734000
-0.123032  0.223695  0.734000
-0.121634  0.223695  0.734000
-0.120236  0.223695  0.734000
-0.118838  0.223695  0.734000
-0.117440  0.223695  0.734000
0.046533  0.212724  0.698000
0.047863  0.212724  0.698000
0.049122  0.212419  0.697000
0.050232  0.211505  0.694000
0.051331  0.210590  0.691000
0.052571  0.210286  0.690000
0.053573  0.209067  0.686000
0.054640  0.208152  0.683000
0.055941  0.208152  0.683000
0.056990  0.207238  0.680000
0.058114  0.206629  0.678000
0.059230  0.206019  0.676000
0.060160  0.204800  0.672000
0.061349  0.204495  0.671000
0.062533  0.204190  0.670000
0.063524  0.203276  0.667000
0.064406  0.202057  0.663000
0.065570  0.201752  0.662000
0.066427  0.200533  0.658000
0.067577  0.200229  0.657000
0.068619  0.199619  0.655000
0.069547  0.198705  0.652000
0.070680  0.198400  0.651000
0.071810  0.198095  0.650000
0.072823  0.197486  0.648000
0.073714  0.196571  0.645000
0.074594  0.195657  0.642000
0.075581  0.195048  0.640000
0.076800  0.195048  0.640000
0.077897  0.194743  0.639000
0.079114  0.194743  0.639000
0.080206  0.194438  0.638000
0.080910  0.193219  0.634000
0.081470  0.191695  0.629000
0.082274  0.190781  0.626000
0.083067  0.189867  0.623000
0.084253  0.189867  0.623000
0.085577  0.190171  0.624000
0.086070  0.188648  0.619000
0.086968  0.188038  0.617000
0.087714  0.187124  0.614000
0.088739  0.186819  0.613000
0.089760  0.186514  0.612000
0.090480  0.185600  0.609000
0.091640  0.185600  0.609000
0.092648  0.185295  0.608000
0.093651  0.184990  0.607000
0.094651  0.184686  0.606000
0.095015  0.183162  0.601000
0.096000  0.182857  0.600000
0.096657  0.181943  0.597000
0.097630  0.181638  0.596000
0.098600  0.181333  0.595000
0.099566  0.181029  0.594000
0.100528  0.180724  0.593000
0.101486  0.180419  0.592000
0.102440  0.180114  0.591000
0.103390  0.179810  0.590000
0.104337  0.179505  0.589000
0.105280  0.179200  0.588000
0.106219  0.178895  0.587000
0.107337  0.178895  0.587000
0.108455  0.178895  0.587000
0.109573  0.178895  0.587000
0.110880  0.179200  0.588000
0.112000  0.179200  0.588000
0.113120  0.179200  0.588000
0.114240  0.179200  0.588000
0.115360  0.179200  0.588000
0.116678  0.179505  0.589000
0.117800  0.179505  0.589000
0.119124  0.179810  0.590000
0.120248  0.179810  0.590000
0.121577  0.180114  0.591000
0.122703  0.180114  0.591000
0.124038  0.180419  0.592000
0.125166  0.180419  0.592000
0.126507  0.180724  0.593000
0.127851  0.181029  0.594000
0.128983  0.181029  0.594000
0.130333  0.181333  0.595000
0.131467  0.181333  0.595000
0.132600  0.181333  0.595000
0.133733  0.181333  0.595000
0.134867  0.181333  0.595000
0.136229  0.181638  0.596000
0.137364  0.181638  0.596000
0.138731  0.181943  0.597000
0.140103  0.182248  0.598000
0.141242  0.182248  0.598000
0.142619  0.182552  0.599000
0.144000  0.182857  0.600000
0.145143  0.182857  0.600000
0.146286  0.182857  0.600000
0.147674  0.183162  0.601000
0.148819  0.183162  0.601000
0.150213  0.183467  0.602000
0.151360  0.183467  0.602000
0.152760  0.183771  0.603000
0.153909  0.183771  0.603000
0.155314  0.184076  0.604000
0.156465  0.184076  0.604000
0.157876  0.184381  0.605000
0.159029  0.184381  0.605000
0.160446  0.184686  0.606000
0.161867  0.184990  0.607000
0.163023  0.184990  0.607000
0.164179  0.184990  0.607000
0.165608  0.185295  0.608000
0.166766  0.185295  0.608000
0.168200  0.185600  0.609000
0.169360  0.185600  0.609000
0.171080  0.186210  0.611000
0.172244  0.186210  0.611000
0.173408  0.186210  0.611000
0.174857  0.186514  0.612000
0.176023  0.186514  0.612000
-0.268257  0.210680  0.687000
-0.266560  0.210373  0.686000
-0.265253  0.210373  0.686000
-0.264331  0.210680  0.687000
-0.263789  0.211293  0.689000
-0.262857  0.211600  0.690000
-0.263059  0.212827  0.694000
-0.261737  0.212827  0.694000
-0.251829  0.207920  0.678000
-0.249798  0.207307  0.676000
-0.248510  0.207307  0.676000
-0.247223  0.207307  0.676000
-0.245571  0.207000  0.675000
-0.243924  0.206693  0.674000
-0.242640  0.206693  0.674000
-0.240640  0.206080  0.672000
-0.239360  0.206080  0.672000
-0.238080  0.206080  0.672000
-0.236448  0.205773  0.671000
-0.235170  0.205773  0.671000
-0.234240  0.206080  0.672000
-0.233653  0.206693  0.674000
-0.232714  0.207000  0.675000
-0.231429  0.207000  0.675000
-0.230143  0.207000  0.675000
-0.229196  0.207307  0.676000
-0.228583  0.207920  0.678000
-0.227291  0.207920  0.678000
-0.226333  0.208227  0.679000
-0.224709  0.207920  0.678000
-0.223417  0.207920  0.678000
-0.222453  0.208227  0.679000
-0.221486  0.208533  0.680000
-0.220190  0.208533  0.680000
-0.219539  0.209147  0.682000
-0.218560  0.209453  0.683000
-0.217259  0.209453  0.683000
-0.216274  0.209760  0.684000
-0.215600  0.210373  0.686000
-0.214293  0.210373  0.686000
-0.213297  0.210680  0.687000
-0.212606  0.211293  0.689000
-0.211293  0.211293  0.689000
-0.209981  0.211293  0.689000
-0.208669  0.211293  0.689000
-0.207657  0.211600  0.690000
-0.206343  0.211600  0.690000
-0.205029  0.211600  0.690000
-0.203714  0.211600  0.690000
-0.202693  0.211907  0.691000
-0.201377  0.211907  0.691000
-0.200061  0.211907  0.691000
-0.199320  0.212520  0.693000
-0.198286  0.212827  0.694000
