# .PCD v.5 - Point Cloud Data file format
FIELDS x y z 
SIZE 4 4 4
TYPE F F F
COUNT 1 1 1
WIDTH 1560
HEIGHT 1
POINTS 1560
DATA ascii
-0.190766  -0.272290  0.856000
-0.189577  -0.272926  0.858000
-0.187943  -0.272926  0.858000
-0.186743  -0.273562  0.860000
-0.185535  -0.274198  0.862000
-0.183893  -0.274198  0.862000
-0.182886  -0.275152  0.865000
-0.181238  -0.275152  0.865000
-0.179590  -0.275152  0.865000
-0.177943  -0.275152  0.865000
-0.175684  -0.274198  0.862000
-0.174042  -0.274198  0.862000
-0.172400  -0.274198  0.862000
-0.170758  -0.274198  0.862000
-0.169116  -0.274198  0.862000
-0.182046  -0.298055  0.937000
-0.180261  -0.298055  0.937000
-0.178476  -0.298055  0.937000
-0.176691  -0.298055  0.937000
-0.174533  -0.297419  0.935000
-0.172752  -0.297419  0.935000
-0.170423  -0.296465  0.932000
-0.168286  -0.295829  0.930000
-0.165977  -0.294874  0.927000
-0.164211  -0.294874  0.927000
-0.162971  -0.295829  0.930000
-0.161200  -0.295829  0.930000
-0.159771  -0.296465  0.932000
-0.157657  -0.295829  0.930000
-0.155886  -0.295829  0.930000
-0.154114  -0.295829  0.930000
-0.152670  -0.296465  0.932000
-0.150571  -0.295829  0.930000
-0.148800  -0.295829  0.930000
-0.147029  -0.295829  0.930000
-0.145257  -0.295829  0.930000
-0.143486  -0.295829  0.930000
-0.141714  -0.295829  0.930000
-0.138438  -0.292648  0.920000
-0.136686  -0.292648  0.920000
-0.134933  -0.292648  0.920000
-0.133181  -0.292648  0.920000
-0.134286  -0.299010  0.940000
-0.132495  -0.299010  0.940000
-0.130705  -0.299010  0.940000
-0.128914  -0.299010  0.940000
-0.125366  -0.294874  0.927000
-0.123600  -0.294874  0.927000
-0.122229  -0.295829  0.930000
-0.120457  -0.295829  0.930000
-0.118686  -0.295829  0.930000
-0.116914  -0.295829  0.930000
-0.115143  -0.295829  0.930000
-0.113371  -0.295829  0.930000
-0.112200  -0.297419  0.935000
-0.110419  -0.297419  0.935000
-0.108290  -0.296465  0.932000
-0.106514  -0.296465  0.932000
-0.104514  -0.295829  0.930000
-0.102743  -0.295829  0.930000
-0.101189  -0.296465  0.932000
-0.099947  -0.298055  0.937000
-0.098162  -0.298055  0.937000
-0.096377  -0.298055  0.937000
-0.094592  -0.298055  0.937000
-0.092808  -0.298055  0.937000
-0.091023  -0.298055  0.937000
-0.089524  -0.299010  0.940000
-0.087733  -0.299010  0.940000
-0.085943  -0.299010  0.940000
-0.084331  -0.299646  0.942000
-0.082537  -0.299646  0.942000
-0.080743  -0.299646  0.942000
-0.079200  -0.300600  0.945000
-0.077400  -0.300600  0.945000
-0.075600  -0.300600  0.945000
-0.074034  -0.301554  0.948000
-0.072229  -0.301554  0.948000
-0.070423  -0.301554  0.948000
-0.066590  -0.292648  0.920000
-0.064838  -0.292648  0.920000
-0.063086  -0.292648  0.920000
-0.061333  -0.292648  0.920000
-0.060034  -0.294874  0.927000
-0.058269  -0.294874  0.927000
-0.056503  -0.294874  0.927000
-0.054737  -0.294874  0.927000
-0.053143  -0.295829  0.930000
-0.051371  -0.295829  0.930000
-0.049867  -0.297419  0.935000
-0.048189  -0.298055  0.937000
-0.044621  -0.286604  0.901000
-0.042905  -0.286604  0.901000
-0.041051  -0.285650  0.898000
-0.039341  -0.285650  0.898000
-0.037630  -0.285650  0.898000
-0.035920  -0.285650  0.898000
-0.034210  -0.285650  0.898000
-0.032427  -0.285013  0.896000
-0.030651  -0.284377  0.894000
-0.028949  -0.284377  0.894000
-0.027246  -0.284377  0.894000
-0.025457  -0.283423  0.891000
-0.023707  -0.282787  0.889000
-0.022013  -0.282787  0.889000
-0.020274  -0.282150  0.887000
-0.018585  -0.282150  0.887000
-0.016838  -0.281196  0.884000
-0.015154  -0.281196  0.884000
-0.013470  -0.281196  0.884000
-0.011787  -0.281196  0.884000
-0.010103  -0.281196  0.884000
-0.008419  -0.281196  0.884000
-0.006720  -0.280560  0.882000
-0.005040  -0.280560  0.882000
-0.003352  -0.279924  0.880000
-0.001672  -0.279288  0.878000
0.000000  -0.279288  0.878000
0.001672  -0.279288  0.878000
0.003345  -0.279288  0.878000
0.005000  -0.278333  0.875000
0.006667  -0.278333  0.875000
0.008333  -0.278333  0.875000
0.009977  -0.277697  0.873000
0.011640  -0.277697  0.873000
0.013272  -0.277061  0.871000
0.014931  -0.277061  0.871000
0.016552  -0.276425  0.869000
0.018208  -0.276425  0.869000
0.019863  -0.276425  0.869000
0.021518  -0.276425  0.869000
0.023120  -0.275789  0.867000
0.024771  -0.275789  0.867000
0.026423  -0.275789  0.867000
0.028074  -0.275789  0.867000
0.029726  -0.275789  0.867000
0.031305  -0.275152  0.865000
0.032952  -0.275152  0.865000
0.034480  -0.274198  0.862000
0.036122  -0.274198  0.862000
0.037764  -0.274198  0.862000
0.039406  -0.274198  0.862000
0.040952  -0.273562  0.860000
0.042590  -0.273562  0.860000
0.044229  -0.273562  0.860000
0.045760  -0.272926  0.858000
0.047394  -0.272926  0.858000
0.049029  -0.272926  0.858000
0.050545  -0.272290  0.856000
0.052175  -0.272290  0.856000
0.053806  -0.272290  0.856000
0.055307  -0.271653  0.854000
0.056933  -0.271653  0.854000
0.058560  -0.271653  0.854000
0.060046  -0.271017  0.852000
0.061669  -0.271017  0.852000
0.063291  -0.271017  0.852000
0.064914  -0.271017  0.852000
0.066537  -0.271017  0.852000
0.068000  -0.270381  0.850000
0.069619  -0.270381  0.850000
0.071070  -0.269745  0.848000
0.072686  -0.269745  0.848000
0.074301  -0.269745  0.848000
0.075648  -0.268790  0.845000
0.077257  -0.268790  0.845000
0.078867  -0.268790  0.845000
0.080476  -0.268790  0.845000
0.081891  -0.268154  0.843000
0.083497  -0.268154  0.843000
0.085103  -0.268154  0.843000
0.086709  -0.268154  0.843000
0.088314  -0.268154  0.843000
0.090133  -0.268790  0.845000
0.091743  -0.268790  0.845000
0.093352  -0.268790  0.845000
0.095299  -0.269745  0.848000
0.097143  -0.270381  0.850000
0.099459  -0.272290  0.856000
0.101562  -0.273562  0.860000
0.103440  -0.274198  0.862000
0.105448  -0.275152  0.865000
0.107343  -0.275789  0.867000
0.109246  -0.276425  0.869000
0.111156  -0.277061  0.871000
0.113333  -0.278333  0.875000
0.115394  -0.279288  0.878000
0.117333  -0.279924  0.880000
0.119550  -0.281196  0.884000
0.122606  -0.284377  0.894000
0.124587  -0.285013  0.896000
0.126293  -0.285013  0.896000
0.132429  -0.294874  0.927000
0.134194  -0.294874  0.927000
0.135960  -0.294874  0.927000
0.137726  -0.294874  0.927000
0.139491  -0.294874  0.927000
0.141257  -0.294874  0.927000
0.143023  -0.294874  0.927000
0.144789  -0.294874  0.927000
0.146554  -0.294874  0.927000
0.148320  -0.294874  0.927000
0.150086  -0.294874  0.927000
0.152343  -0.295829  0.930000
0.153617  -0.294874  0.927000
0.155383  -0.294874  0.927000
0.159691  -0.299646  0.942000
0.162000  -0.300600  0.945000
0.163800  -0.300600  0.945000
0.166126  -0.301554  0.948000
0.166514  -0.299010  0.940000
0.167410  -0.297419  0.935000
0.169190  -0.297419  0.935000
0.170971  -0.297419  0.935000
0.172752  -0.297419  0.935000
0.173600  -0.295829  0.930000
0.175371  -0.295829  0.930000
0.177143  -0.295829  0.930000
0.178914  -0.295829  0.930000
0.180103  -0.294874  0.927000
0.181869  -0.294874  0.927000
0.184229  -0.295829  0.930000
0.186000  -0.295829  0.930000
0.187771  -0.295829  0.930000
0.189543  -0.295829  0.930000
0.190697  -0.294874  0.927000
0.192463  -0.294874  0.927000
0.193810  -0.294238  0.925000
0.195571  -0.294238  0.925000
0.197333  -0.294238  0.925000
0.199526  -0.294874  0.927000
0.201291  -0.294874  0.927000
0.202619  -0.294238  0.925000
0.208800  -0.300600  0.945000
0.210600  -0.300600  0.945000
0.212400  -0.300600  0.945000
0.216467  -0.303781  0.955000
0.218286  -0.303781  0.955000
-0.546707  -0.293440  0.917000
-0.543771  -0.292800  0.915000
-0.542029  -0.292800  0.915000
-0.537333  -0.291200  0.910000
-0.535600  -0.291200  0.910000
-0.533867  -0.291200  0.910000
-0.533888  -0.292160  0.913000
-0.533314  -0.292800  0.915000
-0.531571  -0.292800  0.915000
-0.529829  -0.292800  0.915000
-0.528086  -0.292800  0.915000
-0.526343  -0.292800  0.915000
-0.525747  -0.293440  0.917000
-0.525714  -0.294400  0.920000
-0.523962  -0.294400  0.920000
-0.522210  -0.294400  0.920000
-0.518760  -0.293440  0.917000
-0.517013  -0.293440  0.917000
-0.515267  -0.293440  0.917000
-0.513520  -0.293440  0.917000
-0.509541  -0.292160  0.913000
-0.506133  -0.291200  0.910000
-0.503291  -0.290560  0.908000
-0.501562  -0.290560  0.908000
-0.499832  -0.290560  0.908000
-0.498103  -0.290560  0.908000
-0.499107  -0.292160  0.913000
-0.497368  -0.292160  0.913000
-0.494000  -0.291200  0.910000
-0.489562  -0.289600  0.905000
-0.487838  -0.289600  0.905000
-0.487726  -0.290560  0.908000
-0.484390  -0.289600  0.905000
-0.482667  -0.289600  0.905000
-0.480943  -0.289600  0.905000
-0.479219  -0.289600  0.905000
-0.477495  -0.289600  0.905000
-0.478400  -0.291200  0.910000
-0.475619  -0.290560  0.908000
-0.473890  -0.290560  0.908000
-0.474760  -0.292160  0.913000
-0.473021  -0.292160  0.913000
-0.471282  -0.292160  0.913000
-0.470571  -0.292800  0.915000
-0.468829  -0.292800  0.915000
-0.467086  -0.292800  0.915000
-0.465343  -0.292800  0.915000
-0.463600  -0.292800  0.915000
-0.461857  -0.292800  0.915000
-0.461120  -0.293440  0.917000
-0.458371  -0.292800  0.915000
-0.455630  -0.292160  0.913000
-0.452400  -0.291200  0.910000
-0.448190  -0.289600  0.905000
-0.445480  -0.288960  0.903000
-0.443760  -0.288960  0.903000
-0.443019  -0.289600  0.905000
-0.440320  -0.288960  0.903000
-0.438600  -0.288960  0.903000
-0.436880  -0.288960  0.903000
-0.435160  -0.288960  0.903000
-0.433440  -0.288960  0.903000
-0.436501  -0.292160  0.913000
-0.435714  -0.292800  0.915000
-0.434920  -0.293440  0.917000
-0.433173  -0.293440  0.917000
-0.432838  -0.294400  0.920000
-0.431086  -0.294400  0.920000
-0.429333  -0.294400  0.920000
-0.427581  -0.294400  0.920000
-0.425829  -0.294400  0.920000
-0.424998  -0.295040  0.922000
-0.425537  -0.296640  0.927000
-0.421486  -0.295040  0.922000
-0.419730  -0.295040  0.922000
-0.417973  -0.295040  0.922000
-0.416217  -0.295040  0.922000
-0.414461  -0.295040  0.922000
-0.412705  -0.295040  0.922000
-0.412286  -0.296000  0.925000
-0.411411  -0.296640  0.927000
-0.409646  -0.296640  0.927000
-0.407880  -0.296640  0.927000
-0.405238  -0.296000  0.925000
-0.403476  -0.296000  0.925000
-0.402583  -0.296640  0.927000
-0.400817  -0.296640  0.927000
-0.399051  -0.296640  0.927000
-0.392143  -0.292800  0.915000
-0.390400  -0.292800  0.915000
-0.388657  -0.292800  0.915000
-0.389874  -0.295040  0.922000
-0.390223  -0.296640  0.927000
-0.385524  -0.294400  0.920000
-0.383771  -0.294400  0.920000
-0.380773  -0.293440  0.917000
-0.379027  -0.293440  0.917000
-0.378514  -0.294400  0.920000
-0.376762  -0.294400  0.920000
-0.373787  -0.293440  0.917000
-0.372040  -0.293440  0.917000
-0.371505  -0.294400  0.920000
-0.367743  -0.292800  0.915000
-0.366000  -0.292800  0.915000
-0.366248  -0.294400  0.920000
-0.363307  -0.293440  0.917000
-0.361560  -0.293440  0.917000
-0.363737  -0.296640  0.927000
-0.361971  -0.296640  0.927000
-0.363314  -0.299200  0.935000
-0.362307  -0.299840  0.937000
-0.360522  -0.299840  0.937000
-0.352229  -0.294400  0.920000
-0.350476  -0.294400  0.920000
-0.348724  -0.294400  0.920000
-0.347726  -0.295040  0.922000
-0.345970  -0.295040  0.922000
-0.344213  -0.295040  0.922000
-0.344314  -0.296640  0.927000
-0.342549  -0.296640  0.927000
-0.340783  -0.296640  0.927000
-0.339017  -0.296640  0.927000
-0.337251  -0.296640  0.927000
-0.335486  -0.296640  0.927000
-0.333000  -0.296000  0.925000
-0.331238  -0.296000  0.925000
-0.329476  -0.296000  0.925000
-0.326651  -0.295040  0.922000
-0.324895  -0.295040  0.922000
-0.324190  -0.296000  0.925000
-0.322429  -0.296000  0.925000
-0.320667  -0.296000  0.925000
-0.318905  -0.296000  0.925000
-0.317829  -0.296640  0.927000
-0.316063  -0.296640  0.927000
-0.315314  -0.297600  0.930000
-0.310846  -0.295040  0.922000
-0.309090  -0.295040  0.922000
-0.306667  -0.294400  0.920000
-0.304914  -0.294400  0.920000
-0.303821  -0.295040  0.922000
-0.301410  -0.294400  0.920000
-0.299657  -0.294400  0.920000
-0.296933  -0.293440  0.917000
-0.295187  -0.293440  0.917000
-0.292160  -0.292160  0.913000
-0.275152  -0.276800  0.865000
-0.272556  -0.275840  0.862000
-0.270914  -0.275840  0.862000
-0.269272  -0.275840  0.862000
-0.267010  -0.275200  0.860000
-0.264754  -0.274560  0.858000
-0.262507  -0.273920  0.856000
-0.260267  -0.273280  0.854000
-0.256823  -0.271360  0.848000
-0.255208  -0.271360  0.848000
-0.252695  -0.270400  0.845000
-0.251086  -0.270400  0.845000
-0.249476  -0.270400  0.845000
-0.247867  -0.270400  0.845000
-0.246257  -0.270400  0.845000
-0.244648  -0.270400  0.845000
-0.243038  -0.270400  0.845000
-0.241429  -0.270400  0.845000
-0.239251  -0.269760  0.843000
-0.237646  -0.269760  0.843000
-0.235480  -0.269120  0.841000
-0.233878  -0.269120  0.841000
-0.232276  -0.269120  0.841000
-0.230674  -0.269120  0.841000
-0.229072  -0.269120  0.841000
-0.227470  -0.269120  0.841000
-0.225869  -0.269120  0.841000
-0.224267  -0.269120  0.841000
-0.222665  -0.269120  0.841000
-0.221063  -0.269120  0.841000
-0.219461  -0.269120  0.841000
-0.218377  -0.269760  0.843000
-0.216771  -0.269760  0.843000
-0.215676  -0.270400  0.845000
-0.214067  -0.270400  0.845000
-0.212457  -0.270400  0.845000
-0.210349  -0.269760  0.843000
-0.208743  -0.269760  0.843000
-0.207137  -0.269760  0.843000
-0.206019  -0.270400  0.845000
-0.204410  -0.270400  0.845000
-0.202800  -0.270400  0.845000
-0.201190  -0.270400  0.845000
-0.200290  -0.271360  0.848000
-0.198674  -0.271360  0.848000
-0.197524  -0.272000  0.850000
-0.195905  -0.272000  0.850000
-0.194743  -0.272640  0.852000
-0.193573  -0.273280  0.854000
-0.192396  -0.273920  0.856000
-0.190766  -0.273920  0.856000
-0.189577  -0.274560  0.858000
-0.187943  -0.274560  0.858000
-0.186743  -0.275200  0.860000
-0.185535  -0.275840  0.862000
-0.183893  -0.275840  0.862000
-0.182886  -0.276800  0.865000
-0.181238  -0.276800  0.865000
-0.179590  -0.276800  0.865000
-0.177943  -0.276800  0.865000
-0.175684  -0.275840  0.862000
-0.174042  -0.275840  0.862000
-0.172400  -0.275840  0.862000
-0.170758  -0.275840  0.862000
-0.169116  -0.275840  0.862000
-0.181657  -0.299200  0.935000
-0.179876  -0.299200  0.935000
-0.178095  -0.299200  0.935000
-0.176691  -0.299840  0.937000
-0.173600  -0.297600  0.930000
-0.171829  -0.297600  0.930000
-0.169143  -0.296000  0.925000
-0.166838  -0.295040  0.922000
-0.165082  -0.295040  0.922000
-0.163326  -0.295040  0.922000
-0.162095  -0.296000  0.925000
-0.160333  -0.296000  0.925000
-0.158057  -0.295040  0.922000
-0.156301  -0.295040  0.922000
-0.154545  -0.295040  0.922000
-0.153617  -0.296640  0.927000
-0.152343  -0.297600  0.930000
-0.149276  -0.295040  0.922000
-0.147520  -0.295040  0.922000
-0.146238  -0.296000  0.925000
-0.144789  -0.296640  0.927000
-0.142251  -0.295040  0.922000
-0.139733  -0.293440  0.917000
-0.137987  -0.293440  0.917000
-0.136240  -0.293440  0.917000
-0.133907  -0.292160  0.913000
-0.132168  -0.292160  0.913000
-0.131429  -0.294400  0.920000
-0.129676  -0.294400  0.920000
-0.128897  -0.296640  0.927000
-0.127131  -0.296640  0.927000
-0.125366  -0.296640  0.927000
-0.123600  -0.296640  0.927000
-0.121834  -0.296640  0.927000
-0.120069  -0.296640  0.927000
-0.118303  -0.296640  0.927000
-0.116537  -0.296640  0.927000
-0.114771  -0.296640  0.927000
-0.113006  -0.296640  0.927000
-0.111600  -0.297600  0.930000
-0.109829  -0.297600  0.930000
-0.108057  -0.297600  0.930000
-0.105943  -0.296640  0.927000
-0.104177  -0.296640  0.927000
-0.102411  -0.296640  0.927000
-0.101189  -0.298240  0.932000
-0.099413  -0.298240  0.932000
-0.097638  -0.298240  0.932000
-0.096686  -0.300800  0.940000
-0.094895  -0.300800  0.940000
-0.092808  -0.299840  0.937000
-0.091023  -0.299840  0.937000
-0.089524  -0.300800  0.940000
-0.087733  -0.300800  0.940000
-0.085943  -0.300800  0.940000
-0.084331  -0.301440  0.942000
-0.082537  -0.301440  0.942000
-0.081000  -0.302400  0.945000
-0.079200  -0.302400  0.945000
-0.077400  -0.302400  0.945000
-0.075600  -0.302400  0.945000
-0.073800  -0.302400  0.945000
-0.072229  -0.303360  0.948000
-0.070423  -0.303360  0.948000
-0.066373  -0.293440  0.917000
-0.064627  -0.293440  0.917000
-0.062880  -0.293440  0.917000
-0.061333  -0.294400  0.920000
-0.059905  -0.296000  0.925000
-0.058143  -0.296000  0.925000
-0.056503  -0.296640  0.927000
-0.054737  -0.296640  0.927000
-0.052971  -0.296640  0.927000
-0.051371  -0.297600  0.930000
-0.049707  -0.298240  0.932000
-0.048189  -0.299840  0.937000
-0.046404  -0.299840  0.937000
-0.042905  -0.288320  0.901000
-0.041051  -0.287360  0.898000
-0.039341  -0.287360  0.898000
-0.037630  -0.287360  0.898000
-0.035920  -0.287360  0.898000
-0.034210  -0.287360  0.898000
-0.032427  -0.286720  0.896000
-0.030651  -0.286080  0.894000
-0.028949  -0.286080  0.894000
-0.027246  -0.286080  0.894000
-0.025457  -0.285120  0.891000
-0.023760  -0.285120  0.891000
-0.022013  -0.284480  0.889000
-0.020274  -0.283840  0.887000
-0.018585  -0.283840  0.887000
-0.016838  -0.282880  0.884000
-0.015154  -0.282880  0.884000
-0.013470  -0.282880  0.884000
-0.011787  -0.282880  0.884000
-0.010103  -0.282880  0.884000
-0.008419  -0.282880  0.884000
-0.006720  -0.282240  0.882000
-0.005040  -0.282240  0.882000
-0.003360  -0.282240  0.882000
-0.001672  -0.280960  0.878000
0.000000  -0.280960  0.878000
0.001672  -0.280960  0.878000
0.003345  -0.280960  0.878000
0.005000  -0.280000  0.875000
0.006667  -0.280000  0.875000
0.008333  -0.280000  0.875000
0.009977  -0.279360  0.873000
0.011640  -0.279360  0.873000
0.013272  -0.278720  0.871000
0.014931  -0.278720  0.871000
0.016552  -0.278080  0.869000
0.018208  -0.278080  0.869000
0.019863  -0.278080  0.869000
0.021518  -0.278080  0.869000
0.023173  -0.278080  0.869000
0.024771  -0.277440  0.867000
0.026423  -0.277440  0.867000
0.028074  -0.277440  0.867000
0.029726  -0.277440  0.867000
0.031377  -0.277440  0.867000
0.032952  -0.276800  0.865000
0.034480  -0.275840  0.862000
0.036122  -0.275840  0.862000
0.037764  -0.275840  0.862000
0.039406  -0.275840  0.862000
0.040952  -0.275200  0.860000
0.042590  -0.275200  0.860000
0.044229  -0.275200  0.860000
0.045760  -0.274560  0.858000
0.047394  -0.274560  0.858000
0.048914  -0.273920  0.856000
0.050545  -0.273920  0.856000
0.052175  -0.273920  0.856000
0.053806  -0.273920  0.856000
0.055307  -0.273280  0.854000
0.056933  -0.273280  0.854000
0.058560  -0.273280  0.854000
0.060046  -0.272640  0.852000
0.061669  -0.272640  0.852000
0.063291  -0.272640  0.852000
0.064914  -0.272640  0.852000
0.066537  -0.272640  0.852000
0.068000  -0.272000  0.850000
0.069619  -0.272000  0.850000
0.071238  -0.272000  0.850000
0.072686  -0.271360  0.848000
0.074301  -0.271360  0.848000
0.075648  -0.270400  0.845000
0.077257  -0.270400  0.845000
0.078867  -0.270400  0.845000
0.080476  -0.270400  0.845000
0.082086  -0.270400  0.845000
0.083695  -0.270400  0.845000
0.085103  -0.269760  0.843000
0.086709  -0.269760  0.843000
0.088314  -0.269760  0.843000
0.090133  -0.270400  0.845000
0.091743  -0.270400  0.845000
0.093352  -0.270400  0.845000
0.095299  -0.271360  0.848000
0.097371  -0.272640  0.852000
0.099459  -0.273920  0.856000
0.101562  -0.275200  0.860000
0.103440  -0.275840  0.862000
0.105448  -0.276800  0.865000
0.107343  -0.277440  0.867000
0.109246  -0.278080  0.869000
0.111156  -0.278720  0.871000
0.113333  -0.280000  0.875000
0.115657  -0.281600  0.880000
0.117600  -0.282240  0.882000
0.119956  -0.283840  0.887000
0.122606  -0.286080  0.894000
0.124587  -0.286720  0.896000
0.126293  -0.286720  0.896000
0.132143  -0.296000  0.925000
0.133905  -0.296000  0.925000
0.135667  -0.296000  0.925000
0.137429  -0.296000  0.925000
0.139190  -0.296000  0.925000
0.141257  -0.296640  0.927000
0.142714  -0.296000  0.925000
0.144476  -0.296000  0.925000
0.146238  -0.296000  0.925000
0.148000  -0.296000  0.925000
0.149762  -0.296000  0.925000
0.151524  -0.296000  0.925000
0.153286  -0.296000  0.925000
0.154545  -0.295040  0.922000
0.156301  -0.295040  0.922000
0.162000  -0.302400  0.945000
0.163800  -0.302400  0.945000
0.160693  -0.293440  0.917000
0.162440  -0.293440  0.917000
0.164187  -0.293440  0.917000
0.168648  -0.298240  0.932000
0.170423  -0.298240  0.932000
0.169427  -0.293440  0.917000
0.171173  -0.293440  0.917000
0.173486  -0.294400  0.920000
0.176190  -0.296000  0.925000
0.177952  -0.296000  0.925000
0.179714  -0.296000  0.925000
0.181476  -0.296000  0.925000
0.183634  -0.296640  0.927000
0.185400  -0.296640  0.927000
0.187166  -0.296640  0.927000
0.189543  -0.297600  0.930000
0.190697  -0.296640  0.927000
0.192048  -0.296000  0.925000
0.193810  -0.296000  0.925000
0.195571  -0.296000  0.925000
0.197333  -0.296000  0.925000
0.199095  -0.296000  0.925000
0.200857  -0.296000  0.925000
0.202619  -0.296000  0.925000
0.204381  -0.296000  0.925000
0.206143  -0.296000  0.925000
0.203410  -0.289600  0.905000
0.205133  -0.289600  0.905000
0.214840  -0.293440  0.917000
0.216587  -0.293440  0.917000
-0.539552  -0.291324  0.905000
-0.537829  -0.291324  0.905000
-0.536105  -0.291324  0.905000
-0.534381  -0.291324  0.905000
-0.532657  -0.291324  0.905000
-0.532693  -0.292290  0.908000
-0.532133  -0.292933  0.910000
-0.532149  -0.293899  0.913000
-0.530410  -0.293899  0.913000
-0.528670  -0.293899  0.913000
-0.526931  -0.293899  0.913000
-0.525192  -0.293899  0.913000
-0.523453  -0.293899  0.913000
-0.521714  -0.293899  0.913000
-0.519975  -0.293899  0.913000
-0.519371  -0.294543  0.915000
-0.516497  -0.293899  0.913000
-0.514758  -0.293899  0.913000
-0.513019  -0.293899  0.913000
-0.505680  -0.290680  0.903000
-0.502844  -0.290036  0.901000
-0.498347  -0.288427  0.896000
-0.496640  -0.288427  0.896000
-0.494933  -0.288427  0.896000
-0.495979  -0.290036  0.901000
-0.495360  -0.290680  0.903000
-0.496373  -0.292290  0.908000
-0.495733  -0.292933  0.910000
-0.490200  -0.290680  0.903000
-0.487398  -0.290036  0.901000
-0.485682  -0.290036  0.901000
-0.483966  -0.290036  0.901000
-0.482250  -0.290036  0.901000
-0.480533  -0.290036  0.901000
-0.478817  -0.290036  0.901000
-0.477101  -0.290036  0.901000
-0.475385  -0.290036  0.901000
-0.474720  -0.290680  0.903000
-0.473000  -0.290680  0.903000
-0.472324  -0.291324  0.905000
-0.470600  -0.291324  0.905000
-0.468876  -0.291324  0.905000
-0.467152  -0.291324  0.905000
-0.468000  -0.292933  0.910000
-0.466267  -0.292933  0.910000
-0.464533  -0.292933  0.910000
-0.464326  -0.293899  0.913000
-0.462587  -0.293899  0.913000
-0.460848  -0.293899  0.913000
-0.459109  -0.293899  0.913000
-0.455867  -0.292933  0.910000
-0.453135  -0.292290  0.908000
-0.451406  -0.292290  0.908000
-0.448190  -0.291324  0.905000
-0.445480  -0.290680  0.903000
-0.443760  -0.290680  0.903000
-0.442040  -0.290680  0.903000
-0.440320  -0.290680  0.903000
-0.438600  -0.290680  0.903000
-0.437848  -0.291324  0.905000
-0.436124  -0.291324  0.905000
-0.434400  -0.291324  0.905000
-0.435067  -0.292933  0.910000
-0.434762  -0.293899  0.913000
-0.433971  -0.294543  0.915000
-0.433173  -0.295187  0.917000
-0.431427  -0.295187  0.917000
-0.427806  -0.293899  0.913000
-0.426067  -0.293899  0.913000
-0.427581  -0.296152  0.920000
-0.425829  -0.296152  0.920000
-0.424998  -0.296796  0.922000
-0.420947  -0.295187  0.917000
-0.419200  -0.295187  0.917000
-0.417453  -0.295187  0.917000
-0.415707  -0.295187  0.917000
-0.413960  -0.295187  0.917000
-0.412213  -0.295187  0.917000
-0.411810  -0.296152  0.920000
-0.408720  -0.295187  0.917000
-0.406973  -0.295187  0.917000
-0.405227  -0.295187  0.917000
-0.404800  -0.296152  0.920000
-0.403924  -0.296796  0.922000
-0.402168  -0.296796  0.922000
-0.393029  -0.291324  0.905000
-0.391305  -0.291324  0.905000
-0.388720  -0.290680  0.903000
-0.387000  -0.290680  0.903000
-0.388267  -0.292933  0.910000
-0.386533  -0.292933  0.910000
-0.383954  -0.292290  0.908000
-0.382225  -0.292290  0.908000
-0.381333  -0.292933  0.910000
-0.380851  -0.293899  0.913000
-0.379112  -0.293899  0.913000
-0.377373  -0.293899  0.913000
-0.375634  -0.293899  0.913000
-0.369800  -0.290680  0.903000
-0.368080  -0.290680  0.903000
-0.367171  -0.291324  0.905000
-0.365448  -0.291324  0.905000
-0.363724  -0.291324  0.905000
-0.363200  -0.292290  0.908000
-0.362267  -0.292933  0.910000
-0.360533  -0.292933  0.910000
-0.359983  -0.293899  0.913000
-0.358244  -0.293899  0.913000
-0.357286  -0.294543  0.915000
-0.354766  -0.293899  0.913000
-0.353027  -0.293899  0.913000
-0.352057  -0.294543  0.915000
-0.351080  -0.295187  0.917000
-0.349333  -0.295187  0.917000
-0.347587  -0.295187  0.917000
-0.346971  -0.296152  0.920000
-0.345219  -0.296152  0.920000
-0.343467  -0.296152  0.920000
-0.341714  -0.296152  0.920000
-0.339962  -0.296152  0.920000
-0.338210  -0.296152  0.920000
-0.337189  -0.296796  0.922000
-0.334705  -0.296152  0.920000
-0.332952  -0.296152  0.920000
-0.331200  -0.296152  0.920000
-0.329448  -0.296152  0.920000
-0.326627  -0.295187  0.917000
-0.324880  -0.295187  0.917000
-0.323133  -0.295187  0.917000
-0.321387  -0.295187  0.917000
-0.319640  -0.295187  0.917000
-0.318933  -0.296152  0.920000
-0.317181  -0.296152  0.920000
-0.315429  -0.296152  0.920000
-0.313676  -0.296152  0.920000
-0.311924  -0.296152  0.920000
-0.309160  -0.295187  0.917000
-0.307413  -0.295187  0.917000
-0.304333  -0.293899  0.913000
-0.302594  -0.293899  0.913000
-0.300855  -0.293899  0.913000
-0.299116  -0.293899  0.913000
-0.298680  -0.295187  0.917000
-0.295638  -0.293899  0.913000
-0.293899  -0.293899  0.913000
-0.291200  -0.292933  0.910000
-0.289467  -0.292933  0.910000
-0.272556  -0.277482  0.862000
-0.270914  -0.277482  0.862000
-0.269272  -0.277482  0.862000
-0.267010  -0.276838  0.860000
-0.264754  -0.276194  0.858000
-0.262507  -0.275550  0.856000
-0.260267  -0.274907  0.854000
-0.256823  -0.272975  0.848000
-0.255208  -0.272975  0.848000
-0.252695  -0.272010  0.845000
-0.251086  -0.272010  0.845000
-0.249476  -0.272010  0.845000
-0.247867  -0.272010  0.845000
-0.246257  -0.272010  0.845000
-0.244648  -0.272010  0.845000
-0.243038  -0.272010  0.845000
-0.241429  -0.272010  0.845000
-0.239251  -0.271366  0.843000
-0.237646  -0.271366  0.843000
-0.235480  -0.270722  0.841000
-0.233878  -0.270722  0.841000
-0.232276  -0.270722  0.841000
-0.230674  -0.270722  0.841000
-0.229072  -0.270722  0.841000
-0.227470  -0.270722  0.841000
-0.225869  -0.270722  0.841000
-0.224267  -0.270722  0.841000
-0.222665  -0.270722  0.841000
-0.221063  -0.270722  0.841000
-0.219461  -0.270722  0.841000
-0.218377  -0.271366  0.843000
-0.217286  -0.272010  0.845000
-0.215676  -0.272010  0.845000
-0.214067  -0.272010  0.845000
-0.212457  -0.272010  0.845000
-0.210349  -0.271366  0.843000
-0.208743  -0.271366  0.843000
-0.207137  -0.271366  0.843000
-0.205531  -0.271366  0.843000
-0.204410  -0.272010  0.845000
-0.202800  -0.272010  0.845000
-0.201190  -0.272010  0.845000
-0.200290  -0.272975  0.848000
-0.198674  -0.272975  0.848000
-0.197524  -0.273619  0.850000
-0.195905  -0.273619  0.850000
-0.194743  -0.274263  0.852000
-0.193120  -0.274263  0.852000
-0.191947  -0.274907  0.854000
-0.190766  -0.275550  0.856000
-0.189577  -0.276194  0.858000
-0.188381  -0.276838  0.860000
-0.187177  -0.277482  0.862000
-0.185535  -0.277482  0.862000
-0.183893  -0.277482  0.862000
-0.182886  -0.278448  0.865000
-0.181238  -0.278448  0.865000
-0.179590  -0.278448  0.865000
-0.177943  -0.278448  0.865000
-0.176295  -0.278448  0.865000
-0.174042  -0.277482  0.862000
-0.172400  -0.277482  0.862000
-0.170758  -0.277482  0.862000
-0.178533  -0.292933  0.910000
-0.176800  -0.292933  0.910000
-0.175067  -0.292933  0.910000
-0.173333  -0.292933  0.910000
-0.171600  -0.292933  0.910000
-0.173600  -0.299371  0.930000
-0.171829  -0.299371  0.930000
-0.167680  -0.295187  0.917000
-0.165933  -0.295187  0.917000
-0.164187  -0.295187  0.917000
-0.162971  -0.296152  0.920000
-0.161219  -0.296152  0.920000
-0.159467  -0.296152  0.920000
-0.157714  -0.296152  0.920000
-0.155962  -0.296152  0.920000
-0.154210  -0.296152  0.920000
-0.152789  -0.296796  0.922000
-0.151032  -0.296796  0.922000
-0.148952  -0.296152  0.920000
-0.147200  -0.296152  0.920000
-0.145764  -0.296796  0.922000
-0.144008  -0.296796  0.922000
-0.141480  -0.295187  0.917000
-0.139429  -0.294543  0.915000
-0.137686  -0.294543  0.915000
-0.135943  -0.294543  0.915000
-0.133907  -0.293899  0.913000
-0.132168  -0.293899  0.913000
-0.131000  -0.295187  0.917000
-0.129253  -0.295187  0.917000
-0.128619  -0.297762  0.925000
-0.126857  -0.297762  0.925000
-0.125095  -0.297762  0.925000
-0.123333  -0.297762  0.925000
-0.121571  -0.297762  0.925000
-0.119421  -0.296796  0.922000
-0.117665  -0.296796  0.922000
-0.115909  -0.296796  0.922000
-0.114152  -0.296796  0.922000
-0.112396  -0.296796  0.922000
-0.110400  -0.296152  0.920000
-0.108648  -0.296152  0.920000
-0.107128  -0.296796  0.922000
-0.105714  -0.297762  0.925000
-0.103952  -0.297762  0.925000
-0.102190  -0.297762  0.925000
-0.100429  -0.297762  0.925000
-0.098667  -0.297762  0.925000
-0.092880  -0.290680  0.903000
-0.091665  -0.292290  0.908000
-0.089935  -0.292290  0.908000
-0.088206  -0.292290  0.908000
-0.086667  -0.292933  0.910000
-0.084933  -0.292933  0.910000
-0.083200  -0.292933  0.910000
-0.081467  -0.292933  0.910000
-0.079733  -0.292933  0.910000
-0.078000  -0.292933  0.910000
-0.076267  -0.292933  0.910000
-0.074533  -0.292933  0.910000
-0.075600  -0.304200  0.945000
-0.073800  -0.304200  0.945000
-0.072000  -0.304200  0.945000
-0.067451  -0.292290  0.908000
-0.065722  -0.292290  0.908000
-0.063992  -0.292290  0.908000
-0.062880  -0.295187  0.917000
-0.061333  -0.296152  0.920000
-0.059387  -0.295187  0.917000
-0.057640  -0.295187  0.917000
-0.056198  -0.296796  0.922000
-0.054619  -0.297762  0.925000
-0.052857  -0.297762  0.925000
-0.051206  -0.298406  0.927000
-0.049440  -0.298406  0.927000
-0.047674  -0.298406  0.927000
-0.044621  -0.290036  0.901000
-0.042905  -0.290036  0.901000
-0.041189  -0.290036  0.901000
-0.039341  -0.289070  0.898000
-0.037630  -0.289070  0.898000
-0.035920  -0.289070  0.898000
-0.034133  -0.288427  0.896000
-0.032427  -0.288427  0.896000
-0.030651  -0.287783  0.894000
-0.028949  -0.287783  0.894000
-0.027246  -0.287783  0.894000
-0.025457  -0.286817  0.891000
-0.023760  -0.286817  0.891000
-0.022013  -0.286173  0.889000
-0.020320  -0.286173  0.889000
-0.018627  -0.286173  0.889000
-0.016895  -0.285530  0.887000
-0.015206  -0.285530  0.887000
-0.013516  -0.285530  0.887000
-0.011787  -0.284564  0.884000
-0.010103  -0.284564  0.884000
-0.008400  -0.283920  0.882000
-0.006720  -0.283920  0.882000
-0.005040  -0.283920  0.882000
-0.003360  -0.283920  0.882000
-0.001672  -0.282632  0.878000
0.000000  -0.282632  0.878000
0.001672  -0.282632  0.878000
0.003345  -0.282632  0.878000
0.005000  -0.281667  0.875000
0.006667  -0.281667  0.875000
0.008333  -0.281667  0.875000
0.010000  -0.281667  0.875000
0.011640  -0.281023  0.873000
0.013272  -0.280379  0.871000
0.014931  -0.280379  0.871000
0.016590  -0.280379  0.871000
0.018208  -0.279735  0.869000
0.019863  -0.279735  0.869000
0.021518  -0.279735  0.869000
0.023173  -0.279735  0.869000
0.024829  -0.279735  0.869000
0.026423  -0.279091  0.867000
0.028074  -0.279091  0.867000
0.029726  -0.279091  0.867000
0.031377  -0.279091  0.867000
0.033029  -0.279091  0.867000
0.034600  -0.278448  0.865000
0.036122  -0.277482  0.862000
0.037764  -0.277482  0.862000
0.039406  -0.277482  0.862000
0.040857  -0.276194  0.858000
0.042491  -0.276194  0.858000
0.044229  -0.276838  0.860000
0.045760  -0.276194  0.858000
0.047394  -0.276194  0.858000
0.048914  -0.275550  0.856000
0.050545  -0.275550  0.856000
0.052175  -0.275550  0.856000
0.053806  -0.275550  0.856000
0.055307  -0.274907  0.854000
0.056933  -0.274907  0.854000
0.058560  -0.274907  0.854000
0.060187  -0.274907  0.854000
0.061669  -0.274263  0.852000
0.063291  -0.274263  0.852000
0.064914  -0.274263  0.852000
0.066537  -0.274263  0.852000
0.068000  -0.273619  0.850000
0.069619  -0.273619  0.850000
0.071070  -0.272975  0.848000
0.072686  -0.272975  0.848000
0.074301  -0.272975  0.848000
0.075916  -0.272975  0.848000
0.077257  -0.272010  0.845000
0.078867  -0.272010  0.845000
0.080476  -0.272010  0.845000
0.082086  -0.272010  0.845000
0.083497  -0.271366  0.843000
0.085103  -0.271366  0.843000
0.086709  -0.271366  0.843000
0.088524  -0.272010  0.845000
0.090133  -0.272010  0.845000
0.091743  -0.272010  0.845000
0.093352  -0.272010  0.845000
0.095524  -0.273619  0.850000
0.097371  -0.274263  0.852000
0.099459  -0.275550  0.856000
0.101326  -0.276194  0.858000
0.103200  -0.276838  0.860000
0.105448  -0.278448  0.865000
0.107095  -0.278448  0.865000
0.109246  -0.279735  0.869000
0.111156  -0.280379  0.871000
0.113333  -0.281667  0.875000
0.115394  -0.282632  0.878000
0.117333  -0.283276  0.880000
0.119956  -0.285530  0.887000
0.122880  -0.288427  0.896000
0.124865  -0.289070  0.898000
0.127280  -0.290680  0.903000
0.129286  -0.291324  0.905000
0.131733  -0.292933  0.910000
0.135227  -0.296796  0.922000
0.136983  -0.296796  0.922000
0.138739  -0.296796  0.922000
0.140952  -0.297762  0.925000
0.142251  -0.296796  0.922000
0.144008  -0.296796  0.922000
0.144973  -0.295187  0.917000
0.146720  -0.295187  0.917000
0.149276  -0.296796  0.922000
0.151524  -0.297762  0.925000
0.152789  -0.296796  0.922000
0.154545  -0.296796  0.922000
0.156301  -0.296796  0.922000
0.158057  -0.296796  0.922000
0.158947  -0.295187  0.917000
0.160693  -0.295187  0.917000
0.162440  -0.295187  0.917000
0.164187  -0.295187  0.917000
0.165933  -0.295187  0.917000
0.167680  -0.295187  0.917000
0.169427  -0.295187  0.917000
0.171173  -0.295187  0.917000
0.172920  -0.295187  0.917000
0.174667  -0.295187  0.917000
0.176990  -0.296152  0.920000
0.178743  -0.296152  0.920000
0.180495  -0.296152  0.920000
0.182644  -0.296796  0.922000
0.185000  -0.297762  0.925000
0.187166  -0.298406  0.927000
0.189543  -0.299371  0.930000
0.190697  -0.298406  0.927000
0.192048  -0.297762  0.925000
0.193810  -0.297762  0.925000
0.195571  -0.297762  0.925000
0.197333  -0.297762  0.925000
0.199095  -0.297762  0.925000
0.200857  -0.297762  0.925000
0.202619  -0.297762  0.925000
0.204381  -0.297762  0.925000
0.203410  -0.291324  0.905000
0.205133  -0.291324  0.905000
0.210425  -0.293899  0.913000
0.212164  -0.293899  0.913000
0.214371  -0.294543  0.915000
0.216114  -0.294543  0.915000
0.217381  -0.293899  0.913000
0.218400  -0.292933  0.910000
0.220133  -0.292933  0.910000
0.221379  -0.292290  0.908000
0.223109  -0.292290  0.908000
0.224838  -0.292290  0.908000
-0.538360  -0.292400  0.903000
-0.535451  -0.291752  0.901000
-0.533735  -0.291752  0.901000
-0.533200  -0.292400  0.903000
-0.531480  -0.292400  0.903000
-0.529760  -0.292400  0.903000
-0.529210  -0.293048  0.905000
-0.527486  -0.293048  0.905000
-0.527505  -0.294019  0.908000
-0.525775  -0.294019  0.908000
-0.524046  -0.294019  0.908000
-0.522316  -0.294019  0.908000
-0.521733  -0.294667  0.910000
-0.518857  -0.294019  0.908000
-0.517128  -0.294019  0.908000
-0.516533  -0.294667  0.910000
-0.513669  -0.294019  0.908000
-0.511939  -0.294019  0.908000
-0.508524  -0.293048  0.905000
-0.501760  -0.290133  0.896000
-0.500053  -0.290133  0.896000
-0.498347  -0.290133  0.896000
-0.496640  -0.290133  0.896000
-0.494933  -0.290133  0.896000
-0.493227  -0.290133  0.896000
-0.492617  -0.290781  0.898000
-0.492547  -0.291752  0.901000
-0.490830  -0.291752  0.901000
-0.489114  -0.291752  0.901000
-0.485775  -0.290781  0.898000
-0.484065  -0.290781  0.898000
-0.483966  -0.291752  0.901000
-0.482250  -0.291752  0.901000
-0.480533  -0.291752  0.901000
-0.477223  -0.290781  0.898000
-0.475512  -0.290781  0.898000
-0.473802  -0.290781  0.898000
-0.472091  -0.290781  0.898000
-0.471952  -0.291752  0.901000
-0.470236  -0.291752  0.901000
-0.466960  -0.290781  0.898000
-0.465250  -0.290781  0.898000
-0.465088  -0.291752  0.901000
-0.465429  -0.293048  0.905000
-0.465242  -0.294019  0.908000
-0.463512  -0.294019  0.908000
-0.462800  -0.294667  0.910000
-0.461067  -0.294667  0.910000
-0.459333  -0.294667  0.910000
-0.457600  -0.294667  0.910000
-0.454865  -0.294019  0.908000
-0.451638  -0.293048  0.905000
-0.449914  -0.293048  0.905000
-0.448190  -0.293048  0.905000
-0.444493  -0.291752  0.901000
-0.442777  -0.291752  0.901000
-0.442040  -0.292400  0.903000
-0.440320  -0.292400  0.903000
-0.438600  -0.292400  0.903000
-0.436880  -0.292400  0.903000
-0.435160  -0.292400  0.903000
-0.433440  -0.292400  0.903000
-0.434110  -0.294019  0.908000
-0.433333  -0.294667  0.910000
-0.431600  -0.294667  0.910000
-0.429867  -0.294667  0.910000
-0.428133  -0.294667  0.910000
-0.425463  -0.294019  0.908000
-0.423733  -0.294019  0.908000
-0.420610  -0.293048  0.905000
-0.418886  -0.293048  0.905000
-0.424998  -0.298552  0.922000
-0.415438  -0.293048  0.905000
-0.413714  -0.293048  0.905000
-0.416543  -0.296286  0.915000
-0.414800  -0.296286  0.915000
-0.413057  -0.296286  0.915000
-0.411314  -0.296286  0.915000
-0.409571  -0.296286  0.915000
-0.406937  -0.295638  0.913000
-0.403867  -0.294667  0.910000
-0.399924  -0.293048  0.905000
-0.398200  -0.293048  0.905000
-0.396476  -0.293048  0.905000
-0.393880  -0.292400  0.903000
-0.392160  -0.292400  0.903000
-0.390440  -0.292400  0.903000
-0.388720  -0.292400  0.903000
-0.387000  -0.292400  0.903000
-0.385280  -0.292400  0.903000
-0.383560  -0.292400  0.903000
-0.381840  -0.292400  0.903000
-0.380120  -0.292400  0.903000
-0.378400  -0.292400  0.903000
-0.378766  -0.294019  0.908000
-0.377036  -0.294019  0.908000
-0.374067  -0.293048  0.905000
-0.372343  -0.293048  0.905000
-0.369800  -0.292400  0.903000
-0.368080  -0.292400  0.903000
-0.366360  -0.292400  0.903000
-0.364640  -0.292400  0.903000
-0.362920  -0.292400  0.903000
-0.361200  -0.292400  0.903000
-0.360276  -0.293048  0.905000
-0.358552  -0.293048  0.905000
-0.358011  -0.294019  0.908000
-0.357067  -0.294667  0.910000
-0.355333  -0.294667  0.910000
-0.353600  -0.294667  0.910000
-0.351867  -0.294667  0.910000
-0.351288  -0.295638  0.913000
-0.349549  -0.295638  0.913000
-0.347810  -0.295638  0.913000
-0.346070  -0.295638  0.913000
-0.346971  -0.297905  0.920000
-0.343343  -0.296286  0.915000
-0.341600  -0.296286  0.915000
-0.339857  -0.296286  0.915000
-0.338114  -0.296286  0.915000
-0.336371  -0.296286  0.915000
-0.334629  -0.296286  0.915000
-0.332158  -0.295638  0.913000
-0.330419  -0.295638  0.913000
-0.330120  -0.296933  0.917000
-0.325150  -0.294019  0.908000
-0.323421  -0.294019  0.908000
-0.321691  -0.294019  0.908000
-0.319962  -0.294019  0.908000
-0.318933  -0.294667  0.910000
-0.317200  -0.294667  0.910000
-0.316507  -0.295638  0.913000
-0.314768  -0.295638  0.913000
-0.313714  -0.296286  0.915000
-0.313676  -0.297905  0.920000
-0.311924  -0.297905  0.920000
-0.306800  -0.294667  0.910000
-0.305067  -0.294667  0.910000
-0.303333  -0.294667  0.910000
-0.301600  -0.294667  0.910000
-0.299867  -0.294667  0.910000
-0.297478  -0.294019  0.908000
-0.295749  -0.294019  0.908000
-0.294019  -0.294019  0.908000
-0.292290  -0.294019  0.908000
-0.290560  -0.294019  0.908000
-0.288830  -0.294019  0.908000
-0.272556  -0.279124  0.862000
-0.270914  -0.279124  0.862000
-0.269272  -0.279124  0.862000
-0.267010  -0.278476  0.860000
-0.265371  -0.278476  0.860000
-0.262507  -0.277181  0.856000
-0.260876  -0.277181  0.856000
-0.256823  -0.274590  0.848000
-0.255208  -0.274590  0.848000
-0.253592  -0.274590  0.848000
-0.251086  -0.273619  0.845000
-0.249476  -0.273619  0.845000
-0.247867  -0.273619  0.845000
-0.246257  -0.273619  0.845000
-0.244648  -0.273619  0.845000
-0.243038  -0.273619  0.845000
-0.241429  -0.273619  0.845000
-0.239819  -0.273619  0.845000
-0.237646  -0.272971  0.843000
-0.236040  -0.272971  0.843000
-0.233878  -0.272324  0.841000
-0.232276  -0.272324  0.841000
-0.230674  -0.272324  0.841000
-0.229072  -0.272324  0.841000
-0.227470  -0.272324  0.841000
-0.225869  -0.272324  0.841000
-0.224267  -0.272324  0.841000
-0.222665  -0.272324  0.841000
-0.221063  -0.272324  0.841000
-0.219461  -0.272324  0.841000
-0.218377  -0.272971  0.843000
-0.217286  -0.273619  0.845000
-0.215676  -0.273619  0.845000
-0.214067  -0.273619  0.845000
-0.212457  -0.273619  0.845000
-0.210349  -0.272971  0.843000
-0.208743  -0.272971  0.843000
-0.207137  -0.272971  0.843000
-0.205531  -0.272971  0.843000
-0.204410  -0.273619  0.845000
-0.202800  -0.273619  0.845000
-0.201190  -0.273619  0.845000
-0.200290  -0.274590  0.848000
-0.198674  -0.274590  0.848000
-0.197524  -0.275238  0.850000
-0.195905  -0.275238  0.850000
-0.194743  -0.275886  0.852000
-0.193120  -0.275886  0.852000
-0.191947  -0.276533  0.854000
-0.190766  -0.277181  0.856000
-0.189577  -0.277829  0.858000
-0.187943  -0.277829  0.858000
-0.186743  -0.278476  0.860000
-0.185535  -0.279124  0.862000
-0.183893  -0.279124  0.862000
-0.182886  -0.280095  0.865000
-0.181238  -0.280095  0.865000
-0.179590  -0.280095  0.865000
-0.178354  -0.280743  0.867000
-0.176295  -0.280095  0.865000
-0.174648  -0.280095  0.865000
-0.173000  -0.280095  0.865000
-0.179870  -0.294019  0.908000
-0.178141  -0.294019  0.908000
-0.176411  -0.294019  0.908000
-0.174682  -0.294019  0.908000
-0.172952  -0.294019  0.908000
-0.171223  -0.294019  0.908000
-0.168187  -0.291752  0.901000
-0.169427  -0.296933  0.917000
-0.167680  -0.296933  0.917000
-0.165210  -0.295638  0.913000
-0.163470  -0.295638  0.913000
-0.162086  -0.296286  0.915000
-0.160693  -0.296933  0.917000
-0.158947  -0.296933  0.917000
-0.157200  -0.296933  0.917000
-0.155453  -0.296933  0.917000
-0.154210  -0.297905  0.920000
-0.152789  -0.298552  0.922000
-0.150705  -0.297905  0.920000
-0.148952  -0.297905  0.920000
-0.147200  -0.297905  0.920000
-0.145448  -0.297905  0.920000
-0.143227  -0.296933  0.917000
-0.140863  -0.295638  0.913000
-0.139124  -0.295638  0.913000
-0.137385  -0.295638  0.913000
-0.135646  -0.295638  0.913000
-0.133467  -0.294667  0.910000
-0.131733  -0.294667  0.910000
-0.130429  -0.295638  0.913000
-0.128971  -0.296286  0.915000
-0.128619  -0.299524  0.925000
-0.126857  -0.299524  0.925000
-0.123743  -0.296286  0.915000
-0.122000  -0.296286  0.915000
-0.118943  -0.293048  0.905000
-0.117219  -0.293048  0.905000
-0.117027  -0.296933  0.917000
-0.115280  -0.296933  0.917000
-0.113533  -0.296933  0.917000
-0.112152  -0.297905  0.920000
-0.110400  -0.297905  0.920000
-0.108648  -0.297905  0.920000
-0.106895  -0.297905  0.920000
-0.105371  -0.298552  0.922000
-0.103053  -0.296933  0.917000
-0.101307  -0.296933  0.917000
-0.099560  -0.296933  0.917000
-0.096320  -0.292400  0.903000
-0.094810  -0.293048  0.905000
-0.092880  -0.292400  0.903000
-0.091665  -0.294019  0.908000
-0.089935  -0.294019  0.908000
-0.088206  -0.294019  0.908000
-0.086476  -0.294019  0.908000
-0.084933  -0.294667  0.910000
-0.083200  -0.294667  0.910000
-0.081467  -0.294667  0.910000
-0.079733  -0.294667  0.910000
-0.078000  -0.294667  0.910000
-0.076267  -0.294667  0.910000
-0.074533  -0.294667  0.910000
-0.072800  -0.294667  0.910000
-0.069817  -0.289486  0.894000
-0.068114  -0.289486  0.894000
-0.066411  -0.289486  0.894000
-0.065360  -0.292400  0.903000
-0.063640  -0.292400  0.903000
-0.061920  -0.292400  0.903000
-0.060200  -0.292400  0.903000
-0.058480  -0.292400  0.903000
-0.057640  -0.296933  0.917000
-0.055893  -0.296933  0.917000
-0.054147  -0.296933  0.917000
-0.052400  -0.296933  0.917000
-0.051206  -0.300171  0.927000
-0.049440  -0.300171  0.927000
-0.047674  -0.300171  0.927000
-0.044621  -0.291752  0.901000
-0.042905  -0.291752  0.901000
-0.041189  -0.291752  0.901000
-0.039341  -0.290781  0.898000
-0.037630  -0.290781  0.898000
-0.035920  -0.290781  0.898000
-0.034133  -0.290133  0.896000
-0.032427  -0.290133  0.896000
-0.030651  -0.289486  0.894000
-0.028949  -0.289486  0.894000
-0.027246  -0.289486  0.894000
-0.025457  -0.288514  0.891000
-0.023760  -0.288514  0.891000
-0.022013  -0.287867  0.889000
-0.020320  -0.287867  0.889000
-0.018627  -0.287867  0.889000
-0.016895  -0.287219  0.887000
-0.015206  -0.287219  0.887000
-0.013516  -0.287219  0.887000
-0.011787  -0.286248  0.884000
-0.010103  -0.286248  0.884000
-0.008400  -0.285600  0.882000
-0.006720  -0.285600  0.882000
-0.005040  -0.285600  0.882000
-0.003352  -0.284952  0.880000
-0.001672  -0.284305  0.878000
0.000000  -0.284305  0.878000
0.001672  -0.284305  0.878000
0.003345  -0.284305  0.878000
0.005000  -0.283333  0.875000
0.006667  -0.283333  0.875000
0.008333  -0.283333  0.875000
0.009977  -0.282686  0.873000
0.011613  -0.282038  0.871000
0.013272  -0.282038  0.871000
0.014931  -0.282038  0.871000
0.016552  -0.281390  0.869000
0.018208  -0.281390  0.869000
0.019863  -0.281390  0.869000
0.021518  -0.281390  0.869000
0.023173  -0.281390  0.869000
0.024829  -0.281390  0.869000
0.026423  -0.280743  0.867000
0.028074  -0.280743  0.867000
0.029726  -0.280743  0.867000
0.031377  -0.280743  0.867000
0.033029  -0.280743  0.867000
0.034600  -0.280095  0.865000
0.036122  -0.279124  0.862000
0.037764  -0.279124  0.862000
0.039314  -0.278476  0.860000
0.040857  -0.277829  0.858000
0.042491  -0.277829  0.858000
0.044229  -0.278476  0.860000
0.045760  -0.277829  0.858000
0.047394  -0.277829  0.858000
0.048914  -0.277181  0.856000
0.050545  -0.277181  0.856000
0.052175  -0.277181  0.856000
0.053806  -0.277181  0.856000
0.055436  -0.277181  0.856000
0.056933  -0.276533  0.854000
0.058560  -0.276533  0.854000
0.060187  -0.276533  0.854000
0.061669  -0.275886  0.852000
0.063291  -0.275886  0.852000
0.064914  -0.275886  0.852000
0.066537  -0.275886  0.852000
0.068000  -0.275238  0.850000
0.069619  -0.275238  0.850000
0.071070  -0.274590  0.848000
0.072686  -0.274590  0.848000
0.074301  -0.274590  0.848000
0.075916  -0.274590  0.848000
0.077257  -0.273619  0.845000
0.078867  -0.273619  0.845000
0.080476  -0.273619  0.845000
0.082086  -0.273619  0.845000
0.083497  -0.272971  0.843000
0.085103  -0.272971  0.843000
0.086709  -0.272971  0.843000
0.088524  -0.273619  0.845000
0.090133  -0.273619  0.845000
0.091743  -0.273619  0.845000
0.093352  -0.273619  0.845000
0.095524  -0.275238  0.850000
0.097371  -0.275886  0.852000
0.099227  -0.276533  0.854000
0.101326  -0.277829  0.858000
0.103200  -0.278476  0.860000
0.105448  -0.280095  0.865000
0.107095  -0.280095  0.865000
0.109246  -0.281390  0.869000
0.111156  -0.282038  0.871000
0.113333  -0.283333  0.875000
0.115394  -0.284305  0.878000
0.117333  -0.284952  0.880000
0.119956  -0.287219  0.887000
0.122880  -0.290133  0.896000
0.124865  -0.290781  0.898000
0.127280  -0.292400  0.903000
0.129286  -0.293048  0.905000
0.131733  -0.294667  0.910000
0.134933  -0.297905  0.920000
0.136686  -0.297905  0.920000
0.138739  -0.298552  0.922000
0.140495  -0.298552  0.922000
0.141480  -0.296933  0.917000
0.143227  -0.296933  0.917000
0.144341  -0.295638  0.913000
0.146080  -0.295638  0.913000
0.148467  -0.296933  0.917000
0.149067  -0.294667  0.910000
0.150800  -0.294667  0.910000
0.153036  -0.295638  0.913000
0.152741  -0.291752  0.901000
0.154457  -0.291752  0.901000
0.156173  -0.291752  0.901000
0.157890  -0.291752  0.901000
0.159606  -0.291752  0.901000
0.163829  -0.296286  0.915000
0.165571  -0.296286  0.915000
0.167314  -0.296286  0.915000
0.169057  -0.296286  0.915000
0.170800  -0.296286  0.915000
0.172543  -0.296286  0.915000
0.174286  -0.296286  0.915000
0.176029  -0.296286  0.915000
0.177771  -0.296286  0.915000
0.179907  -0.296933  0.917000
0.181653  -0.296933  0.917000
0.185000  -0.299524  0.925000
0.186762  -0.299524  0.925000
0.188931  -0.300171  0.927000
0.191314  -0.301143  0.930000
0.192463  -0.300171  0.927000
0.194229  -0.300171  0.927000
0.194937  -0.298552  0.922000
0.196267  -0.297905  0.920000
0.198019  -0.297905  0.920000
0.201943  -0.301143  0.930000
0.203714  -0.301143  0.930000
0.199078  -0.291752  0.901000
0.200794  -0.291752  0.901000
0.203410  -0.293048  0.905000
0.205133  -0.293048  0.905000
0.206857  -0.293048  0.905000
0.209272  -0.294019  0.908000
0.211467  -0.294667  0.910000
0.213903  -0.295638  0.913000
0.214933  -0.294667  0.910000
0.216667  -0.294667  0.910000
0.217920  -0.294019  0.908000
0.219650  -0.294019  0.908000
0.221379  -0.294019  0.908000
0.223109  -0.294019  0.908000
0.224838  -0.294019  0.908000
0.226568  -0.294019  0.908000
-0.535379  -0.292491  0.898000
