# .PCD v.5 - Point Cloud Data file format
FIELDS x y z 
SIZE 4 4 4
TYPE F F F
COUNT 1 1 1
WIDTH 1558
HEIGHT 1
POINTS 1558
DATA ascii
-0.250629  -0.241886  0.765000
-0.248520  -0.241253  0.763000
-0.247067  -0.241253  0.763000
-0.245613  -0.241253  0.763000
-0.244160  -0.241253  0.763000
-0.242707  -0.241253  0.763000
-0.241253  -0.241253  0.763000
-0.238857  -0.240305  0.760000
-0.236785  -0.239672  0.758000
-0.234720  -0.239040  0.756000
-0.233280  -0.239040  0.756000
-0.231840  -0.239040  0.756000
-0.230400  -0.239040  0.756000
-0.228960  -0.239040  0.756000
-0.227520  -0.239040  0.756000
-0.225781  -0.238724  0.755000
-0.224343  -0.238724  0.755000
-0.223200  -0.239040  0.756000
-0.221760  -0.239040  0.756000
-0.220320  -0.239040  0.756000
-0.218880  -0.239040  0.756000
-0.217440  -0.239040  0.756000
-0.216000  -0.239040  0.756000
-0.215128  -0.239672  0.758000
-0.213684  -0.239672  0.758000
-0.212240  -0.239672  0.758000
-0.210796  -0.239672  0.758000
-0.209905  -0.240305  0.760000
-0.208457  -0.240305  0.760000
-0.207282  -0.240621  0.761000
-0.205832  -0.240621  0.761000
-0.204920  -0.241253  0.763000
-0.203467  -0.241253  0.763000
-0.202013  -0.241253  0.763000
-0.201086  -0.241886  0.765000
-0.199629  -0.241886  0.765000
-0.198171  -0.241886  0.765000
-0.196714  -0.241886  0.765000
-0.195768  -0.242518  0.767000
-0.194307  -0.242518  0.767000
-0.193097  -0.242834  0.768000
-0.191634  -0.242834  0.768000
-0.190667  -0.243467  0.770000
-0.189691  -0.244099  0.772000
-0.188221  -0.244099  0.772000
-0.186992  -0.244415  0.773000
-0.186000  -0.245048  0.775000
-0.184524  -0.245048  0.775000
-0.183048  -0.245048  0.775000
-0.182040  -0.245680  0.777000
-0.181025  -0.246312  0.779000
-0.179771  -0.246629  0.780000
-0.180800  -0.250107  0.791000
-0.179747  -0.250739  0.793000
-0.178686  -0.251371  0.795000
-0.177171  -0.251371  0.795000
-0.187400  -0.296270  0.937000
-0.185615  -0.296270  0.937000
-0.183830  -0.296270  0.937000
-0.182629  -0.297219  0.940000
-0.180838  -0.297219  0.940000
-0.178476  -0.296270  0.937000
-0.176314  -0.295638  0.935000
-0.174533  -0.295638  0.935000
-0.173122  -0.296270  0.937000
-0.171886  -0.297219  0.940000
-0.170095  -0.297219  0.940000
-0.166514  -0.294057  0.930000
-0.164743  -0.294057  0.930000
-0.162971  -0.294057  0.930000
-0.161200  -0.294057  0.930000
-0.161486  -0.297851  0.942000
-0.160200  -0.298800  0.945000
-0.158400  -0.298800  0.945000
-0.156600  -0.298800  0.945000
-0.154800  -0.298800  0.945000
-0.149276  -0.291528  0.922000
-0.147520  -0.291528  0.922000
-0.147029  -0.294057  0.930000
-0.145257  -0.294057  0.930000
-0.143486  -0.294057  0.930000
-0.140495  -0.291528  0.922000
-0.141749  -0.297851  0.942000
-0.139954  -0.297851  0.942000
-0.138160  -0.297851  0.942000
-0.137234  -0.299749  0.948000
-0.133857  -0.296270  0.937000
-0.132072  -0.296270  0.937000
-0.130288  -0.296270  0.937000
-0.128503  -0.296270  0.937000
-0.126718  -0.296270  0.937000
-0.124933  -0.296270  0.937000
-0.122886  -0.295638  0.935000
-0.120457  -0.294057  0.930000
-0.118686  -0.294057  0.930000
-0.116914  -0.294057  0.930000
-0.115143  -0.294057  0.930000
-0.113615  -0.294690  0.932000
-0.112200  -0.295638  0.935000
-0.110065  -0.294690  0.932000
-0.108057  -0.294057  0.930000
-0.106286  -0.294057  0.930000
-0.105301  -0.296270  0.937000
-0.103295  -0.295638  0.935000
-0.101514  -0.295638  0.935000
-0.099733  -0.295638  0.935000
-0.098162  -0.296270  0.937000
-0.096377  -0.296270  0.937000
-0.094895  -0.297219  0.940000
-0.093105  -0.297219  0.940000
-0.091314  -0.297219  0.940000
-0.089524  -0.297219  0.940000
-0.087733  -0.297219  0.940000
-0.085943  -0.297219  0.940000
-0.073371  -0.270659  0.856000
-0.071741  -0.270659  0.856000
-0.070110  -0.270659  0.856000
-0.068480  -0.270659  0.856000
-0.066693  -0.270027  0.854000
-0.064914  -0.269394  0.852000
-0.063291  -0.269394  0.852000
-0.061524  -0.268762  0.850000
-0.059764  -0.268130  0.848000
-0.058149  -0.268130  0.848000
-0.056533  -0.268130  0.848000
-0.054918  -0.268130  0.848000
-0.053303  -0.268130  0.848000
-0.051505  -0.267181  0.845000
-0.049895  -0.267181  0.845000
-0.048286  -0.267181  0.845000
-0.046566  -0.266549  0.843000
-0.044853  -0.265916  0.841000
-0.043149  -0.265284  0.839000
-0.041550  -0.265284  0.839000
-0.039952  -0.265284  0.839000
-0.038354  -0.265284  0.839000
-0.036756  -0.265284  0.839000
-0.035158  -0.265284  0.839000
-0.033560  -0.265284  0.839000
-0.031962  -0.265284  0.839000
-0.030364  -0.265284  0.839000
-0.028766  -0.265284  0.839000
-0.027168  -0.265284  0.839000
-0.025570  -0.265284  0.839000
-0.023971  -0.265284  0.839000
-0.022373  -0.265284  0.839000
-0.020726  -0.264651  0.837000
-0.019131  -0.264651  0.837000
-0.017537  -0.264651  0.837000
-0.015943  -0.264651  0.837000
-0.014349  -0.264651  0.837000
-0.012754  -0.264651  0.837000
-0.011160  -0.264651  0.837000
-0.009543  -0.264019  0.835000
-0.007952  -0.264019  0.835000
-0.006347  -0.263387  0.833000
-0.004760  -0.263387  0.833000
-0.003166  -0.262754  0.831000
-0.001579  -0.262122  0.829000
0.000000  -0.262122  0.829000
0.001575  -0.261490  0.827000
0.003150  -0.261490  0.827000
0.004726  -0.261490  0.827000
0.006301  -0.261490  0.827000
0.007876  -0.261490  0.827000
0.009451  -0.261490  0.827000
0.011027  -0.261490  0.827000
0.012602  -0.261490  0.827000
0.014143  -0.260857  0.825000
0.015714  -0.260857  0.825000
0.017244  -0.260225  0.823000
0.018811  -0.260225  0.823000
0.020379  -0.260225  0.823000
0.021947  -0.260225  0.823000
0.023514  -0.260225  0.823000
0.025082  -0.260225  0.823000
0.026585  -0.259592  0.821000
0.028149  -0.259592  0.821000
0.029712  -0.259592  0.821000
0.031200  -0.258960  0.819000
0.032760  -0.258960  0.819000
0.034320  -0.258960  0.819000
0.035880  -0.258960  0.819000
0.037440  -0.258960  0.819000
0.039000  -0.258960  0.819000
0.040560  -0.258960  0.819000
0.042017  -0.258328  0.817000
0.043573  -0.258328  0.817000
0.045130  -0.258328  0.817000
0.046571  -0.257695  0.815000
0.048124  -0.257695  0.815000
0.049676  -0.257695  0.815000
0.051229  -0.257695  0.815000
0.052781  -0.257695  0.815000
0.054333  -0.257695  0.815000
0.055886  -0.257695  0.815000
0.057368  -0.257379  0.814000
0.058918  -0.257379  0.814000
0.060469  -0.257379  0.814000
0.061867  -0.256747  0.812000
0.063413  -0.256747  0.812000
0.064960  -0.256747  0.812000
0.066507  -0.256747  0.812000
0.068221  -0.257379  0.814000
0.069771  -0.257379  0.814000
0.071147  -0.256747  0.812000
0.072693  -0.256747  0.812000
0.074240  -0.256747  0.812000
0.077933  -0.264019  0.835000
0.079524  -0.264019  0.835000
0.109829  -0.294057  0.930000
0.111600  -0.294057  0.930000
0.114225  -0.296270  0.937000
0.116010  -0.296270  0.937000
0.117794  -0.296270  0.937000
0.119579  -0.296270  0.937000
0.121364  -0.296270  0.937000
0.123543  -0.297219  0.940000
0.125333  -0.297219  0.940000
0.127394  -0.297851  0.942000
0.129600  -0.298800  0.945000
0.130983  -0.297851  0.942000
0.132777  -0.297851  0.942000
0.134571  -0.297851  0.942000
0.135642  -0.296270  0.937000
0.137427  -0.296270  0.937000
0.139657  -0.297219  0.940000
0.141448  -0.297219  0.940000
0.142781  -0.296270  0.937000
0.144566  -0.296270  0.937000
0.146350  -0.296270  0.937000
0.148610  -0.297219  0.940000
0.150720  -0.297851  0.942000
0.152514  -0.297851  0.942000
0.154309  -0.297851  0.942000
0.155274  -0.296270  0.937000
0.157059  -0.296270  0.937000
0.159691  -0.297851  0.942000
0.162000  -0.298800  0.945000
0.163800  -0.298800  0.945000
0.165600  -0.298800  0.945000
0.166869  -0.297851  0.942000
0.168305  -0.297219  0.940000
0.170095  -0.297219  0.940000
0.171886  -0.297219  0.940000
0.173676  -0.297219  0.940000
0.174907  -0.296270  0.937000
0.176691  -0.296270  0.937000
0.178095  -0.295638  0.935000
0.179876  -0.295638  0.935000
0.181657  -0.295638  0.935000
0.183438  -0.295638  0.935000
0.185219  -0.295638  0.935000
0.186400  -0.294690  0.932000
0.188175  -0.294690  0.932000
0.189950  -0.294690  0.932000
0.191726  -0.294690  0.932000
0.194124  -0.295638  0.935000
0.195905  -0.295638  0.935000
0.196629  -0.294057  0.930000
0.198400  -0.294057  0.930000
0.200171  -0.294057  0.930000
0.203463  -0.296270  0.937000
0.206343  -0.297851  0.942000
0.209463  -0.299749  0.948000
0.211714  -0.300381  0.950000
0.212400  -0.298800  0.945000
0.214200  -0.298800  0.945000
0.216000  -0.298800  0.945000
0.217800  -0.298800  0.945000
0.217741  -0.296270  0.937000
0.219526  -0.296270  0.937000
0.221310  -0.296270  0.937000
-0.551476  -0.294238  0.925000
-0.549714  -0.294238  0.925000
-0.550914  -0.295829  0.930000
-0.547371  -0.294874  0.927000
-0.545606  -0.294874  0.927000
-0.545600  -0.295829  0.930000
-0.543829  -0.295829  0.930000
-0.542057  -0.295829  0.930000
-0.540286  -0.295829  0.930000
-0.539672  -0.296465  0.932000
-0.537897  -0.296465  0.932000
-0.536122  -0.296465  0.932000
-0.534347  -0.296465  0.932000
-0.531429  -0.295829  0.930000
-0.529657  -0.295829  0.930000
-0.527886  -0.295829  0.930000
-0.524417  -0.294874  0.927000
-0.522651  -0.294874  0.927000
-0.515267  -0.291693  0.917000
-0.513520  -0.291693  0.917000
-0.514564  -0.293284  0.922000
-0.512808  -0.293284  0.922000
-0.511051  -0.293284  0.922000
-0.509295  -0.293284  0.922000
-0.507539  -0.293284  0.922000
-0.505783  -0.293284  0.922000
-0.504027  -0.293284  0.922000
-0.502270  -0.293284  0.922000
-0.504857  -0.295829  0.930000
-0.505790  -0.297419  0.935000
-0.505088  -0.298055  0.937000
-0.503303  -0.298055  0.937000
-0.496166  -0.294874  0.927000
-0.494400  -0.294874  0.927000
-0.491571  -0.294238  0.925000
-0.489810  -0.294238  0.925000
-0.486465  -0.293284  0.922000
-0.484709  -0.293284  0.922000
-0.482952  -0.293284  0.922000
-0.481196  -0.293284  0.922000
-0.479440  -0.293284  0.922000
-0.477684  -0.293284  0.922000
-0.475928  -0.293284  0.922000
-0.473143  -0.292648  0.920000
-0.471390  -0.292648  0.920000
-0.470659  -0.293284  0.922000
-0.468903  -0.293284  0.922000
-0.467147  -0.293284  0.922000
-0.465390  -0.293284  0.922000
-0.463634  -0.293284  0.922000
-0.461878  -0.293284  0.922000
-0.462617  -0.294874  0.927000
-0.460851  -0.294874  0.927000
-0.465524  -0.299010  0.940000
-0.463733  -0.299010  0.940000
-0.459486  -0.297419  0.935000
-0.457705  -0.297419  0.935000
-0.456899  -0.298055  0.937000
-0.452686  -0.296465  0.932000
-0.449943  -0.295829  0.930000
-0.448171  -0.295829  0.930000
-0.446400  -0.295829  0.930000
-0.437457  -0.291057  0.915000
-0.435714  -0.291057  0.915000
-0.436343  -0.292648  0.920000
-0.435535  -0.293284  0.922000
-0.433779  -0.293284  0.922000
-0.436709  -0.296465  0.932000
-0.434933  -0.296465  0.932000
-0.433158  -0.296465  0.932000
-0.430457  -0.295829  0.930000
-0.428686  -0.295829  0.930000
-0.426914  -0.295829  0.930000
-0.423771  -0.294874  0.927000
-0.419730  -0.293284  0.922000
-0.417973  -0.293284  0.922000
-0.416217  -0.293284  0.922000
-0.414461  -0.293284  0.922000
-0.414048  -0.294238  0.925000
-0.413177  -0.294874  0.927000
-0.411411  -0.294874  0.927000
-0.409646  -0.294874  0.927000
-0.410080  -0.296465  0.932000
-0.405238  -0.294238  0.925000
-0.403476  -0.294238  0.925000
-0.401714  -0.294238  0.925000
-0.399952  -0.294238  0.925000
-0.398190  -0.294238  0.925000
-0.397286  -0.294874  0.927000
-0.395520  -0.294874  0.927000
-0.393754  -0.294874  0.927000
-0.391989  -0.294874  0.927000
-0.392328  -0.296465  0.932000
-0.389714  -0.295829  0.930000
-0.387943  -0.295829  0.930000
-0.386171  -0.295829  0.930000
-0.385227  -0.296465  0.932000
-0.383451  -0.296465  0.932000
-0.382905  -0.297419  0.935000
-0.381124  -0.297419  0.935000
-0.376097  -0.294874  0.927000
-0.374331  -0.294874  0.927000
-0.377790  -0.299010  0.940000
-0.374800  -0.298055  0.937000
-0.373015  -0.298055  0.937000
-0.371230  -0.298055  0.937000
-0.369446  -0.298055  0.937000
-0.366876  -0.297419  0.935000
-0.365095  -0.297419  0.935000
-0.363314  -0.297419  0.935000
-0.361533  -0.297419  0.935000
-0.359752  -0.297419  0.935000
-0.358737  -0.298055  0.937000
-0.358095  -0.299010  0.940000
-0.357063  -0.299646  0.942000
-0.355269  -0.299646  0.942000
-0.352724  -0.299010  0.940000
-0.350933  -0.299010  0.940000
-0.348029  -0.298055  0.937000
-0.344396  -0.296465  0.932000
-0.342621  -0.296465  0.932000
-0.340846  -0.296465  0.932000
-0.337251  -0.294874  0.927000
-0.335486  -0.294874  0.927000
-0.334800  -0.295829  0.930000
-0.333029  -0.295829  0.930000
-0.331257  -0.295829  0.930000
-0.329486  -0.295829  0.930000
-0.327714  -0.295829  0.930000
-0.326644  -0.296465  0.932000
-0.325914  -0.297419  0.935000
-0.323093  -0.296465  0.932000
-0.318905  -0.294238  0.925000
-0.315429  -0.292648  0.920000
-0.264920  -0.247160  0.777000
-0.263440  -0.247160  0.777000
-0.261286  -0.246524  0.775000
-0.258804  -0.245570  0.772000
-0.257333  -0.245570  0.772000
-0.254206  -0.243979  0.767000
-0.252086  -0.243343  0.765000
-0.250629  -0.243343  0.765000
-0.248520  -0.242707  0.763000
-0.247067  -0.242707  0.763000
-0.245613  -0.242707  0.763000
-0.244160  -0.242707  0.763000
-0.242707  -0.242707  0.763000
-0.241253  -0.242707  0.763000
-0.238229  -0.241116  0.758000
-0.236785  -0.241116  0.758000
-0.234720  -0.240480  0.756000
-0.233280  -0.240480  0.756000
-0.231840  -0.240480  0.756000
-0.230400  -0.240480  0.756000
-0.228960  -0.240480  0.756000
-0.227520  -0.240480  0.756000
-0.226080  -0.240480  0.756000
-0.224640  -0.240480  0.756000
-0.223200  -0.240480  0.756000
-0.221760  -0.240480  0.756000
-0.220320  -0.240480  0.756000
-0.218880  -0.240480  0.756000
-0.217440  -0.240480  0.756000
-0.216000  -0.240480  0.756000
-0.215128  -0.241116  0.758000
-0.213684  -0.241116  0.758000
-0.212240  -0.241116  0.758000
-0.210796  -0.241116  0.758000
-0.209905  -0.241752  0.760000
-0.208457  -0.241752  0.760000
-0.207282  -0.242070  0.761000
-0.205832  -0.242070  0.761000
-0.204920  -0.242707  0.763000
-0.203467  -0.242707  0.763000
-0.202013  -0.242707  0.763000
-0.200560  -0.242707  0.763000
-0.199629  -0.243343  0.765000
-0.198171  -0.243343  0.765000
-0.196714  -0.243343  0.765000
-0.195768  -0.243979  0.767000
-0.194307  -0.243979  0.767000
-0.193097  -0.244297  0.768000
-0.191634  -0.244297  0.768000
-0.190667  -0.244933  0.770000
-0.189691  -0.245570  0.772000
-0.188221  -0.245570  0.772000
-0.186992  -0.245888  0.773000
-0.186000  -0.246524  0.775000
-0.184524  -0.246524  0.775000
-0.183048  -0.246524  0.775000
-0.182040  -0.247160  0.777000
-0.180560  -0.247160  0.777000
-0.179771  -0.248114  0.780000
-0.180343  -0.250977  0.789000
-0.179747  -0.252250  0.793000
-0.178236  -0.252250  0.793000
-0.177617  -0.253522  0.797000
-0.176099  -0.253522  0.797000
-0.188781  -0.297419  0.935000
-0.187000  -0.297419  0.935000
-0.185615  -0.298055  0.937000
-0.183438  -0.297419  0.935000
-0.181657  -0.297419  0.935000
-0.179876  -0.297419  0.935000
-0.177524  -0.296465  0.932000
-0.173486  -0.292648  0.920000
-0.171733  -0.292648  0.920000
-0.172752  -0.297419  0.935000
-0.171337  -0.298055  0.937000
-0.169552  -0.298055  0.937000
-0.165977  -0.294874  0.927000
-0.164211  -0.294874  0.927000
-0.162446  -0.294874  0.927000
-0.160680  -0.294874  0.927000
-0.159429  -0.295829  0.930000
-0.157657  -0.295829  0.930000
-0.155886  -0.295829  0.930000
-0.154114  -0.295829  0.930000
-0.152343  -0.295829  0.930000
-0.149276  -0.293284  0.922000
-0.147520  -0.293284  0.922000
-0.146238  -0.294238  0.925000
-0.144789  -0.294874  0.927000
-0.143023  -0.294874  0.927000
-0.140495  -0.293284  0.922000
-0.138739  -0.293284  0.922000
-0.136983  -0.293284  0.922000
-0.135227  -0.293284  0.922000
-0.133470  -0.293284  0.922000
-0.132857  -0.295829  0.930000
-0.131086  -0.295829  0.930000
-0.129592  -0.296465  0.932000
-0.126857  -0.294238  0.925000
-0.125095  -0.294238  0.925000
-0.123600  -0.294874  0.927000
-0.122229  -0.295829  0.930000
-0.120457  -0.295829  0.930000
-0.118686  -0.295829  0.930000
-0.116914  -0.295829  0.930000
-0.115143  -0.295829  0.930000
-0.113371  -0.295829  0.930000
-0.111840  -0.296465  0.932000
-0.109829  -0.295829  0.930000
-0.108057  -0.295829  0.930000
-0.106286  -0.295829  0.930000
-0.104739  -0.296465  0.932000
-0.102964  -0.296465  0.932000
-0.101189  -0.296465  0.932000
-0.099413  -0.296465  0.932000
-0.097952  -0.297419  0.935000
-0.096377  -0.298055  0.937000
-0.094895  -0.299010  0.940000
-0.092808  -0.298055  0.937000
-0.091023  -0.298055  0.937000
-0.089238  -0.298055  0.937000
-0.087453  -0.298055  0.937000
-0.070110  -0.272290  0.856000
-0.068480  -0.272290  0.856000
-0.066693  -0.271653  0.854000
-0.064914  -0.271017  0.852000
-0.063291  -0.271017  0.852000
-0.061669  -0.271017  0.852000
-0.059764  -0.269745  0.848000
-0.058149  -0.269745  0.848000
-0.056533  -0.269745  0.848000
-0.054918  -0.269745  0.848000
-0.053303  -0.269745  0.848000
-0.051688  -0.269745  0.848000
-0.050072  -0.269745  0.848000
-0.048286  -0.268790  0.845000
-0.046676  -0.268790  0.845000
-0.044960  -0.268154  0.843000
-0.043251  -0.267518  0.841000
-0.041650  -0.267518  0.841000
-0.040048  -0.267518  0.841000
-0.038354  -0.266882  0.839000
-0.036756  -0.266882  0.839000
-0.035158  -0.266882  0.839000
-0.033560  -0.266882  0.839000
-0.031962  -0.266882  0.839000
-0.030364  -0.266882  0.839000
-0.028766  -0.266882  0.839000
-0.027168  -0.266882  0.839000
-0.025570  -0.266882  0.839000
-0.023971  -0.266882  0.839000
-0.022373  -0.266882  0.839000
-0.020726  -0.266246  0.837000
-0.019131  -0.266246  0.837000
-0.017537  -0.266246  0.837000
-0.015943  -0.266246  0.837000
-0.014349  -0.266246  0.837000
-0.012754  -0.266246  0.837000
-0.011133  -0.265610  0.835000
-0.009543  -0.265610  0.835000
-0.007952  -0.265610  0.835000
-0.006347  -0.264973  0.833000
-0.004760  -0.264973  0.833000
-0.003166  -0.264337  0.831000
-0.001579  -0.263701  0.829000
0.000000  -0.263701  0.829000
0.001575  -0.263065  0.827000
0.003150  -0.263065  0.827000
0.004726  -0.263065  0.827000
0.006301  -0.263065  0.827000
0.007876  -0.263065  0.827000
0.009451  -0.263065  0.827000
0.011027  -0.263065  0.827000
0.012571  -0.262429  0.825000
0.014143  -0.262429  0.825000
0.015714  -0.262429  0.825000
0.017286  -0.262429  0.825000
0.018811  -0.261792  0.823000
0.020379  -0.261792  0.823000
0.021947  -0.261792  0.823000
0.023514  -0.261792  0.823000
0.025082  -0.261792  0.823000
0.026585  -0.261156  0.821000
0.028149  -0.261156  0.821000
0.029712  -0.261156  0.821000
0.031200  -0.260520  0.819000
0.032760  -0.260520  0.819000
0.034320  -0.260520  0.819000
0.035880  -0.260520  0.819000
0.037440  -0.260520  0.819000
0.038905  -0.259884  0.817000
0.040461  -0.259884  0.817000
0.042017  -0.259884  0.817000
0.043573  -0.259884  0.817000
0.045019  -0.259248  0.815000
0.046571  -0.259248  0.815000
0.048124  -0.259248  0.815000
0.049676  -0.259248  0.815000
0.051229  -0.259248  0.815000
0.052781  -0.259248  0.815000
0.054267  -0.258930  0.814000
0.055817  -0.258930  0.814000
0.057368  -0.258930  0.814000
0.058918  -0.258930  0.814000
0.060469  -0.258930  0.814000
0.061867  -0.258293  0.812000
0.063413  -0.258293  0.812000
0.064960  -0.258293  0.812000
0.066507  -0.258293  0.812000
0.068221  -0.258930  0.814000
0.069771  -0.258930  0.814000
0.071322  -0.258930  0.814000
0.072872  -0.258930  0.814000
0.074423  -0.258930  0.814000
0.077933  -0.265610  0.835000
0.079524  -0.265610  0.835000
0.109474  -0.294874  0.927000
0.111240  -0.294874  0.927000
0.113371  -0.295829  0.930000
0.115390  -0.296465  0.932000
0.117543  -0.297419  0.935000
0.119324  -0.297419  0.935000
0.121105  -0.297419  0.935000
0.123149  -0.298055  0.937000
0.124933  -0.298055  0.937000
0.127124  -0.299010  0.940000
0.129189  -0.299646  0.942000
0.130288  -0.298055  0.937000
0.132072  -0.298055  0.937000
0.133571  -0.297419  0.935000
0.134918  -0.296465  0.932000
0.136693  -0.296465  0.932000
0.138914  -0.297419  0.935000
0.140695  -0.297419  0.935000
0.142476  -0.297419  0.935000
0.144257  -0.297419  0.935000
0.146038  -0.297419  0.935000
0.147345  -0.296465  0.932000
0.148320  -0.294874  0.927000
0.150086  -0.294874  0.927000
0.151851  -0.294874  0.927000
0.153617  -0.294874  0.927000
0.155383  -0.294874  0.927000
0.157657  -0.295829  0.930000
0.162000  -0.300600  0.945000
0.163800  -0.300600  0.945000
0.164724  -0.299010  0.940000
0.165983  -0.298055  0.937000
0.167768  -0.298055  0.937000
0.169552  -0.298055  0.937000
0.170971  -0.297419  0.935000
0.172752  -0.297419  0.935000
0.173973  -0.296465  0.932000
0.175749  -0.296465  0.932000
0.177143  -0.295829  0.930000
0.178914  -0.295829  0.930000
0.180686  -0.295829  0.930000
0.182457  -0.295829  0.930000
0.184625  -0.296465  0.932000
0.186000  -0.295829  0.930000
0.187771  -0.295829  0.930000
0.189950  -0.296465  0.932000
0.191726  -0.296465  0.932000
0.193086  -0.295829  0.930000
0.194857  -0.295829  0.930000
0.195994  -0.294874  0.927000
0.197760  -0.294874  0.927000
0.199526  -0.294874  0.927000
0.203463  -0.298055  0.937000
0.206343  -0.299646  0.942000
0.209463  -0.301554  0.948000
0.211714  -0.302190  0.950000
0.212400  -0.300600  0.945000
0.214200  -0.300600  0.945000
0.216000  -0.300600  0.945000
0.217800  -0.300600  0.945000
0.217741  -0.298055  0.937000
0.219526  -0.298055  0.937000
0.221310  -0.298055  0.937000
-0.549688  -0.295040  0.922000
-0.547931  -0.295040  0.922000
-0.549137  -0.296640  0.927000
-0.547371  -0.296640  0.927000
-0.545606  -0.296640  0.927000
-0.543840  -0.296640  0.927000
-0.542074  -0.296640  0.927000
-0.540309  -0.296640  0.927000
-0.538543  -0.296640  0.927000
-0.536777  -0.296640  0.927000
-0.535011  -0.296640  0.927000
-0.533246  -0.296640  0.927000
-0.533200  -0.297600  0.930000
-0.529714  -0.296640  0.927000
-0.527949  -0.296640  0.927000
-0.526183  -0.296640  0.927000
-0.516497  -0.292160  0.913000
-0.514758  -0.292160  0.913000
-0.514143  -0.292800  0.915000
-0.512400  -0.292800  0.915000
-0.513448  -0.294400  0.920000
-0.510027  -0.293440  0.917000
-0.508280  -0.293440  0.917000
-0.506533  -0.293440  0.917000
-0.504787  -0.293440  0.917000
-0.503040  -0.293440  0.917000
-0.501293  -0.293440  0.917000
-0.493010  -0.289600  0.905000
-0.491286  -0.289600  0.905000
-0.489562  -0.289600  0.905000
-0.487838  -0.289600  0.905000
-0.494171  -0.294400  0.920000
-0.492419  -0.294400  0.920000
-0.490667  -0.294400  0.920000
-0.488914  -0.294400  0.920000
-0.487162  -0.294400  0.920000
-0.485410  -0.294400  0.920000
-0.483657  -0.294400  0.920000
-0.481905  -0.294400  0.920000
-0.480152  -0.294400  0.920000
-0.478400  -0.294400  0.920000
-0.475093  -0.293440  0.917000
-0.473347  -0.293440  0.917000
-0.471600  -0.293440  0.917000
-0.471390  -0.294400  0.920000
-0.469638  -0.294400  0.920000
-0.467886  -0.294400  0.920000
-0.466133  -0.294400  0.920000
-0.464381  -0.294400  0.920000
-0.462629  -0.294400  0.920000
-0.460876  -0.294400  0.920000
-0.455630  -0.292160  0.913000
-0.452400  -0.291200  0.910000
-0.450667  -0.291200  0.910000
-0.448933  -0.291200  0.910000
-0.444743  -0.289600  0.905000
-0.443019  -0.289600  0.905000
-0.441295  -0.289600  0.905000
-0.445400  -0.293440  0.917000
-0.443653  -0.293440  0.917000
-0.440943  -0.292800  0.915000
-0.439200  -0.292800  0.915000
-0.437457  -0.292800  0.915000
-0.435714  -0.292800  0.915000
-0.436343  -0.294400  0.920000
-0.434590  -0.294400  0.920000
-0.433779  -0.295040  0.922000
-0.432023  -0.295040  0.922000
-0.434000  -0.297600  0.930000
-0.432229  -0.297600  0.930000
-0.425829  -0.294400  0.920000
-0.424076  -0.294400  0.920000
-0.425537  -0.296640  0.927000
-0.420571  -0.294400  0.920000
-0.418819  -0.294400  0.920000
-0.417067  -0.294400  0.920000
-0.415314  -0.294400  0.920000
-0.414461  -0.295040  0.922000
-0.412705  -0.295040  0.922000
-0.412286  -0.296000  0.925000
-0.410524  -0.296000  0.925000
-0.407436  -0.295040  0.922000
-0.405680  -0.295040  0.922000
-0.403048  -0.294400  0.920000
-0.401295  -0.294400  0.920000
-0.400411  -0.295040  0.922000
-0.398655  -0.295040  0.922000
-0.396899  -0.295040  0.922000
-0.396429  -0.296000  0.925000
-0.394667  -0.296000  0.925000
-0.392905  -0.296000  0.925000
-0.391143  -0.296000  0.925000
-0.391486  -0.297600  0.930000
-0.389714  -0.297600  0.930000
-0.387943  -0.297600  0.930000
-0.386171  -0.297600  0.930000
-0.384400  -0.297600  0.930000
-0.382629  -0.297600  0.930000
-0.381676  -0.298240  0.932000
-0.379086  -0.297600  0.930000
-0.375286  -0.296000  0.925000
-0.373524  -0.296000  0.925000
-0.375781  -0.299200  0.935000
-0.372800  -0.298240  0.932000
-0.371025  -0.298240  0.932000
-0.370438  -0.299200  0.935000
-0.368657  -0.299200  0.935000
-0.365699  -0.298240  0.932000
-0.363924  -0.298240  0.932000
-0.362149  -0.298240  0.932000
-0.360373  -0.298240  0.932000
-0.358598  -0.298240  0.932000
-0.358737  -0.299840  0.937000
-0.348571  -0.292800  0.915000
-0.346829  -0.292800  0.915000
-0.346971  -0.294400  0.920000
-0.350848  -0.299200  0.935000
-0.349067  -0.299200  0.935000
-0.345429  -0.297600  0.930000
-0.342549  -0.296640  0.927000
-0.340783  -0.296640  0.927000
-0.339017  -0.296640  0.927000
-0.331067  -0.291200  0.910000
-0.329333  -0.291200  0.910000
-0.327600  -0.291200  0.910000
-0.325867  -0.291200  0.910000
-0.325202  -0.292160  0.913000
-0.324171  -0.292800  0.915000
-0.324895  -0.295040  0.922000
-0.324190  -0.296000  0.925000
-0.324171  -0.297600  0.930000
-0.319627  -0.295040  0.922000
-0.316147  -0.293440  0.917000
-0.312000  -0.291200  0.910000
-0.264920  -0.248640  0.777000
-0.262084  -0.247360  0.773000
-0.260611  -0.247360  0.773000
-0.258804  -0.247040  0.772000
-0.256000  -0.245760  0.768000
-0.254206  -0.245440  0.767000
-0.252086  -0.244800  0.765000
-0.250629  -0.244800  0.765000
-0.249171  -0.244800  0.765000
-0.247067  -0.244160  0.763000
-0.245613  -0.244160  0.763000
-0.244160  -0.244160  0.763000
-0.242707  -0.244160  0.763000
-0.241253  -0.244160  0.763000
-0.238229  -0.242560  0.758000
-0.236785  -0.242560  0.758000
-0.234720  -0.241920  0.756000
-0.233280  -0.241920  0.756000
-0.231840  -0.241920  0.756000
-0.230400  -0.241920  0.756000
-0.228960  -0.241920  0.756000
-0.227520  -0.241920  0.756000
-0.226080  -0.241920  0.756000
-0.224640  -0.241920  0.756000
-0.223200  -0.241920  0.756000
-0.221760  -0.241920  0.756000
-0.220320  -0.241920  0.756000
-0.218880  -0.241920  0.756000
-0.217440  -0.241920  0.756000
-0.216000  -0.241920  0.756000
-0.215128  -0.242560  0.758000
-0.213684  -0.242560  0.758000
-0.212240  -0.242560  0.758000
-0.211352  -0.243200  0.760000
-0.209905  -0.243200  0.760000
-0.208731  -0.243520  0.761000
-0.207282  -0.243520  0.761000
-0.205832  -0.243520  0.761000
-0.204920  -0.244160  0.763000
-0.203467  -0.244160  0.763000
-0.202013  -0.244160  0.763000
-0.200560  -0.244160  0.763000
-0.199107  -0.244160  0.763000
-0.197653  -0.244160  0.763000
-0.196714  -0.244800  0.765000
-0.195768  -0.245440  0.767000
-0.194307  -0.245440  0.767000
-0.192846  -0.245440  0.767000
-0.191634  -0.245760  0.768000
-0.190667  -0.246400  0.770000
-0.189691  -0.247040  0.772000
-0.188221  -0.247040  0.772000
-0.186992  -0.247360  0.773000
-0.186000  -0.248000  0.775000
-0.184524  -0.248000  0.775000
-0.183048  -0.248000  0.775000
-0.182040  -0.248640  0.777000
-0.180560  -0.248640  0.777000
-0.179771  -0.249600  0.780000
-0.180343  -0.252480  0.789000
-0.179747  -0.253760  0.793000
-0.178236  -0.253760  0.793000
-0.177617  -0.255040  0.797000
-0.176099  -0.255040  0.797000
-0.188781  -0.299200  0.935000
-0.187000  -0.299200  0.935000
-0.185219  -0.299200  0.935000
-0.183438  -0.299200  0.935000
-0.181657  -0.299200  0.935000
-0.178337  -0.296640  0.927000
-0.176571  -0.296640  0.927000
-0.173486  -0.294400  0.920000
-0.171173  -0.293440  0.917000
-0.169427  -0.293440  0.917000
-0.168594  -0.295040  0.922000
-0.166838  -0.295040  0.922000
-0.165082  -0.295040  0.922000
-0.163326  -0.295040  0.922000
-0.161570  -0.295040  0.922000
-0.159813  -0.295040  0.922000
-0.157714  -0.294400  0.920000
-0.155962  -0.294400  0.920000
-0.154210  -0.294400  0.920000
-0.152457  -0.294400  0.920000
-0.150705  -0.294400  0.920000
-0.148952  -0.294400  0.920000
-0.147200  -0.294400  0.920000
-0.145764  -0.295040  0.922000
-0.144008  -0.295040  0.922000
-0.141943  -0.294400  0.920000
-0.140190  -0.294400  0.920000
-0.138438  -0.294400  0.920000
-0.136686  -0.294400  0.920000
-0.134933  -0.294400  0.920000
-0.133181  -0.294400  0.920000
-0.131429  -0.294400  0.920000
-0.129676  -0.294400  0.920000
-0.128619  -0.296000  0.925000
-0.126446  -0.295040  0.922000
-0.124690  -0.295040  0.922000
-0.122933  -0.295040  0.922000
-0.121571  -0.296000  0.925000
-0.119421  -0.295040  0.922000
-0.117665  -0.295040  0.922000
-0.115909  -0.295040  0.922000
-0.114524  -0.296000  0.925000
-0.113006  -0.296640  0.927000
-0.111240  -0.296640  0.927000
-0.109474  -0.296640  0.927000
-0.107709  -0.296640  0.927000
-0.105943  -0.296640  0.927000
-0.104514  -0.297600  0.930000
-0.102411  -0.296640  0.927000
-0.100646  -0.296640  0.927000
-0.098880  -0.296640  0.927000
-0.097952  -0.299200  0.935000
-0.096377  -0.299840  0.937000
-0.094895  -0.300800  0.940000
-0.092808  -0.299840  0.937000
-0.091023  -0.299840  0.937000
-0.089238  -0.299840  0.937000
-0.087453  -0.299840  0.937000
-0.085669  -0.299840  0.937000
-0.070110  -0.273920  0.856000
-0.068480  -0.273920  0.856000
-0.066693  -0.273280  0.854000
-0.065067  -0.273280  0.854000
-0.063291  -0.272640  0.852000
-0.061669  -0.272640  0.852000
-0.059764  -0.271360  0.848000
-0.058149  -0.271360  0.848000
-0.056667  -0.272000  0.850000
-0.055048  -0.272000  0.850000
-0.053303  -0.271360  0.848000
-0.051688  -0.271360  0.848000
-0.049895  -0.270400  0.845000
-0.048286  -0.270400  0.845000
-0.046676  -0.270400  0.845000
-0.044960  -0.269760  0.843000
-0.043251  -0.269120  0.841000
-0.041650  -0.269120  0.841000
-0.040048  -0.269120  0.841000
-0.038446  -0.269120  0.841000
-0.036844  -0.269120  0.841000
-0.035158  -0.268480  0.839000
-0.033560  -0.268480  0.839000
-0.032038  -0.269120  0.841000
-0.030364  -0.268480  0.839000
-0.028766  -0.268480  0.839000
-0.027168  -0.268480  0.839000
-0.025570  -0.268480  0.839000
-0.023971  -0.268480  0.839000
-0.022373  -0.268480  0.839000
-0.020726  -0.267840  0.837000
-0.019131  -0.267840  0.837000
-0.017537  -0.267840  0.837000
-0.015943  -0.267840  0.837000
-0.014349  -0.267840  0.837000
-0.012754  -0.267840  0.837000
-0.011133  -0.267200  0.835000
-0.009543  -0.267200  0.835000
-0.007952  -0.267200  0.835000
-0.006347  -0.266560  0.833000
-0.004760  -0.266560  0.833000
-0.003166  -0.265920  0.831000
-0.001579  -0.265280  0.829000
0.000000  -0.265280  0.829000
0.001575  -0.264640  0.827000
0.003150  -0.264640  0.827000
0.004726  -0.264640  0.827000
0.006301  -0.264640  0.827000
0.007876  -0.264640  0.827000
0.009451  -0.264640  0.827000
0.011027  -0.264640  0.827000
0.012571  -0.264000  0.825000
0.014143  -0.264000  0.825000
0.015714  -0.264000  0.825000
0.017286  -0.264000  0.825000
0.018857  -0.264000  0.825000
0.020379  -0.263360  0.823000
0.021947  -0.263360  0.823000
0.023514  -0.263360  0.823000
0.025082  -0.263360  0.823000
0.026650  -0.263360  0.823000
0.028149  -0.262720  0.821000
0.029712  -0.262720  0.821000
0.031200  -0.262080  0.819000
0.032760  -0.262080  0.819000
0.034320  -0.262080  0.819000
0.035880  -0.262080  0.819000
0.037440  -0.262080  0.819000
0.038905  -0.261440  0.817000
0.040461  -0.261440  0.817000
0.041914  -0.260800  0.815000
0.043467  -0.260800  0.815000
0.045019  -0.260800  0.815000
0.046571  -0.260800  0.815000
0.048124  -0.260800  0.815000
0.049676  -0.260800  0.815000
0.051229  -0.260800  0.815000
0.052781  -0.260800  0.815000
0.054267  -0.260480  0.814000
0.055817  -0.260480  0.814000
0.057368  -0.260480  0.814000
0.058918  -0.260480  0.814000
0.060320  -0.259840  0.812000
0.061867  -0.259840  0.812000
0.063413  -0.259840  0.812000
0.064960  -0.259840  0.812000
0.066507  -0.259840  0.812000
0.068221  -0.260480  0.814000
0.069771  -0.260480  0.814000
0.071147  -0.259840  0.812000
0.072693  -0.259840  0.812000
0.109238  -0.296000  0.925000
0.111000  -0.296000  0.925000
0.113006  -0.296640  0.927000
0.115143  -0.297600  0.930000
0.117166  -0.298240  0.932000
0.118941  -0.298240  0.932000
0.120716  -0.298240  0.932000
0.122491  -0.298240  0.932000
0.124267  -0.298240  0.932000
0.126448  -0.299200  0.935000
0.128229  -0.299200  0.935000
0.129314  -0.297600  0.930000
0.131086  -0.297600  0.930000
0.132857  -0.297600  0.930000
0.134629  -0.297600  0.930000
0.136400  -0.297600  0.930000
0.138171  -0.297600  0.930000
0.139943  -0.297600  0.930000
0.142019  -0.298240  0.932000
0.143794  -0.298240  0.932000
0.145570  -0.298240  0.932000
0.146554  -0.296640  0.927000
0.147520  -0.295040  0.922000
0.149276  -0.295040  0.922000
0.151524  -0.296000  0.925000
0.153286  -0.296000  0.925000
0.155048  -0.296000  0.925000
0.156810  -0.296000  0.925000
0.158571  -0.296000  0.925000
0.163800  -0.302400  0.945000
0.163322  -0.298240  0.932000
0.165097  -0.298240  0.932000
0.166872  -0.298240  0.932000
0.168648  -0.298240  0.932000
0.170057  -0.297600  0.930000
0.171829  -0.297600  0.930000
0.173040  -0.296640  0.927000
0.174806  -0.296640  0.927000
0.177143  -0.297600  0.930000
0.178914  -0.297600  0.930000
0.180686  -0.297600  0.930000
0.182457  -0.297600  0.930000
0.184625  -0.298240  0.932000
0.186000  -0.297600  0.930000
0.187771  -0.297600  0.930000
0.189950  -0.298240  0.932000
0.191314  -0.297600  0.930000
0.192463  -0.296640  0.927000
0.194229  -0.296640  0.927000
0.195571  -0.296000  0.925000
0.197333  -0.296000  0.925000
0.199095  -0.296000  0.925000
0.200857  -0.296000  0.925000
0.202619  -0.296000  0.925000
0.204381  -0.296000  0.925000
0.206143  -0.296000  0.925000
0.205657  -0.292800  0.915000
0.216013  -0.304960  0.953000
0.217829  -0.304960  0.953000
0.219644  -0.304960  0.953000
0.221459  -0.304960  0.953000
0.223274  -0.304960  0.953000
0.217768  -0.295040  0.922000
-0.549688  -0.296796  0.922000
-0.547931  -0.296796  0.922000
-0.547952  -0.297762  0.925000
-0.544419  -0.296796  0.922000
-0.537366  -0.293899  0.913000
-0.535627  -0.293899  0.913000
-0.533888  -0.293899  0.913000
-0.530400  -0.292933  0.910000
-0.528667  -0.292933  0.910000
-0.526933  -0.292933  0.910000
-0.524046  -0.292290  0.908000
-0.520590  -0.291324  0.905000
-0.518867  -0.291324  0.905000
-0.518857  -0.292290  0.908000
-0.518267  -0.292933  0.910000
-0.513695  -0.291324  0.905000
-0.511971  -0.291324  0.905000
-0.510248  -0.291324  0.905000
-0.508524  -0.291324  0.905000
-0.508480  -0.292290  0.908000
-0.506750  -0.292290  0.908000
-0.503352  -0.291324  0.905000
-0.500520  -0.290680  0.903000
-0.498800  -0.290680  0.903000
-0.497080  -0.290680  0.903000
-0.495360  -0.290680  0.903000
-0.494733  -0.291324  0.905000
-0.493010  -0.291324  0.905000
-0.491286  -0.291324  0.905000
-0.489562  -0.291324  0.905000
-0.487838  -0.291324  0.905000
-0.486114  -0.291324  0.905000
-0.487067  -0.292933  0.910000
-0.486933  -0.293899  0.913000
-0.486257  -0.294543  0.915000
-0.485573  -0.295187  0.917000
-0.483827  -0.295187  0.917000
-0.482080  -0.295187  0.917000
-0.478238  -0.293899  0.913000
-0.476499  -0.293899  0.913000
-0.476840  -0.295187  0.917000
-0.473021  -0.293899  0.913000
-0.471282  -0.293899  0.913000
-0.470571  -0.294543  0.915000
-0.469853  -0.295187  0.917000
-0.468107  -0.295187  0.917000
-0.466360  -0.295187  0.917000
-0.466133  -0.296152  0.920000
-0.464381  -0.296152  0.920000
-0.462629  -0.296152  0.920000
-0.460876  -0.296152  0.920000
-0.453135  -0.292290  0.908000
-0.451406  -0.292290  0.908000
-0.448190  -0.291324  0.905000
-0.446467  -0.291324  0.905000
-0.444743  -0.291324  0.905000
-0.443019  -0.291324  0.905000
-0.442758  -0.292290  0.908000
-0.441029  -0.292290  0.908000
-0.440267  -0.292933  0.910000
-0.438533  -0.292933  0.910000
-0.436800  -0.292933  0.910000
-0.436501  -0.293899  0.913000
-0.435714  -0.294543  0.915000
-0.434920  -0.295187  0.917000
-0.433173  -0.295187  0.917000
-0.432838  -0.296152  0.920000
-0.433429  -0.297762  0.925000
-0.432600  -0.298406  0.927000
-0.426187  -0.295187  0.917000
-0.424440  -0.295187  0.917000
-0.422693  -0.295187  0.917000
-0.420029  -0.294543  0.915000
-0.418286  -0.294543  0.915000
-0.418819  -0.296152  0.920000
-0.417067  -0.296152  0.920000
-0.415314  -0.296152  0.920000
-0.413562  -0.296152  0.920000
-0.411810  -0.296152  0.920000
-0.410057  -0.296152  0.920000
-0.408305  -0.296152  0.920000
-0.406552  -0.296152  0.920000
-0.404800  -0.296152  0.920000
-0.401733  -0.295187  0.917000
-0.399987  -0.295187  0.917000
-0.397371  -0.294543  0.915000
-0.395629  -0.294543  0.915000
-0.393025  -0.293899  0.913000
-0.391286  -0.293899  0.913000
-0.389547  -0.293899  0.913000
-0.384410  -0.291324  0.905000
-0.381840  -0.290680  0.903000
-0.379278  -0.290036  0.901000
-0.377562  -0.290036  0.901000
-0.376680  -0.290680  0.903000
-0.374130  -0.290036  0.901000
-0.372413  -0.290036  0.901000
-0.382629  -0.299371  0.930000
-0.381676  -0.300015  0.932000
-0.372156  -0.293899  0.913000
-0.370417  -0.293899  0.913000
-0.369486  -0.294543  0.915000
-0.366939  -0.293899  0.913000
-0.365200  -0.293899  0.913000
-0.371025  -0.300015  0.932000
-0.370438  -0.300981  0.935000
-0.367474  -0.300015  0.932000
-0.364914  -0.299371  0.930000
-0.363143  -0.299371  0.930000
-0.354766  -0.293899  0.913000
-0.353027  -0.293899  0.913000
-0.351288  -0.293899  0.913000
-0.348400  -0.292933  0.910000
-0.346667  -0.292933  0.910000
-0.346070  -0.293899  0.913000
-0.344331  -0.293899  0.913000
-0.342592  -0.293899  0.913000
-0.339733  -0.292933  0.910000
-0.338000  -0.292933  0.910000
-0.336267  -0.292933  0.910000
-0.334533  -0.292933  0.910000
-0.332800  -0.292933  0.910000
-0.331067  -0.292933  0.910000
-0.329333  -0.292933  0.910000
-0.327600  -0.292933  0.910000
-0.325867  -0.292933  0.910000
-0.325202  -0.293899  0.913000
-0.323463  -0.293899  0.913000
-0.321724  -0.293899  0.913000
-0.319985  -0.293899  0.913000
-0.318246  -0.293899  0.913000
-0.316507  -0.293899  0.913000
-0.313733  -0.292933  0.910000
-0.311314  -0.292290  0.908000
-0.265602  -0.250764  0.779000
-0.262084  -0.248832  0.773000
-0.260611  -0.248832  0.773000
-0.258804  -0.248510  0.772000
-0.256000  -0.247223  0.768000
-0.254206  -0.246901  0.767000
-0.252086  -0.246257  0.765000
-0.250629  -0.246257  0.765000
-0.249171  -0.246257  0.765000
-0.247067  -0.245613  0.763000
-0.245613  -0.245613  0.763000
-0.244160  -0.245613  0.763000
-0.242707  -0.245613  0.763000
-0.241253  -0.245613  0.763000
-0.238229  -0.244004  0.758000
-0.236785  -0.244004  0.758000
-0.234720  -0.243360  0.756000
-0.233280  -0.243360  0.756000
-0.231840  -0.243360  0.756000
-0.230400  -0.243360  0.756000
-0.228960  -0.243360  0.756000
-0.227520  -0.243360  0.756000
-0.226080  -0.243360  0.756000
-0.224640  -0.243360  0.756000
-0.223200  -0.243360  0.756000
-0.221760  -0.243360  0.756000
-0.220320  -0.243360  0.756000
-0.218880  -0.243360  0.756000
-0.217440  -0.243360  0.756000
-0.216000  -0.243360  0.756000
-0.215128  -0.244004  0.758000
-0.214248  -0.244648  0.760000
-0.212800  -0.244648  0.760000
-0.211352  -0.244648  0.760000
-0.210181  -0.244970  0.761000
-0.208731  -0.244970  0.761000
-0.207282  -0.244970  0.761000
-0.205832  -0.244970  0.761000
-0.204920  -0.245613  0.763000
-0.203467  -0.245613  0.763000
-0.202013  -0.245613  0.763000
-0.200560  -0.245613  0.763000
-0.199107  -0.245613  0.763000
-0.197653  -0.245613  0.763000
-0.196714  -0.246257  0.765000
-0.195768  -0.246901  0.767000
-0.194307  -0.246901  0.767000
-0.192846  -0.246901  0.767000
-0.191634  -0.247223  0.768000
-0.190667  -0.247867  0.770000
-0.189691  -0.248510  0.772000
-0.188221  -0.248510  0.772000
-0.186992  -0.248832  0.773000
-0.186000  -0.249476  0.775000
-0.184524  -0.249476  0.775000
-0.183048  -0.249476  0.775000
-0.182040  -0.250120  0.777000
-0.181025  -0.250764  0.779000
-0.180232  -0.251730  0.782000
-0.180343  -0.253983  0.789000
-0.179747  -0.255270  0.793000
-0.178236  -0.255270  0.793000
-0.188781  -0.300981  0.935000
-0.187000  -0.300981  0.935000
-0.185219  -0.300981  0.935000
-0.182457  -0.299371  0.930000
-0.176800  -0.292933  0.910000
-0.175067  -0.292933  0.910000
-0.173333  -0.292933  0.910000
-0.171600  -0.292933  0.910000
-0.169867  -0.292933  0.910000
-0.168133  -0.292933  0.910000
-0.167680  -0.295187  0.917000
-0.165933  -0.295187  0.917000
-0.164187  -0.295187  0.917000
-0.162971  -0.296152  0.920000
-0.161219  -0.296152  0.920000
-0.159467  -0.296152  0.920000
-0.157714  -0.296152  0.920000
-0.155962  -0.296152  0.920000
-0.154210  -0.296152  0.920000
-0.152457  -0.296152  0.920000
-0.150705  -0.296152  0.920000
-0.148952  -0.296152  0.920000
-0.147200  -0.296152  0.920000
-0.145448  -0.296152  0.920000
-0.143695  -0.296152  0.920000
-0.141943  -0.296152  0.920000
-0.140190  -0.296152  0.920000
-0.138438  -0.296152  0.920000
-0.136686  -0.296152  0.920000
-0.134933  -0.296152  0.920000
-0.133181  -0.296152  0.920000
-0.131429  -0.296152  0.920000
-0.129676  -0.296152  0.920000
-0.128202  -0.296796  0.922000
-0.126446  -0.296796  0.922000
-0.124690  -0.296796  0.922000
-0.122933  -0.296796  0.922000
-0.121177  -0.296796  0.922000
-0.119162  -0.296152  0.920000
-0.117410  -0.296152  0.920000
-0.115657  -0.296152  0.920000
-0.114152  -0.296796  0.922000
-0.112152  -0.296152  0.920000
-0.110400  -0.296152  0.920000
-0.108648  -0.296152  0.920000
-0.107128  -0.296796  0.922000
-0.105714  -0.297762  0.925000
-0.103615  -0.296796  0.922000
-0.101859  -0.296796  0.922000
-0.100103  -0.296796  0.922000
-0.098347  -0.296796  0.922000
-0.096590  -0.296796  0.922000
-0.093394  -0.292290  0.908000
-0.091665  -0.292290  0.908000
-0.090133  -0.292933  0.910000
-0.088400  -0.292933  0.910000
-0.086667  -0.292933  0.910000
-0.079558  -0.292290  0.908000
-0.070110  -0.275550  0.856000
-0.068480  -0.275550  0.856000
-0.066693  -0.274907  0.854000
-0.065067  -0.274907  0.854000
-0.063291  -0.274263  0.852000
-0.061669  -0.274263  0.852000
-0.059905  -0.273619  0.850000
-0.058286  -0.273619  0.850000
-0.056667  -0.273619  0.850000
-0.055048  -0.273619  0.850000
-0.053303  -0.272975  0.848000
-0.051688  -0.272975  0.848000
-0.049895  -0.272010  0.845000
-0.048286  -0.272010  0.845000
-0.046676  -0.272010  0.845000
-0.044960  -0.271366  0.843000
-0.043251  -0.270722  0.841000
-0.041650  -0.270722  0.841000
-0.040048  -0.270722  0.841000
-0.038537  -0.271366  0.843000
-0.036844  -0.270722  0.841000
-0.035242  -0.270722  0.841000
-0.033640  -0.270722  0.841000
-0.032038  -0.270722  0.841000
-0.030436  -0.270722  0.841000
-0.028834  -0.270722  0.841000
-0.027168  -0.270078  0.839000
-0.025570  -0.270078  0.839000
-0.023971  -0.270078  0.839000
-0.022373  -0.270078  0.839000
-0.020726  -0.269434  0.837000
-0.019131  -0.269434  0.837000
-0.017537  -0.269434  0.837000
-0.015943  -0.269434  0.837000
-0.014349  -0.269434  0.837000
-0.012754  -0.269434  0.837000
-0.011133  -0.268790  0.835000
-0.009543  -0.268790  0.835000
-0.007952  -0.268790  0.835000
-0.006347  -0.268147  0.833000
-0.004760  -0.268147  0.833000
-0.003166  -0.267503  0.831000
-0.001579  -0.266859  0.829000
0.000000  -0.266859  0.829000
0.001575  -0.266215  0.827000
0.003150  -0.266215  0.827000
0.004726  -0.266215  0.827000
0.006301  -0.266215  0.827000
0.007876  -0.266215  0.827000
0.009451  -0.266215  0.827000
0.011027  -0.266215  0.827000
0.012571  -0.265571  0.825000
0.014143  -0.265571  0.825000
0.015714  -0.265571  0.825000
0.017286  -0.265571  0.825000
0.018857  -0.265571  0.825000
0.020429  -0.265571  0.825000
0.021947  -0.264928  0.823000
0.023514  -0.264928  0.823000
0.025143  -0.265571  0.825000
0.026650  -0.264928  0.823000
0.028149  -0.264284  0.821000
0.029712  -0.264284  0.821000
0.031200  -0.263640  0.819000
0.032760  -0.263640  0.819000
0.034320  -0.263640  0.819000
0.035880  -0.263640  0.819000
0.037440  -0.263640  0.819000
0.038905  -0.262996  0.817000
0.040461  -0.262996  0.817000
0.041914  -0.262352  0.815000
0.043467  -0.262352  0.815000
0.045019  -0.262352  0.815000
0.046571  -0.262352  0.815000
0.048124  -0.262352  0.815000
0.049676  -0.262352  0.815000
0.051229  -0.262352  0.815000
0.052781  -0.262352  0.815000
0.054267  -0.262030  0.814000
0.055817  -0.262030  0.814000
0.057368  -0.262030  0.814000
0.058918  -0.262030  0.814000
0.060320  -0.261387  0.812000
0.061867  -0.261387  0.812000
0.063413  -0.261387  0.812000
0.064960  -0.261387  0.812000
0.066670  -0.262030  0.814000
0.068221  -0.262030  0.814000
0.069771  -0.262030  0.814000
0.071147  -0.261387  0.812000
0.072693  -0.261387  0.812000
0.105733  -0.292933  0.910000
0.107467  -0.292933  0.910000
0.110640  -0.296796  0.922000
0.112762  -0.297762  0.925000
0.114771  -0.298406  0.927000
0.116537  -0.298406  0.927000
0.118303  -0.298406  0.927000
0.120069  -0.298406  0.927000
0.121834  -0.298406  0.927000
0.123600  -0.298406  0.927000
0.123067  -0.292933  0.910000
0.124800  -0.292933  0.910000
0.127507  -0.295187  0.917000
0.129958  -0.296796  0.922000
0.132143  -0.297762  0.925000
0.133905  -0.297762  0.925000
0.135960  -0.298406  0.927000
0.137429  -0.297762  0.925000
0.139190  -0.297762  0.925000
0.141257  -0.298406  0.927000
0.143023  -0.298406  0.927000
0.144008  -0.296796  0.922000
0.144973  -0.295187  0.917000
0.146720  -0.295187  0.917000
0.148467  -0.295187  0.917000
0.151032  -0.296796  0.922000
0.152789  -0.296796  0.922000
0.154545  -0.296796  0.922000
0.156301  -0.296796  0.922000
0.158057  -0.296796  0.922000
0.160333  -0.297762  0.925000
0.158590  -0.291324  0.905000
0.160314  -0.291324  0.905000
0.164724  -0.296152  0.920000
0.168648  -0.300015  0.932000
0.170057  -0.299371  0.930000
0.171274  -0.298406  0.927000
0.172667  -0.297762  0.925000
0.174429  -0.297762  0.925000
0.176190  -0.297762  0.925000
0.178337  -0.298406  0.927000
0.180103  -0.298406  0.927000
0.181869  -0.298406  0.927000
0.183634  -0.298406  0.927000
0.185400  -0.298406  0.927000
0.187166  -0.298406  0.927000
0.189543  -0.299371  0.930000
0.190697  -0.298406  0.927000
0.192048  -0.297762  0.925000
0.193810  -0.297762  0.925000
0.194937  -0.296796  0.922000
0.196693  -0.296796  0.922000
0.198450  -0.296796  0.922000
0.200206  -0.296796  0.922000
0.201962  -0.296796  0.922000
0.203718  -0.296796  0.922000
0.207400  -0.294543  0.915000
0.209600  -0.295187  0.917000
0.211347  -0.295187  0.917000
0.213093  -0.295187  0.917000
0.216011  -0.296796  0.922000
0.217768  -0.296796  0.922000
-0.549688  -0.298552  0.922000
-0.532480  -0.290133  0.896000
-0.530773  -0.290133  0.896000
-0.539105  -0.295638  0.913000
-0.534423  -0.294019  0.908000
-0.530933  -0.293048  0.905000
-0.529210  -0.293048  0.905000
-0.526320  -0.292400  0.903000
-0.524600  -0.292400  0.903000
-0.522880  -0.292400  0.903000
-0.521160  -0.292400  0.903000
-0.519440  -0.292400  0.903000
-0.517720  -0.292400  0.903000
-0.516000  -0.292400  0.903000
-0.515419  -0.293048  0.905000
-0.512560  -0.292400  0.903000
-0.509709  -0.291752  0.901000
-0.507992  -0.291752  0.901000
-0.506276  -0.291752  0.901000
-0.501760  -0.290133  0.896000
-0.500053  -0.290133  0.896000
-0.498347  -0.290133  0.896000
-0.496640  -0.290133  0.896000
-0.494933  -0.290133  0.896000
-0.493227  -0.290133  0.896000
-0.492617  -0.290781  0.898000
-0.493640  -0.292400  0.903000
-0.490830  -0.291752  0.901000
-0.489114  -0.291752  0.901000
-0.487398  -0.291752  0.901000
-0.485682  -0.291752  0.901000
-0.485040  -0.292400  0.903000
-0.484390  -0.293048  0.905000
-0.482667  -0.293048  0.905000
-0.480943  -0.293048  0.905000
-0.479219  -0.293048  0.905000
-0.477495  -0.293048  0.905000
-0.475771  -0.293048  0.905000
-0.474048  -0.293048  0.905000
-0.472324  -0.293048  0.905000
-0.469560  -0.292400  0.903000
-0.467840  -0.292400  0.903000
-0.466120  -0.292400  0.903000
-0.464400  -0.292400  0.903000
-0.467804  -0.295638  0.913000
-0.467086  -0.296286  0.915000
-0.465343  -0.296286  0.915000
-0.464613  -0.296933  0.917000
-0.461857  -0.296286  0.915000
-0.460114  -0.296286  0.915000
-0.453362  -0.293048  0.905000
-0.450640  -0.292400  0.903000
-0.448920  -0.292400  0.903000
-0.448190  -0.293048  0.905000
