-152.912308 95.713585 718.470276
-148.142853 97.196716 718.714172
-152.514359 104.762077 718.759888
-147.888901 105.439850 718.904663
-151.332504 110.931000 719.000000
-148.593506 110.931000 719.000000
-162.113861 88.675583 727.428528
-154.840286 88.477440 722.571533
-145.075989 88.196632 722.999939
-138.897995 88.641579 727.142883
-164.231796 94.977547 725.888855
-157.822266 94.171898 721.473694
-144.168625 94.414398 722.088745
-135.960632 95.419258 726.687683
-163.768448 105.251320 726.069031
-157.636612 105.155243 721.428589
-143.148407 104.825859 722.080933
-135.717697 105.188034 726.625122
-163.317123 114.810684 726.970642
-154.950211 115.252747 722.166626
-144.909851 115.269241 722.454529
-137.209259 113.907410 727.138000
-162.584381 124.177139 728.409119
-154.895447 125.285179 722.977295
-144.741699 125.042824 724.515625
-138.857010 124.971497 729.000000
-161.626144 134.572021 728.357117
-154.440109 135.131714 723.918213
-144.393463 134.957306 725.272522
-138.857010 132.608505 729.000000
-161.594879 142.502136 729.000061
-154.871979 145.189911 725.938904
-144.650787 145.201675 726.375244
-154.972488 154.967819 726.408264
-145.374252 154.933273 727.040955
-154.836441 164.616638 727.043579
-146.701340 164.489822 727.555603
-153.944916 174.719467 728.500000
-148.153198 174.524277 728.625061
-152.395569 183.898880 729.000061
-148.723465 184.314590 729.000061
-151.354019 194.631500 729.000061
-149.334641 194.652542 729.000061
-172.786194 88.148392 738.099976
-167.271744 87.223480 734.666809
-134.255402 88.236137 732.200073
-128.975006 89.020996 736.000000
-174.308533 95.507515 736.216125
-168.535751 92.972504 731.250000
-131.643646 93.333992 731.357178
-126.301941 95.508568 735.739136
-173.986465 104.862091 735.875061
-168.756409 104.289307 731.000000
-131.038681 105.202118 731.000000
-126.464096 104.981331 736.152161
-172.522552 115.309143 736.636475
-168.419495 116.168251 731.500000
-132.708618 116.117325 732.344910
-127.490608 114.520386 737.159973
-172.527542 124.735992 736.722229
-167.023895 125.964958 731.368469
-134.363327 125.015434 733.113220
-127.378288 124.908173 737.479980
-171.924545 134.114838 737.636414
-166.905243 135.127182 733.250000
-134.462433 135.046448 733.588257
-128.282486 133.906952 737.933411
-171.597153 144.874420 738.428650
-166.281921 145.394150 733.757751
-140.630005 142.022675 731.000061
-134.952042 144.847916 734.315674
-129.501007 145.454010 739.000000
-171.025986 153.958252 738.999939
-165.277252 154.898376 733.842163
-140.630005 155.946594 731.000000
-135.104935 154.730225 734.599915
-129.501007 151.319000 739.000000
-170.322006 163.283813 739.000000
-164.751419 165.147873 734.447449
-142.056870 165.747192 731.523865
-136.077026 165.037918 736.531738
-164.573349 174.805008 735.538452
-158.638748 176.053635 731.375000
-142.756882 175.415680 732.650208
-136.467270 175.009094 737.437439
-163.473648 184.503067 736.214294
-156.825073 185.756790 731.346313
-143.296906 185.237823 732.744385
-137.005234 184.930252 737.592590
-163.884277 194.863647 737.193481
-155.870224 195.089020 731.865051
-144.141342 195.030701 733.627502
-137.700546 194.536667 738.047668
-163.443619 204.761108 737.269226
-154.699982 204.868118 731.673645
-144.690262 204.888580 733.927124
-138.684998 203.371262 738.249939
-162.506104 214.917114 737.699951
-154.561234 214.582565 732.818115
-145.352814 214.643036 735.416565
-161.262146 224.266403 738.333374
-154.220581 225.267807 736.187439
-145.427338 224.825455 737.279053
-160.468994 230.849991 739.000000
-154.581085 234.768616 736.866577
-146.393692 234.767899 737.599976
-160.468994 246.333344 739.000000
-154.396729 244.804108 737.653625
-147.305832 244.184769 738.000061
-154.136627 254.724411 737.577576
-148.301987 255.136215 738.000122
-153.551758 263.573395 738.166748
-148.402985 263.047119 738.500000
-181.883286 88.099007 746.000061
-176.622787 87.390205 742.400024
-130.903000 87.505501 747.000000
-125.375092 87.332336 745.777771
-115.725433 88.255211 746.000061
-184.303497 94.855362 744.969788
-178.612717 92.128006 740.857178
-121.891090 93.452568 741.237976
-114.872444 95.023544 744.591858
-109.707001 94.746826 748.000061
-183.550705 104.925224 744.769226
-178.543732 107.408440 740.571411
-121.059242 105.201363 741.058777
-115.171898 104.910324 745.361633
-184.423416 114.877869 746.064514
-177.973541 115.116356 741.549927
-122.608917 115.266228 741.599976
-116.102081 114.801056 745.526184
-182.893768 125.180290 746.809570
-177.534683 124.598793 741.578857
-122.698792 124.709297 742.645203
-117.673454 124.785316 746.583313
-181.062622 134.774139 747.750122
-176.226425 135.140747 741.624939
-123.721107 135.177582 742.463440
-118.140999 135.224991 747.285767
-181.605652 145.283157 747.785828
-176.376709 145.000687 743.629700
-124.741776 144.959061 743.734741
-119.680000 145.325592 748.000061
-181.240738 152.042999 747.750061
-176.011139 155.111191 743.687500
-131.086014 159.276001 740.000000
-125.278625 155.237686 744.236450
-119.680008 152.449661 748.000000
-175.096100 165.044556 743.484863
-130.803482 165.366989 741.600037
-124.982132 165.067657 745.673889
-174.233963 175.090363 745.607178
-169.143005 179.010010 740.000000
-131.668442 175.540680 741.912964
-126.876457 174.814972 746.766541
-173.724335 184.916718 744.620667
-168.559616 185.708466 740.769287
-132.268021 185.054382 742.259216
-128.090240 184.452820 747.199951
-173.427872 194.778687 745.181824
-168.822083 194.938416 741.166687
-133.115067 195.143112 743.029480
-128.879227 195.099915 747.642944
-173.295761 205.025101 747.176514
-168.507431 204.161255 741.333374
-134.216187 204.950104 742.977844
-128.995773 204.836761 748.000061
-171.369995 213.936020 747.666687
-167.466705 215.449905 743.588135
-140.952011 217.066803 740.000000
-135.360245 214.926086 744.178589
-129.653000 213.001999 748.000000
-166.707123 225.721893 744.200012
-140.952011 225.523727 740.000061
-136.111481 224.731674 745.234009
-171.378174 234.475021 748.000061
-165.084396 235.191330 743.275085
-141.758286 235.304382 741.545410
-136.856934 234.724915 746.852844
-164.547470 244.540985 743.833374
-142.575165 245.282730 741.812439
-137.708862 244.632080 747.090881
-164.179123 254.964523 743.645203
-158.571503 257.942749 740.000000
-143.453629 254.878906 742.023804
-138.033508 254.723373 747.095215
-164.414734 264.937012 746.466675
-156.676270 266.426727 741.388794
-144.216019 265.292816 742.478394
-138.577179 264.427856 747.625000
-162.562958 274.670227 747.000122
-154.588364 275.289703 741.976318
-145.182587 275.042847 744.240051
-139.626999 275.216675 748.000061
-185.922668 79.270004 756.666687
-200.942017 86.802002 755.333313
-195.162994 85.203140 754.833130
-185.809357 84.232140 754.046448
-177.760010 83.040001 755.999878
-122.300415 83.383133 754.800110
-114.854820 85.725876 754.875000
-105.122787 87.121796 756.035645
-98.261368 88.164749 757.250000
-201.345261 93.095757 757.749939
-195.415710 94.833839 754.342834
-189.090851 93.506470 750.000000
-104.926788 94.682358 753.840027
-98.193413 94.780945 756.947388
-194.760590 104.911392 755.315796
-188.528885 104.340096 750.400024
-111.429001 108.570999 750.000000
-105.457466 104.750740 753.339233
-99.623001 103.232246 758.000000
-193.977051 114.819588 755.535828
-189.142609 114.000000 750.000000
-111.213234 114.915359 750.823486
-105.256714 115.001633 755.701965
-192.886169 124.774620 755.428650
-187.761826 124.848625 750.687500
-112.596344 124.903267 751.133484
-106.549232 125.046494 755.352844
-192.258347 135.316635 756.235107
-186.343765 134.848755 752.333313
-113.157639 134.649734 752.028564
-107.722176 135.218643 756.260864
-191.243210 144.632675 756.799988
-186.138748 144.517548 752.227295
-114.492516 144.932083 752.404236
-107.595573 144.215164 757.130432
-190.823669 154.728180 758.000000
-185.530319 155.455566 753.034546
-115.041870 155.037247 752.846252
-108.996620 154.059464 757.538574
-190.583023 165.316162 758.000000
-185.289993 165.125748 754.411743
-180.000000 167.856995 750.000000
-115.695168 165.084518 754.000061
-109.729996 162.428497 758.000000
-190.583008 171.091492 758.000000
-185.307190 174.845032 754.666809
-179.480392 175.064911 750.000000
-121.949646 175.256653 750.818176
-115.310158 174.950851 755.361572
-183.888641 184.801361 754.393921
-178.673157 184.393585 750.428589
-123.081390 185.027817 751.647156
-115.887093 184.456802 756.410095
-183.781509 194.717865 756.407410
-178.463455 195.513275 751.727295
-123.895500 194.803879 752.000061
-117.987488 194.101349 756.799927
-182.681778 204.923904 756.166687
-177.931442 204.766495 751.437561
-124.058197 204.852310 752.463318
-119.049988 204.103851 756.833252
-182.697571 214.534546 757.076965
-176.408356 214.562546 751.857239
-125.098663 214.807800 752.979187
-119.444885 215.801453 757.555542
-181.782867 225.065155 757.428589
-175.873230 224.677032 753.714294
-131.068344 226.629837 750.666626
-125.598503 224.553421 754.568726
-119.333130 223.004593 757.428528
-181.714279 235.071579 757.142883
-176.389191 234.404770 753.194519
-131.724548 234.780014 750.954468
-125.589073 235.003845 755.577698
-182.017197 244.128021 756.600037
-175.457748 245.059692 753.477295
-169.047348 246.666672 750.000000
-132.851532 245.042511 751.500122
-125.952377 244.603867 755.949951
-180.475998 254.110336 758.000061
-175.174820 254.637604 754.810791
-169.285507 254.285690 750.000000
-133.390961 254.807205 752.303040
-127.492218 254.455383 756.481445
-173.192657 264.207520 755.500000
-169.153259 265.714233 750.999939
-133.838699 265.074280 753.076965
-128.320114 265.294128 756.952393
-134.940475 274.994934 753.361694
-128.651154 274.612549 757.200195
-121.465248 77.328751 766.000061
-118.544853 77.847435 767.000061
-176.971512 84.323746 760.000000
-122.079498 80.530998 765.250000
-115.016022 82.883789 764.333374
-104.748672 82.924431 763.809692
-95.163628 85.837570 764.971313
-88.063797 88.648796 768.000061
-201.798203 98.148399 760.000000
-93.055336 94.925026 762.371399
-87.743706 95.055809 767.761902
-202.105545 103.882996 760.363708
-199.770996 107.847496 760.000000
-94.407875 104.809273 761.857239
-88.392769 104.362778 767.538574
-201.279343 116.837891 761.444397
-199.112762 114.400749 760.250061
-100.675003 118.782997 760.499939
-95.240768 114.920013 764.218323
-89.234001 113.371490 768.000000
-201.859573 124.557510 763.333435
-198.241180 125.430405 762.000061
-101.366890 124.844666 760.799988
-95.638252 124.709747 766.000000
-200.590683 134.961014 761.888916
-197.329758 134.907104 761.157959
-102.591484 134.875031 761.387207
-96.921516 134.672638 766.428528
-201.088364 145.333282 763.000000
-196.689346 145.312424 761.423096
-102.753036 145.281235 761.966675
-97.471176 144.493561 767.260803
-200.823013 154.985672 763.999939
-195.786240 155.140579 762.060669
-104.036118 155.200089 762.690430
-98.785637 153.830093 767.818237
-201.697021 165.491791 766.928589
-195.846237 164.473557 763.064636
-110.018997 167.923676 760.000000
-104.700874 165.065689 763.521729
-99.474007 163.839996 768.000061
-200.707108 176.330780 767.888977
-195.154877 175.147995 763.687561
-189.638000 179.505005 760.000000
-110.018990 175.162003 760.000000
-105.031616 175.014221 765.000061
-201.667953 185.498184 767.833374
-195.204086 185.293991 764.771423
-189.673721 185.330856 760.142944
-111.244812 186.567062 760.466736
-105.252533 185.233246 764.933289
-202.332657 191.606354 767.888977
-195.399567 194.940598 765.931030
-188.939087 195.578430 760.583374
-113.261757 195.617706 761.096863
-105.275551 194.522614 765.609741
-193.230453 204.312454 765.960022
-187.274765 205.023758 760.687500
-114.021896 205.075607 761.904785
-107.124275 204.248062 767.192322
-193.052933 214.490555 766.043335
-187.053009 214.896606 760.947388
-114.774338 214.737396 762.795593
-108.463272 214.490784 767.777710
-192.240738 224.038666 767.500061
-186.577759 224.985291 762.592712
-120.151993 228.723999 760.000000
-114.648743 224.951538 763.911194
-109.531136 224.731369 768.000061
-192.139847 236.001663 767.583374
-186.521042 234.778778 762.035767
-120.807999 234.013596 760.333313
-115.129425 235.224274 765.354248
-109.714005 232.593994 768.000000
-191.634003 242.834015 768.000000
-187.163300 245.402969 763.666748
-120.992691 245.664322 760.384705
-115.902756 244.665955 765.567688
-190.171005 251.610992 768.000000
-184.986038 255.260468 762.999817
-122.723511 255.488693 761.750000
-117.308868 254.183060 767.269165
-190.171005 266.971497 768.000000
-184.906189 264.514557 763.646973
-178.159943 266.606537 760.437500
-123.372589 264.894226 762.027832
-117.743469 264.722473 767.370300
-190.171005 272.091339 768.000000
-115.866997 79.199997 770.000000
-133.159500 84.424751 775.333374
-127.518280 86.202721 774.571472
-119.108994 88.229004 772.000000
-91.422005 84.089005 770.000000
-84.828339 84.962593 772.209351
-77.463898 85.838654 776.037109
-83.014420 95.248703 770.629700
-76.330025 94.557510 775.666565
-83.796593 105.250969 772.290222
-77.200111 104.727600 777.125061
-84.809494 115.064583 773.377808
-78.737427 114.298500 777.857178
-91.422005 127.355667 770.000000
-85.039688 124.812935 773.711609
-92.403938 135.269592 770.650085
-86.163261 134.963715 775.650085
-92.520653 145.483047 772.310303
-86.472656 144.925797 777.207031
-93.777321 155.393738 772.697693
-87.053398 154.719315 777.636536
-94.341537 165.188721 773.446716
-88.043007 163.547760 778.636353
-202.399994 175.266739 770.000000
-101.199997 178.932999 770.000000
-95.130486 174.857681 773.396240
-89.029007 173.605804 779.000000
-101.200005 181.866669 770.000000
-95.094078 185.050476 774.125000
-203.295731 196.543060 770.800049
-199.467010 199.467010 770.000000
-101.566750 198.366745 770.000000
-95.350571 195.092560 774.999939
-203.464035 205.377151 773.199951
-198.466064 206.097809 770.666748
-102.432465 205.989365 771.799988
-95.750900 204.744659 776.828613
-203.803131 214.837830 772.535767
-198.463852 214.788071 770.375000
-103.058434 215.159195 772.028564
-97.046150 214.525467 777.159912
-203.886658 225.278763 774.642883
-197.183746 225.325195 771.160034
-104.479164 225.028076 772.613647
-98.372200 224.896149 777.800110
-203.593658 235.055252 774.759888
-196.977554 234.440170 771.321533
-105.021805 235.105865 773.380127
-99.130150 234.483566 778.428589
-203.153915 245.165451 775.559875
-195.933014 245.351990 771.846252
-111.141197 247.243393 770.799988
-105.275948 244.782440 774.978210
-203.021347 255.607986 777.190613
-195.567627 255.191895 774.055603
-112.502037 255.736465 771.250122
-106.099480 254.841034 776.529297
-202.477478 264.766510 777.727417
-195.228195 264.321014 774.437439
-112.563065 264.953247 771.500122
-107.002304 264.579651 776.785767
-203.034668 270.547699 779.000000
-141.268997 78.148666 789.000000
-135.177933 78.455070 788.529358
-128.494507 79.651001 789.000000
-75.078995 79.583664 788.333374
-132.177109 81.467247 783.000000
-128.853210 81.913795 784.799988
-80.228996 80.228996 780.000000
-72.985550 83.936806 783.103394
-65.255905 85.728714 785.849976
-71.410538 96.010735 781.066650
-65.077988 94.454842 786.195068
-71.883362 105.390999 781.818176
-66.404617 104.742943 787.741760
-73.267441 115.248268 782.388916
-67.286003 114.752808 787.789429
-80.228996 128.513992 780.000000
-74.754562 125.141991 783.319214
-68.049431 124.366745 788.437439
-80.978554 135.596909 780.727356
-74.617737 135.144302 785.363708
-68.755501 131.875748 789.000000
-81.687111 145.022842 781.333191
-75.737045 144.811325 785.641052
-82.266914 155.232391 781.749939
-76.439911 154.387421 787.433289
-83.934265 165.510361 782.411926
-78.081718 165.174469 788.333313
-84.352615 175.083191 783.024353
-78.142647 174.653992 788.058777
-85.215309 184.984344 784.044373
-79.095642 184.010925 788.909058
-90.628998 199.085999 780.000000
-85.126785 194.916489 785.065247
-79.651001 193.117264 789.000000
-91.123993 205.523788 780.000000
-86.016953 204.755325 785.974243
-92.563293 215.043930 781.299927
-87.589249 214.297287 787.208252
-93.259094 225.110931 783.945984
-87.744896 226.161285 788.526245
-94.139725 235.150009 783.658508
-87.731224 234.835007 788.529358
-206.514008 248.113998 780.000000
-101.028999 249.599991 780.000000
-94.748405 244.878708 784.294128
-88.669006 244.965729 789.000000
-101.648888 255.460587 780.199951
-95.131569 254.874680 784.849182
-88.668999 251.728500 789.000000
-206.779007 267.024506 781.000000
-101.982498 265.553986 781.636230
-96.304688 264.533691 786.535706
-134.824646 75.440430 792.143005
-128.107620 76.487122 791.249939
-72.344711 78.837990 795.999939
-66.374458 77.606918 796.091003
-57.482330 78.500328 797.666687
-62.160915 81.507538 792.454529
-54.712555 84.978638 795.191467
-48.640003 87.400002 798.000000
-60.518005 96.426666 791.000000
-55.140881 94.691895 795.400146
-61.632504 105.550003 791.625061
-56.401409 104.699394 796.620850
-62.586121 115.263840 793.720093
-57.168499 114.781250 797.708496
-63.423767 125.145493 793.500122
-58.520000 124.640007 798.000000
-64.483696 135.411484 795.073181
-59.280003 134.519989 798.000000
-70.813004 145.393341 791.000000
-65.662025 144.864319 795.190552
-72.168854 155.866089 791.714355
-66.642899 155.255402 796.906433
-73.103004 164.909683 792.615479
-67.536621 164.635971 797.541809
-73.542610 175.002640 793.615479
-67.875191 174.339005 797.560120
-74.538109 185.225357 794.194580
-69.151199 183.593323 797.899902
-75.115898 195.128418 794.923279
-69.920006 192.533340 798.000061
-80.707497 206.674316 791.999939
-75.485664 204.655609 796.333557
-82.564766 215.872925 792.760071
-76.778038 214.693130 797.174011
-82.975632 224.808350 793.533447
-77.825470 224.274841 797.470642
-82.743912 235.294922 793.733521
-78.263504 234.791580 797.833313
-84.017212 245.262177 794.833496
-79.040009 244.720001 798.000000
-90.400002 259.147003 791.000000
-84.446312 255.189209 795.000061
-79.040001 255.106689 798.000000
-91.632935 266.178772 791.428711
-85.382446 264.903015 796.026489
-76.190002 79.237999 800.000000
-63.238003 76.190002 800.000000
-53.814247 77.731331 801.500061
-48.119999 78.672501 802.000000
-50.285999 81.524002 800.000000
-47.102108 85.135681 800.421204
-50.667000 97.905006 800.000000
-47.130505 95.338959 803.399963
-51.741997 105.644371 801.764709
-47.091721 105.353500 804.952393
-52.025597 115.287415 802.200012
-47.039562 114.628426 804.959839
-53.808060 125.148010 803.030273
-47.837284 124.312431 806.428345
-54.181667 135.119186 803.999939
-48.993336 135.179489 808.000000
-60.952000 147.809662 800.000061
-55.506565 144.824814 804.682922
-48.590000 142.031723 808.000000
-61.752254 154.763855 800.500122
-56.148026 154.734528 805.368591
-62.615200 165.401901 801.800049
-56.876507 164.848099 805.677490
-63.073338 175.478821 802.095215
-57.845901 174.274902 806.285645
-64.061646 185.591629 803.459473
-59.179001 181.382004 807.000061
-70.095001 196.571243 800.000000
-64.306175 194.794647 804.372192
-70.519753 205.844254 800.500061
-65.492195 204.499832 804.889038
-71.938469 215.339005 801.789490
-65.948570 215.027069 805.812500
-73.010742 225.270462 802.785767
-67.223953 224.247864 806.947205
-73.477432 235.004745 803.212158
-68.487511 234.704544 807.999939
-74.417397 245.119186 803.621643
-69.257004 241.630310 808.000000
-74.346786 255.119141 803.384644
-69.257004 257.020996 808.000000
-80.762001 267.428528 800.000000
-75.358582 264.670258 803.946106
-47.828999 128.828491 810.000000
-47.085918 135.468491 810.500061
-50.914001 148.885483 810.000000
-46.988873 145.987305 810.500122
-51.188427 155.774719 810.857117
-47.743149 154.996460 812.500000
-51.921696 164.916916 810.923157
-48.112820 165.119308 813.294189
-52.976528 175.475754 811.826172
-47.521278 174.789047 814.363647
-54.827438 185.282150 812.542908
-48.259445 184.052460 817.333435
-55.046852 194.861206 812.947327
-48.608284 196.214951 817.571472
-60.889889 206.342438 810.444397
-54.843960 204.963425 813.769348
-48.247444 204.668976 817.111267
-60.963387 215.098297 811.077026
-55.097923 214.983185 814.916626
-49.709743 214.630753 818.750000
-62.616051 225.877762 811.727356
-55.681328 224.759781 816.764771
-63.544361 235.111710 813.096741
-56.791241 234.510269 817.833374
-70.971001 249.943008 810.000000
-64.642410 245.362091 813.780334
-57.958130 244.402496 818.250122
-70.971001 251.486008 810.000000
-65.029007 255.052246 814.357178
-59.280003 255.060013 819.000122
-64.978592 264.877869 813.659058
-59.280006 265.200012 819.000122
-46.020287 187.210297 821.000061
-46.740223 192.522446 821.000061
-47.256790 216.034302 823.142822
-50.563332 226.752304 821.000061
-46.329838 225.325317 825.159973
-51.847881 235.854431 821.941223
-46.946423 234.662018 825.947205
-53.008034 245.532059 823.963074
-45.639545 245.124680 826.160950
-39.095001 247.864014 821.000000
-54.189079 255.270309 824.722107
-46.436256 254.648392 827.583435
-54.387474 264.986938 826.353088
-46.955479 264.033417 829.000183
-44.426998 222.132996 833.000000
