-370.210999 84.466003 629.000000
-366.622284 84.383003 628.647095
-370.920013 79.021004 635.000000
-369.217529 79.765495 634.500000
-374.334991 81.161858 636.000061
-367.373230 81.653221 631.444397
-376.765686 38.571499 647.999939
-380.777008 48.753998 648.000000
-374.325409 45.311249 647.389648
-382.874542 56.197319 647.315796
-374.361359 55.058609 645.716064
-368.711731 56.839573 647.714233
-382.895355 64.974205 645.119995
-374.168213 65.300713 642.186584
-367.699951 64.807861 646.478271
-383.014160 74.544403 643.666748
-374.417175 75.029327 641.759399
-367.142761 75.036026 646.581726
-372.217010 81.616692 642.399963
-364.549255 83.739716 644.361633
-357.606567 87.574203 643.357178
-372.866760 -1.880000 658.000000
-381.686005 8.759999 657.000000
-374.787811 5.351735 657.073853
-369.733032 4.386625 658.000000
-382.205963 15.857792 656.421082
-374.842529 15.447644 655.181702
-369.002808 15.646251 657.166687
-384.216797 25.452564 656.384583
-374.273956 25.583054 653.333252
-368.269714 24.713408 656.783752
-384.716217 35.178352 654.387085
-374.142365 34.932510 651.133850
-367.206055 35.643848 655.431152
-390.862488 45.611622 656.125000
-385.224030 44.904243 652.388794
-371.325195 43.952332 650.000122
-365.502228 45.200142 654.180847
-390.505005 54.271332 655.000000
-385.634735 53.079006 651.285767
-370.190002 50.762001 650.000000
-364.311096 55.070850 653.226379
-359.759033 58.845665 657.333374
-387.524017 62.523998 650.000000
-362.925323 65.211685 652.533325
-359.695740 64.627937 657.000000
-362.165131 74.698204 651.159119
-357.946136 75.756248 655.931763
-361.822937 82.793060 652.272766
-357.489014 82.319611 656.238037
-381.011017 -40.777000 669.000000
-375.015808 -43.214031 668.371582
-382.386353 -31.925112 667.444458
-374.652679 -34.944637 665.784912
-369.231964 -34.215721 668.055481
-382.947998 -24.687176 666.869629
-374.660858 -24.633121 664.226257
-368.207336 -24.099619 666.838013
-391.205994 -10.831499 669.000000
-384.139618 -14.355488 664.795105
-374.242340 -14.366612 662.208557
-367.751343 -14.608459 666.916992
-391.446625 -4.177572 667.857239
-384.180908 -5.143974 662.512756
-374.497894 -5.781632 660.816284
-366.596436 -4.768726 665.725769
-391.692932 4.880527 667.315674
-385.260803 4.101572 663.071533
-379.657013 0.628500 660.000000
-365.683838 4.428124 664.340698
-393.318878 14.779771 665.769409
-387.428436 13.944601 661.533386
-364.468384 14.392608 664.235168
-394.291962 24.764238 664.380981
-388.764709 21.795668 660.166748
-363.295685 24.622103 662.710144
-358.695099 26.319048 667.549927
-393.938385 34.365726 662.681885
-389.713989 32.686001 660.000000
-363.280029 33.837204 661.777893
-357.684662 35.259731 666.094543
-393.767731 41.233250 661.000000
-361.280670 44.473827 661.090820
-356.435303 45.218285 665.579651
-360.908875 52.636333 660.583435
-355.267426 55.264183 664.816040
-349.381012 59.712002 667.000000
-355.210663 64.802971 662.574951
-348.193298 66.186935 665.875061
-353.254852 74.666710 661.870850
-348.444702 74.883041 666.724121
-352.294281 83.087677 662.727295
-348.550903 82.917000 667.499939
-376.360016 -91.591446 678.999939
-381.718018 -82.403862 679.000000
-374.524475 -84.663025 677.058899
-369.501770 -82.758621 678.875000
-382.236450 -73.728806 676.812500
-374.419464 -75.133789 675.311157
-368.012299 -74.209015 677.758545
-383.838196 -64.575348 675.785583
-374.679810 -64.911621 674.812134
-368.046051 -64.895004 677.923157
-391.134979 -55.122730 678.727234
-384.566864 -55.080330 674.526184
-374.314880 -55.102654 671.896545
-367.227051 -54.496979 676.703735
-391.489471 -43.772537 677.461487
-383.886261 -45.539440 671.794128
-373.496002 -47.314995 670.193481
-366.262482 -45.052357 674.606018
-393.306885 -34.881001 676.999939
-386.264465 -36.002525 671.869629
-370.095001 -39.562000 670.000000
-365.003326 -35.108246 673.794373
-394.437164 -24.953335 674.925903
-388.213318 -25.473391 670.555542
-363.318298 -25.327436 673.694458
-359.333496 -23.526400 678.599976
-400.995758 -13.652858 677.857178
-395.255432 -15.046139 673.724121
-389.238007 -18.504999 670.000000
-362.829224 -14.718337 671.916687
-358.538361 -14.538268 677.341492
-402.762177 -2.794667 677.000061
-397.169708 -5.409044 673.000061
-361.580170 -5.576200 671.160034
-357.007721 -4.803873 676.345459
-402.270630 4.505125 675.812561
-396.856689 3.482944 671.611084
-361.161987 4.466625 670.000000
-356.317719 4.550642 674.308594
-401.717834 12.410334 674.166687
-398.713348 14.682874 670.375000
-361.162018 12.762000 670.000000
-355.392487 14.875699 674.397888
-399.447998 22.971401 670.000000
-353.971771 24.704964 673.698792
-349.096832 28.962002 678.800049
-352.506409 34.926422 671.530518
-347.009338 35.327961 676.666748
-351.432465 44.567001 670.999939
-346.435974 45.176823 676.400208
-350.575012 53.001499 670.500061
-345.926270 55.029636 675.128235
-344.017151 64.392860 673.973022
-338.733856 67.185997 678.333252
-344.007874 75.039246 672.793518
-337.895752 75.413979 677.643066
-352.867004 86.781006 670.000000
-344.000916 85.107864 671.835815
-337.307404 84.302010 676.641113
-341.831635 91.695160 672.923096
-339.465485 90.588501 677.000000
-391.072998 -91.556335 686.666687
-384.059784 -95.016464 681.771545
-374.145111 -95.708138 681.430786
-366.261658 -94.725754 686.700073
-392.638123 -84.389999 687.266663
-385.605774 -85.722374 682.233337
-371.274139 -88.928146 680.857239
-365.018890 -84.976753 684.589539
-392.588593 -75.047905 685.199951
-386.540253 -76.622887 681.117676
-363.449768 -75.293266 684.124939
-358.905457 -71.912994 688.000000
-400.276031 -61.681999 689.000000
-394.601532 -65.130447 684.500061
-389.003021 -68.216011 680.000000
-363.046509 -65.383911 682.784546
-359.155701 -64.884705 688.166748
-402.058746 -55.229893 688.555542
-396.585297 -55.012463 683.650085
-362.569244 -55.355858 682.200012
-357.994843 -54.666828 686.342102
-403.469482 -45.789421 686.789429
-396.944702 -45.034004 681.958313
-361.930908 -44.835529 682.281250
-357.774780 -45.052811 686.833313
-404.186646 -34.421658 684.695740
-398.310272 -35.001366 680.545532
-361.214874 -36.017765 680.999939
-355.474762 -34.794476 685.102905
-405.144135 -25.279163 683.973022
-398.932983 -25.905001 680.000000
-360.076019 -29.789999 680.000000
-354.715881 -25.303320 683.373352
-405.845428 -15.789272 682.909119
-352.960938 -15.233271 683.313171
-348.585571 -12.057199 688.000000
-405.743469 -6.976750 681.375000
-351.878784 -5.604154 683.051331
-347.382568 -4.746968 687.406250
-351.594543 4.047920 681.640015
-347.616058 4.805020 685.840088
-351.010010 11.657000 680.000000
-346.358337 15.178816 684.342041
-344.867798 25.101530 683.573303
-339.906982 26.247601 689.000061
-342.137207 34.802311 682.710510
-338.771973 34.595341 687.620667
-341.411957 44.134407 681.531311
-338.567291 45.721210 686.454590
-341.089233 54.040573 680.142822
-337.820862 55.465004 683.854309
-340.648010 60.875999 680.000000
-335.689880 65.248657 685.107117
-332.944977 74.708122 683.981812
-329.453094 76.661903 688.000000
-332.968231 85.363770 682.807739
-328.628967 84.880005 687.500061
-341.832794 95.118309 684.769226
-334.669159 93.747757 684.200134
-328.632751 92.969246 686.875061
-402.818054 -94.371567 696.857239
-396.535889 -95.392700 693.434753
-362.066284 -95.542969 691.709778
-357.147919 -94.427361 695.721069
-410.822998 -81.100998 698.000000
-404.854919 -84.793198 695.571472
-397.505310 -85.200050 691.294067
-360.415588 -85.884842 691.000000
-355.973389 -84.774452 694.889038
-411.921906 -74.343872 697.750000
-405.156250 -75.270065 694.611145
-397.667908 -75.103943 691.055542
-360.114014 -76.885750 690.000000
-355.891388 -75.131226 694.695068
-412.349152 -64.376671 696.833313
-404.925995 -65.239975 691.414734
-399.542999 -68.343002 690.000000
-354.266449 -64.984177 693.469910
-349.082001 -62.110752 697.500000
-413.332031 -54.796398 696.478271
-406.552124 -55.250145 691.380920
-353.094482 -55.191067 693.483215
-348.105896 -55.139168 697.541687
-412.844604 -45.200069 693.800110
-407.914215 -44.199543 690.307739
-352.701935 -45.317097 691.756104
-347.668121 -44.390453 695.914307
-412.322571 -35.921848 692.615417
-408.414490 -38.443001 690.000000
-351.093353 -36.202160 690.153870
-346.882660 -34.844833 694.270020
-350.914032 -24.971432 690.000000
-345.765991 -25.011871 694.242920
-350.914001 -19.713999 690.000000
-344.628662 -15.565157 693.662598
-339.870026 -11.948667 697.000000
-342.844421 -5.536239 692.760986
-339.229797 -4.495154 697.153870
-342.624420 4.156182 691.181946
-337.432220 5.153196 695.674011
-341.615692 14.395050 690.199890
-335.858032 15.351452 694.800049
-329.721985 17.948502 698.000000
-340.400024 21.685999 690.000000
-335.371124 25.220182 694.220642
-329.721985 29.250000 698.000000
-333.869720 35.061230 693.656616
-329.721954 35.232498 698.000000
-333.879547 44.769005 692.410767
-327.154785 45.505379 696.594727
-333.232849 54.537823 690.888916
-327.406494 55.155075 694.723572
-331.903198 64.024590 690.307556
-325.857758 65.321152 695.151733
-331.200012 70.971001 690.000000
-324.723389 74.620140 693.567627
-319.113739 76.763000 697.615417
-323.938354 84.925705 692.483948
-319.193756 84.939796 696.785828
-330.838013 97.539001 692.000061
-324.965851 93.605446 693.777832
-319.955994 90.941994 697.000000
-420.753998 -90.354004 708.000000
-408.032104 -95.498299 701.200012
-352.731140 -95.808228 702.209290
-348.402740 -94.379433 706.793152
-420.753998 -89.005997 708.000000
-416.403381 -85.800331 705.952393
-351.275818 -84.960587 701.814758
-347.675964 -84.613770 706.487854
-421.205719 -73.458504 707.625061
-417.254242 -78.613495 705.500000
-351.752899 -75.361237 701.000000
-346.535034 -74.819641 705.629761
-420.314026 -68.486008 705.000061
-417.288391 -64.885941 701.866699
-350.933624 -67.733208 700.000000
-345.561951 -64.897835 704.239624
-339.124695 -62.394859 707.714294
-417.333008 -57.333336 700.000000
-344.109802 -55.005489 704.339355
-339.349426 -55.659187 708.000122
-343.285461 -45.516602 703.173157
-338.033936 -44.249538 706.766724
-342.140472 -35.133820 701.500000
-337.219666 -34.714161 705.351501
-341.393890 -26.337875 700.124939
-335.772766 -24.671349 704.311890
-341.333008 -17.333000 700.000000
-335.524780 -14.885524 703.750183
-334.627808 -5.572101 703.714417
-328.721375 -4.290637 707.818298
-332.786743 4.344875 702.375061
-327.092010 5.763023 707.093262
-331.119476 13.728790 702.157837
-327.376892 14.906275 706.650208
-331.091949 22.797583 700.666687
-325.581329 25.071589 704.720154
-319.611023 29.669001 708.000000
-325.074463 34.854355 703.800110
-318.786957 36.294415 707.916748
-322.996277 44.148018 702.387878
-317.982635 45.431320 707.029541
-322.853485 54.761631 701.627930
-317.527222 55.163342 706.371521
-321.134277 62.828182 701.095276
-315.736633 65.549301 705.062683
-314.512695 74.788307 704.291870
-314.490631 84.967690 703.584412
-308.480865 86.062698 707.692383
-322.677490 96.606621 700.714294
-315.148560 94.470055 702.785583
-308.496674 93.180176 707.062500
-323.855927 100.749817 701.000061
-318.907501 100.286003 702.000000
-422.552368 -85.051682 710.266663
-342.465210 -85.290283 713.431396
-337.607269 -84.525536 718.519958
-422.718353 -78.456505 710.166687
-342.040405 -75.541161 712.424255
-337.979279 -74.503845 716.843628
-341.340790 -67.889404 710.000000
-335.884521 -65.042282 714.383484
-334.671600 -54.582260 713.712280
-332.975616 -45.139572 713.543884
-328.352203 -43.284092 718.272705
-332.791718 -35.529556 712.325500
-326.785400 -34.388222 717.044373
-331.360260 -27.351223 712.000061
-327.187561 -24.422388 716.098145
-330.978210 -15.426199 710.400024
-326.453430 -15.021873 714.822754
-324.573486 -5.508817 714.909180
-319.098999 -4.793500 719.000000
-322.783722 3.593374 713.479187
-318.430786 6.457318 717.500000
-322.458771 14.796371 711.742737
-317.138733 15.178186 716.813904
-320.929626 23.122692 710.923157
-316.651154 25.326897 715.122803
-314.801056 35.027706 714.492188
-309.511993 39.716003 719.000000
-313.335480 44.677616 713.469299
-309.019836 46.577782 717.615356
-312.871704 54.974026 712.625000
-308.185303 54.805935 717.333252
-311.234161 63.923859 711.904846
-306.001434 65.602959 716.218140
-299.926025 69.160995 719.000000
-310.589478 71.049500 710.500000
-305.858215 75.173981 714.614441
-304.002655 84.837234 713.461548
-297.764587 86.771950 718.124939
-303.778687 94.755554 713.481506
-298.037598 92.745010 718.529358
-332.576141 -85.438164 723.224426
-328.294342 -82.248581 727.750000
-332.544708 -75.248825 721.979980
-327.257050 -74.735535 727.437500
-331.395355 -65.395988 721.925842
-325.817963 -64.591431 726.204224
-330.666534 -57.627167 720.333313
-325.874390 -55.260036 724.327637
-324.431854 -45.366077 724.873108
-318.846863 -41.157497 728.333435
-322.478241 -35.301411 722.833374
-317.457397 -34.092590 726.812622
-321.766296 -24.553078 720.730896
-317.499481 -24.992752 725.925110
-321.364960 -15.258237 720.470703
-316.064301 -14.795760 725.396545
-320.914001 -9.600000 720.000000
-314.604431 -5.583251 724.203369
-309.288605 -3.054600 728.799988
-313.651703 4.306500 723.016174
-308.978607 5.539626 727.625000
-312.375854 14.435716 720.190674
-307.749634 15.743591 724.545471
-312.141571 23.967468 720.235413
-306.591583 24.926126 724.127441
-311.588379 31.816999 720.000000
-305.458984 34.809341 723.479553
-304.605042 44.950912 724.484985
-299.399841 48.357170 728.833374
-303.148743 55.015995 723.179932
-299.031494 55.504791 728.500061
-301.859222 62.856441 721.799988
-297.707947 66.083122 726.382446
-300.647675 75.276222 720.000061
-296.097931 75.162521 725.564514
-300.343018 81.599998 720.000000
-293.736450 84.439491 724.080566
-289.153046 85.435219 728.666687
-300.343018 98.742996 720.000000
-293.908691 95.535980 723.269287
-289.318054 95.051872 728.500000
-301.778015 102.465324 721.250061
-294.926910 103.027977 724.837830
-289.417023 102.947403 728.399963
-324.230530 -85.282104 733.999878
-318.739502 -83.027794 738.799988
-322.787842 -75.341705 734.069763
-317.220642 -74.269829 738.000122
-321.448364 -65.696800 732.600098
-316.348907 -64.326096 737.355469
-321.502655 -54.714821 731.409180
-315.568726 -54.684967 735.438416
-320.248016 -46.644753 731.000000
-314.792908 -44.719437 734.087708
-312.736786 -35.204807 733.565308
-308.861786 -33.896503 738.399963
-312.761444 -25.003269 732.513672
-307.707520 -25.008217 737.031250
-311.635437 -16.344000 731.266724
-306.738220 -15.212042 734.695557
-310.501038 -8.354334 731.000061
-305.405792 -5.668763 734.054565
-304.891968 5.065163 734.065491
-299.822998 9.853000 739.000000
-303.144989 14.977975 734.111206
-298.364685 15.960174 738.058716
-301.816620 25.035267 733.794189
-297.025177 25.724833 738.000061
-300.687958 33.395786 732.785828
-295.856567 35.547791 736.740540
-300.753998 42.467503 731.000000
-295.413208 44.748562 735.290100
-294.284027 54.947067 733.557190
-289.239014 57.425003 738.333374
-292.600403 64.670380 732.444702
-288.168549 65.227287 737.181763
-291.206207 73.604843 731.230835
-287.335144 75.342918 735.636414
-285.791748 85.144409 735.722168
-284.225708 94.969902 734.806213
-277.834076 98.058853 738.692383
-284.301025 104.463043 734.793030
-277.385895 105.838852 738.739258
-281.398010 110.600334 735.000000
-277.954010 110.901001 737.000000
-315.038055 -85.107338 743.470642
-312.537659 -75.208733 743.951172
-308.391846 -73.508453 747.363770
-311.826324 -65.862480 741.473633
-308.027283 -65.471840 745.828430
-310.752380 -54.396084 740.166626
-307.553253 -55.006374 745.000000
-310.683960 -45.885002 740.181763
-306.517181 -45.343021 745.300110
-310.095001 -39.466999 740.000000
-304.571472 -35.465485 744.228149
-298.059998 -31.915005 748.000061
-302.774872 -25.688580 743.733459
-298.211700 -25.919140 747.666687
-302.465851 -15.841289 742.935608
-297.590271 -15.099274 746.310303
-301.251740 -5.929867 741.133362
-296.554016 -5.427413 744.717590
-301.090515 3.669734 741.200012
-295.387238 5.295421 744.750061
-293.617828 15.420209 743.622864
-289.227020 15.672430 748.000061
-292.268250 24.887978 742.729736
-288.631561 27.039669 747.200134
-290.796021 34.104000 740.454468
-287.155731 35.890324 745.395325
-290.362030 45.104721 740.000061
-286.546204 45.394329 744.755127
-290.362000 52.152336 740.000000
-285.337585 55.305550 744.518005
-277.828674 59.840004 748.000000
-283.640472 64.847412 743.282715
-278.073730 65.943474 746.476135
-282.608093 74.552399 742.437561
-277.194275 75.850418 746.062622
-281.243134 83.673897 740.882324
-277.256531 84.949364 744.400024
-280.494995 90.209999 740.000000
-276.737762 93.678574 740.904541
-274.312561 103.207626 741.461487
-303.955597 -75.287872 753.781738
-298.620483 -73.292656 757.777710
-303.197906 -64.656860 753.204712
-298.508301 -65.002113 757.473694
-302.911591 -55.498814 751.757507
-298.450714 -54.164631 756.407410
-301.774963 -45.250946 751.052612
-296.860718 -44.425461 755.599915
-300.609680 -37.398003 750.333313
-294.180969 -34.714813 754.218079
-293.615509 -24.724678 753.565979
-288.033722 -21.030571 757.714233
-293.271942 -15.060774 753.099976
-287.712433 -14.422503 757.142761
-292.043945 -5.663182 751.590881
-287.595032 -4.718655 755.862061
-291.539307 2.040857 750.285767
-286.994751 4.538080 754.219971
-285.104462 14.559590 753.678589
-278.654999 18.048000 758.000000
-284.092041 24.098829 751.903809
-278.273529 25.135590 755.352905
-282.573090 33.734570 751.533508
-278.448853 34.689159 753.947449
-281.677643 44.325096 750.666626
-276.953033 45.105480 752.871216
-268.928497 48.765999 753.000000
-281.378998 52.789913 750.909058
-276.455200 53.504139 753.189148
-268.927002 50.723667 753.666748
-274.286011 78.570999 750.000000
-294.901917 -75.334038 763.645874
-288.301483 -72.502747 767.666687
-293.900665 -65.312157 761.976379
-288.802124 -65.613899 766.350098
-293.536407 -55.299500 761.500122
-288.608459 -54.591637 766.136475
-292.269226 -45.757908 761.500061
-287.583710 -44.972553 765.499939
-290.971008 -38.362000 760.000000
-286.619843 -34.630119 764.020508
-290.971008 -26.056999 760.000000
-284.776031 -24.966763 763.672607
-279.041992 -21.183500 767.000000
-282.931641 -14.648075 763.225098
-279.467041 -15.339500 766.833435
-282.813904 -5.336429 761.428650
-278.878113 -4.362222 763.000000
-282.289673 3.962842 760.420959
-279.668243 3.805125 761.250000
-281.427246 12.487625 760.125061
-279.396729 12.508625 761.500000
-291.133484 -78.466507 770.000000
-284.433441 -75.580711 774.137329
-279.127197 -76.962196 776.999939
-284.087982 -64.395699 773.196167
-279.180573 -64.341286 777.857178
-283.968079 -55.728554 772.974976
-278.975220 -57.454403 777.400024
-282.901886 -45.382000 771.333374
-279.462402 -44.125206 772.200073
-282.243164 -35.962292 771.381165
-279.545166 -35.311855 772.428650
-280.760162 -27.049858 770.571411
-279.390015 -27.203999 772.000000
-277.206177 -63.569599 781.599976
