387.600006 249.171005 969.000061
395.598022 248.863510 969.000000
405.134308 247.853012 969.000000
386.822906 254.514313 969.000000
394.829041 254.631699 969.000000
404.672882 252.632233 968.999939
388.984497 261.630005 969.000000
394.414948 261.949402 969.000000
378.371002 275.011353 969.000061
384.113708 276.549500 969.000000
395.565704 275.885681 969.000000
401.442993 272.242981 969.000000
385.385254 284.424561 969.000000
394.982819 285.162811 969.000000
404.714844 287.176208 969.000000
412.516998 289.777008 969.000000
362.682983 298.083008 969.000000
378.371002 299.005981 969.000000
385.347382 296.696808 968.142761
394.818909 295.984650 967.363403
405.152649 295.375305 968.599915
412.414429 295.314453 969.000000
366.769623 303.488007 969.000000
375.492188 305.010071 968.032043
385.024200 305.458344 965.155945
395.106415 305.078918 965.307495
405.557800 304.901733 967.799866
411.593994 304.081238 969.000000
367.835815 315.551361 968.799927
374.612885 314.249878 966.749817
384.657166 314.560944 965.538391
395.191132 314.844452 965.999695
405.848511 314.648468 968.333252
413.298004 313.203491 969.000000
397.778748 207.031250 977.000000
404.757507 206.193802 977.000061
412.014404 206.193787 977.000061
388.938995 219.592010 977.000000
395.633942 215.609711 976.875000
404.855133 214.787827 976.914124
412.200439 214.940048 977.000183
388.938995 221.453003 977.000000
395.093658 224.821930 976.759888
404.558044 224.877136 975.714233
413.604095 225.571548 976.823669
397.444641 234.814957 976.117737
404.543762 234.881119 974.677002
414.339996 234.817749 975.928345
422.436005 236.002670 977.000183
389.399994 245.691254 973.500000
395.110046 244.234558 973.866699
405.014954 243.327347 973.047607
415.442902 244.969681 973.535706
423.730286 244.229279 976.550110
385.096985 259.200012 972.000000
399.908997 257.348999 972.000000
405.799438 258.022034 972.000061
415.254639 255.540848 972.166687
423.096893 254.643951 974.500000
387.135620 265.215240 975.143005
395.449554 267.343994 973.000061
404.957916 264.501709 972.000061
414.712524 265.343414 974.153625
423.454987 265.480347 975.736816
378.761200 277.853821 973.799988
386.451263 273.435608 974.800110
394.154816 271.993927 972.733459
405.332611 275.635681 972.091003
414.535858 274.756348 973.965210
424.070801 274.621124 976.000061
379.102753 282.707275 973.250061
381.151764 287.487244 973.750000
405.462830 282.342987 972.000061
415.321075 284.421875 972.785828
423.225555 284.854614 975.062561
358.251526 299.005493 972.000000
365.881927 297.823456 972.818237
375.650482 297.936371 975.052734
382.832703 292.919434 973.312561
417.283417 295.374054 972.000061
421.969727 294.803192 973.416748
359.539978 302.869507 975.500000
363.570007 306.291412 972.954712
371.030670 303.428650 972.333374
416.544922 305.736481 972.800049
421.786011 304.266754 975.500000
358.543701 317.602692 977.000000
363.397980 314.823975 973.399963
417.752411 315.894470 972.285828
421.469025 316.721313 973.333374
361.676239 320.871490 973.750000
375.440002 139.261002 988.000000
384.222229 137.692673 988.000061
367.206512 146.553497 988.000000
374.498993 146.064758 988.000061
384.719208 144.715942 987.586487
394.725616 146.292816 987.646973
401.786987 148.669998 988.000000
376.381012 150.552002 988.000061
386.337860 152.594330 987.000000
395.037048 154.955307 986.928833
402.351654 155.821609 988.000061
388.747437 165.069992 988.000061
395.636169 165.267136 986.345093
404.763184 165.619827 985.850037
412.988647 166.108871 987.785706
422.488007 169.370987 988.000000
385.306671 175.003922 986.428711
395.012421 175.262650 984.857361
404.267700 175.029465 981.363342
414.386780 175.210632 984.039917
422.360016 174.962692 987.700012
384.893372 185.164871 983.548279
395.112610 185.299942 981.606934
404.213226 184.777069 981.227112
414.418579 185.692047 983.961609
423.418274 185.596634 986.999939
377.635681 196.659012 988.000061
384.332642 194.984146 984.285950
395.070038 195.001877 980.342590
404.790039 195.442703 980.333008
414.694427 195.327362 982.218506
423.560455 195.386902 982.199768
378.626495 204.810501 986.500000
384.205414 204.933289 985.697205
394.556885 205.030823 982.862000
404.833252 202.300125 980.000000
415.388184 204.564850 979.999756
423.808044 205.632050 979.999634
378.952026 215.022018 981.666748
384.445618 214.661514 981.821228
392.071777 213.652756 982.941040
417.200012 214.666595 979.999939
424.666718 214.666672 979.999695
385.205048 224.396378 981.719849
391.066498 227.733337 980.000000
417.821991 223.377853 980.000000
424.044586 224.622253 979.999695
431.022400 226.183411 983.000000
378.989990 238.276001 985.000000
386.309418 235.350952 985.333435
392.622131 234.888870 979.999756
426.688965 234.266754 979.999878
431.455994 233.805786 981.999939
375.440002 247.470505 988.000000
388.394257 243.503250 981.500000
391.253204 241.919998 980.000000
429.333038 244.533401 980.000000
431.200012 241.733490 980.000000
429.333008 250.133011 980.000000
384.598236 267.964142 984.285645
378.287354 274.831787 981.555542
381.839478 271.833496 982.200073
378.951996 282.655701 981.666687
380.354645 288.156830 984.500061
427.466980 285.600006 980.000000
369.600006 294.000000 980.000000
376.092468 295.007629 982.333313
380.346008 291.974854 983.666687
427.466980 293.067017 980.000000
356.238068 305.959656 982.565125
360.266998 308.000031 980.000000
355.481659 315.370819 985.138000
360.266998 313.600006 980.000000
358.648499 88.713249 996.250000
361.988678 88.443329 995.000000
358.241760 94.734688 996.699951
364.543030 95.196449 995.559875
371.580017 98.117012 997.000000
355.639923 104.361679 996.999878
364.905151 105.022827 996.678406
373.314178 105.987961 995.079773
382.453308 109.812996 994.000061
356.521301 113.943001 996.999878
364.597748 115.015129 995.499817
374.802246 115.546402 992.299805
384.716644 115.045601 991.499817
391.562531 118.036171 991.500061
366.173462 123.851746 996.499878
374.226868 124.744415 992.285461
384.423248 124.677086 991.749939
393.732788 124.818024 991.827332
402.597992 128.185501 997.000000
355.740326 136.641129 993.117737
365.603241 136.527969 992.999756
374.945801 134.313477 991.908875
384.630249 133.021652 991.000122
394.716370 134.942703 991.967468
403.616272 135.549911 996.699951
358.648010 141.570999 991.000000
365.556793 143.057541 991.230896
375.636292 144.088181 991.000122
385.073975 149.121994 991.000000
396.085510 142.200348 991.000061
404.946320 144.567307 992.434753
411.069000 147.529663 993.000000
379.411011 157.615982 991.000000
384.408142 155.895081 991.000122
391.681000 157.615982 991.000000
408.016083 154.349243 991.000122
413.134674 155.728394 992.200073
368.673737 167.871292 991.857239
375.554535 165.826859 991.321228
384.654907 165.131729 990.999817
391.681030 167.998001 991.000000
408.984039 161.077011 991.000061
415.066406 164.013229 991.000061
420.938995 169.885986 991.000000
367.903656 174.259750 993.062622
375.299652 175.798340 991.222046
383.501343 178.065338 991.000061
420.938995 172.717010 991.000000
368.415009 180.410004 997.000000
375.781403 185.392563 994.964233
382.122711 185.658859 993.142883
377.777527 191.733841 995.000061
381.298981 190.649994 991.000000
378.939240 246.806000 991.000000
383.343994 246.491486 991.000122
377.584076 254.633011 991.923279
384.362854 256.053162 993.550110
390.026978 258.440002 994.000000
378.516785 263.713196 994.599976
383.607910 264.286163 992.304260
390.784210 263.552002 994.000061
379.809998 274.412506 997.000000
380.789825 274.701416 994.599976
376.600647 285.839630 992.636292
381.134521 281.583008 995.499939
375.284088 292.836395 991.857300
352.306763 317.360260 991.750000
350.681976 322.326233 992.500000
325.361267 77.467079 1007.077209
334.137146 76.519806 1004.333496
344.275482 78.244675 1006.000061
355.199982 78.720001 1008.000000
327.108185 83.470009 1006.705872
334.821014 84.747360 1003.857483
344.771637 85.290543 1003.617615
354.362366 85.654099 1004.217651
361.079987 85.971001 1003.000000
334.941162 94.253998 1004.318359
344.806122 95.513893 1002.900269
353.912201 95.240257 1001.000061
337.198975 102.210495 1003.000000
344.594513 105.003960 1002.300171
351.190399 104.999870 1000.000000
346.141022 114.021049 1003.000244
352.080536 114.820930 1000.500061
348.746979 120.720001 1006.000061
355.713348 124.234726 1003.423340
363.083374 126.709846 1000.333435
356.794586 131.833786 1006.000061
363.208649 132.583191 1002.181885
407.618988 137.143005 1000.000000
366.031708 177.778000 1000.000000
366.666779 184.761841 1000.000000
371.429016 186.666672 1000.000000
382.856995 186.666992 1000.000000
368.333374 192.619003 1000.000000
374.427399 194.950806 1000.529419
380.951996 195.237991 1000.000000
386.223419 227.978500 1005.800110
385.434265 230.975754 1004.250061
380.760254 274.970520 1000.750061
377.904999 281.524017 1000.000000
380.951996 280.000000 1000.000000
318.898621 74.717796 1011.000061
325.017670 74.032997 1011.000061
331.223022 73.177002 1011.000061
324.482727 85.212868 1011.000061
328.819977 90.643005 1012.500061
330.273987 92.709000 1014.000061
354.330994 125.171005 1011.000061
386.527985 226.211594 1011.600159
390.148987 225.011505 1014.000061
383.217010 231.085999 1011.000061
