15.670555 27.381950 628.833191
20.767334 29.552668 629.000061
8.983500 36.531670 628.833435
14.956064 35.297600 628.203186
21.510048 35.940041 628.954468
8.149655 45.401737 628.538452
14.912379 44.899605 626.378723
23.335236 45.239918 627.872375
7.912222 52.399338 628.388916
14.902772 52.623585 625.333374
23.292614 53.360481 627.944580
16.769556 -12.644723 639.000000
15.471756 -5.253119 638.750000
20.691000 -5.599000 639.000000
8.553000 5.715666 637.750000
15.138692 4.840220 635.819763
22.961855 6.400647 638.382446
7.277000 15.711447 637.052734
15.096226 15.095180 634.078003
23.955286 15.326484 636.038574
5.178805 25.029524 635.746277
14.439086 22.828093 631.771301
24.796770 24.784418 634.806458
31.013500 28.580250 638.500000
4.089465 34.735447 634.565186
10.816999 30.048000 631.000000
26.281399 34.616356 633.083374
32.124969 36.072155 636.774170
-1.436091 45.729454 637.909119
2.906066 44.955173 633.413147
27.974472 44.049526 632.058838
33.543465 45.242889 636.692444
-1.823072 54.681362 637.928589
3.774426 55.584137 633.370544
13.635187 58.307121 636.062500
27.806908 55.443100 632.095154
33.425869 54.608982 636.431946
9.057000 60.381001 634.000000
12.979769 61.802002 637.153870
14.564400 -51.716602 647.999939
9.257000 -40.731003 648.000000
16.046688 -44.495323 647.115601
21.390089 -43.677910 646.727234
9.292267 -35.278133 647.599976
15.375999 -35.059853 645.828125
23.391436 -34.451565 647.216309
9.874001 -29.006001 648.000000
16.579916 -25.599014 643.804565
25.086542 -25.102385 645.870850
16.255312 -17.098726 641.206909
24.651964 -15.275051 644.631531
-1.234000 -2.468667 648.000000
4.184643 -4.703679 645.642700
10.971001 -7.314000 640.000000
25.495443 -5.505695 643.372803
31.787560 -4.591611 647.388794
-2.603370 5.658370 647.074097
3.327141 4.535089 643.578735
26.820265 3.502422 641.500061
34.034309 5.434254 646.017944
-3.244667 15.727695 645.666687
2.153471 14.662826 641.529419
28.865999 14.432166 640.333313
34.635254 15.502100 644.576111
40.700005 19.115999 647.500061
-11.689500 29.531000 646.000000
-4.785886 25.559525 645.453003
0.243800 22.206598 640.600037
29.257000 20.724001 640.000000
35.151184 24.857746 642.883240
41.701454 25.931004 646.750061
-12.103249 34.345898 645.100037
-5.523639 34.942177 643.671875
36.822002 34.093327 643.750000
41.897007 35.118839 646.916687
-11.716999 45.015068 647.500000
-6.131351 44.823177 643.070190
38.503296 44.892296 641.117615
43.059059 45.648697 646.324341
-12.684962 54.931187 646.703735
-6.845024 54.661720 642.673828
18.667288 58.444862 641.142822
22.006716 59.208435 641.857178
37.182526 56.578159 640.579041
43.756844 54.975292 644.113159
-8.385201 60.917801 647.400085
18.019358 63.064575 642.857178
25.435299 62.999153 643.814941
34.432762 63.028099 644.862000
43.234707 61.710701 644.176514
15.748857 -71.588364 657.714294
23.739948 -71.285675 657.789490
30.080000 -70.187004 658.000000
8.303125 -62.196629 658.000000
14.917547 -64.710434 655.468689
25.148405 -64.615395 657.036987
30.080000 -68.933006 658.000000
6.962000 -53.748447 657.925903
15.033889 -55.713955 653.786804
24.830175 -55.081211 654.843079
30.693428 -53.512646 657.714294
5.999043 -44.714130 656.021790
12.528155 -47.645309 653.000061
26.183712 -45.549278 653.215698
32.304379 -44.402473 657.095215
-1.253000 -32.586601 658.000000
4.036925 -34.881039 655.333191
28.019114 -36.287479 651.074097
34.457317 -34.566982 656.091064
40.107002 -30.706499 658.000000
-3.276847 -24.044233 657.692444
3.228781 -25.858000 656.439026
29.713999 -29.094999 650.000000
35.136982 -25.184015 652.745850
41.645813 -24.424191 657.562500
-3.205266 -16.104836 655.366638
1.849069 -16.111828 653.930969
29.714003 -16.095144 650.000061
35.414803 -15.531687 652.265747
42.404633 -14.355315 656.789490
-11.280001 -1.253000 658.000000
-5.171879 -5.215259 652.099976
36.688560 -5.961282 651.434875
42.776485 -5.084704 655.481384
-11.521722 4.364722 655.944397
-7.199071 4.766856 652.904785
38.725410 3.280294 650.882385
43.394478 5.267725 655.049988
-13.738575 15.958000 657.174988
-8.178550 15.915504 655.549744
39.631199 13.624001 650.200012
45.067204 14.986198 654.800110
50.916622 15.040000 658.000000
-14.136486 23.604609 656.454468
-9.255819 23.697817 651.818237
46.314472 24.708807 654.138855
50.995201 23.177902 657.800049
-14.694700 38.716702 653.599976
46.233463 35.132229 652.576843
50.499672 30.466999 657.333374
-20.807365 45.592369 656.636414
-16.443724 45.636230 653.325623
46.852749 42.979321 650.500000
-22.725321 56.071728 656.136353
-17.521893 55.174320 651.918945
-22.729002 61.029148 657.714294
-14.998606 62.770763 653.928528
-8.873715 63.721001 652.285767
17.811695 -104.994980 667.956360
23.204950 -103.664780 667.952271
8.155400 -91.238800 669.000061
15.128953 -94.271584 667.159241
24.831881 -94.803131 664.844910
31.146864 -94.544258 668.333313
6.206201 -84.905762 667.285828
14.434068 -84.971214 662.051575
25.541210 -85.741959 662.651306
32.858654 -84.422569 667.437561
-1.274000 -71.997002 669.000000
5.350735 -74.733521 665.918457
13.563655 -76.210419 660.658508
25.376364 -75.640030 660.611145
34.011181 -74.800117 664.653137
40.777000 -70.723000 669.000000
-1.270000 -65.429504 666.999939
3.853625 -65.490959 664.160706
10.057000 -69.142998 660.000000
34.839691 -65.025764 663.587341
41.443855 -64.346939 668.000000
-2.847619 -53.693054 667.380920
2.520109 -55.490517 662.892029
35.764565 -55.162891 662.420044
43.076893 -55.080524 667.184326
-4.313219 -45.140373 666.695801
0.814647 -45.438942 661.529480
36.908401 -45.009232 661.600037
43.023239 -44.569939 665.889099
-4.722119 -34.833042 662.643005
0.000000 -37.714001 660.000000
38.514374 -36.942879 660.250061
45.140976 -34.972820 665.274109
50.971001 -35.680000 669.000061
-13.991071 -23.499882 667.659302
-6.949500 -25.685270 662.807678
3.143000 -26.400000 660.000000
46.672264 -24.871235 664.690430
51.291092 -25.701820 668.636414
-15.179324 -16.518499 667.147217
-8.879999 -18.394501 666.000000
47.068317 -14.787686 662.685730
51.904289 -13.646900 666.249939
-22.268499 -1.272000 668.000061
-14.834250 -1.576375 662.499939
47.632793 -5.363709 662.416687
52.583401 -7.110333 666.800049
-21.726440 3.942800 664.639954
-16.178068 4.319905 661.714355
48.015194 3.711750 660.750061
52.308395 5.215436 662.739014
-21.332811 15.665563 661.187500
-16.351456 12.347864 660.318176
-8.381000 14.667000 660.000000
-24.546434 24.802818 663.935425
-17.087790 26.359631 660.631592
49.028999 26.400000 660.000000
51.291595 23.886002 660.000000
-30.837814 35.803547 666.999939
-24.636044 34.730984 663.046814
-17.038897 33.904240 660.103333
-32.139168 46.302708 666.000061
-25.470388 44.477772 662.096191
-18.228500 40.229000 660.000000
-32.667442 54.836697 665.250183
-26.676533 53.978329 661.323486
-32.227646 62.637859 667.214355
-25.142271 63.487656 662.500000
4.507678 -105.151764 676.935669
12.955916 -105.076126 672.694336
27.067461 -106.007736 671.769348
35.016293 -104.863098 674.259216
41.434589 -104.306938 678.529358
-1.286667 -95.438499 675.500061
4.203424 -95.127769 672.077026
12.506799 -97.756142 670.000061
36.309223 -95.159103 672.688843
42.452152 -94.966942 677.399963
-3.044160 -84.355927 676.359985
1.719193 -85.099709 671.846191
37.835415 -85.633942 671.344788
44.082134 -84.549843 676.512817
-10.864201 -72.168007 679.000000
-4.988174 -74.981529 675.652222
0.893400 -77.407303 670.600037
39.066334 -76.996223 671.222229
44.961216 -75.088806 675.459961
-11.782917 -64.396790 677.833252
-5.845617 -64.856033 673.233948
46.227402 -65.183540 673.078979
51.449318 -64.924210 678.842041
-13.253706 -54.253986 675.804810
-6.482834 -56.018261 671.433350
47.947239 -54.727585 672.823486
50.870998 -59.062004 679.000061
-21.069202 -43.172600 678.600037
-14.694934 -45.027451 674.035095
-8.677800 -45.049404 670.000000
47.571529 -45.319386 671.523804
52.319565 -45.192436 677.086975
-21.714664 -34.687782 677.222229
-14.943836 -35.610882 674.150024
-8.792251 -36.283875 671.375000
51.124001 -39.620998 671.000000
-23.086395 -24.796970 676.333252
-16.114698 -27.808601 671.250000
52.971252 -23.044250 672.125000
-32.294003 -10.979834 678.166626
-24.417049 -14.801427 677.225037
-19.143000 -16.590500 670.000000
52.402000 -19.171000 671.000000
-33.032467 -4.889607 678.178345
-28.766203 -7.222100 677.200012
54.875999 -5.105000 670.000000
-32.676289 0.553572 678.428528
-40.959999 49.920002 672.000000
-38.344334 49.845665 671.000000
-42.644341 56.431061 675.000000
-38.096458 55.388168 672.291687
-43.551781 63.603447 676.851868
-36.002262 65.142021 671.547791
-25.436348 67.878700 671.100098
-31.666752 70.694496 671.750000
-24.351082 72.224579 674.307617
-10.476500 -102.796249 687.500000
-5.102115 -104.910500 685.173035
0.000000 -106.209999 680.000000
46.519554 -105.426445 683.525024
51.324772 -104.253998 687.000061
-11.707882 -93.804405 687.352966
-6.182391 -95.309631 685.683044
47.091881 -95.193390 682.562500
51.991550 -94.042496 685.222229
-20.997999 -83.992332 689.000000
-14.866596 -84.701347 686.074158
-7.505391 -84.710747 681.434753
48.550858 -86.262657 681.000061
52.404766 -84.628441 684.359985
-20.997999 -72.181000 689.000000
-15.460129 -75.308006 684.236389
-9.067000 -77.714340 680.000000
49.219002 -79.010002 680.000000
52.638863 -75.381851 682.321411
-22.332092 -63.627476 687.714355
-16.807915 -65.611519 683.057251
55.535267 -64.207573 682.158081
-23.699722 -54.466759 685.805664
-18.062685 -56.253326 681.727234
54.548401 -59.479603 681.800049
-30.588223 -43.698891 688.222290
-25.520569 -45.253521 683.847900
-33.293674 -33.846416 686.774048
-26.691265 -34.997143 683.470581
-33.731701 -25.338970 684.147156
-27.951967 -25.729860 681.392944
-41.195717 -12.732429 688.142883
-34.957077 -14.738524 683.350037
-28.495005 -16.380999 680.000000
-37.062817 -7.789546 681.636414
-53.448505 57.142006 685.083313
-48.341751 58.596245 683.625061
-53.632996 64.126190 683.593811
-48.221672 64.553009 680.533386
-21.271999 -101.043999 698.000000
-21.681667 -94.394440 696.888916
-16.377533 -95.410683 692.390320
56.669624 -92.083626 691.875061
60.807999 -92.532997 694.000000
-30.579000 -81.100998 698.000000
-24.859226 -84.170921 693.975159
-19.733334 -88.143005 690.666687
56.785427 -87.200432 692.142883
-31.942907 -73.769287 696.091003
-25.461006 -75.152687 692.708435
-33.458302 -64.332825 695.583435
-26.462517 -65.695251 691.454651
-33.623734 -54.993492 693.622375
-28.114923 -56.331772 690.230774
-34.734795 -45.003170 692.789612
-43.748672 -35.721432 697.680054
-37.255524 -36.709042 693.814880
-45.783226 -11.632786 695.142883
-51.814323 -4.651500 697.500061
-45.500607 -6.212447 696.579163
-39.657001 -6.610000 694.000000
-53.780807 5.022833 695.687439
-48.525692 5.399769 695.769226
-53.803364 12.775081 695.680054
-48.933666 11.901999 694.333313
-53.215778 52.483665 690.777771
-33.426605 -93.425186 706.826111
-26.143345 -95.318741 702.390320
-34.724445 -84.725746 704.044495
-28.017570 -88.625862 700.428589
-40.906670 -73.946671 708.000122
-36.767097 -75.779343 704.862183
-43.212006 -61.796082 705.250122
-38.883999 -65.055000 704.000000
-44.275238 -54.626064 704.739014
-38.689751 -55.809582 700.416565
-51.245998 -43.828499 708.000061
-45.433834 -45.333008 703.642944
-39.436573 -45.343433 700.142944
-51.624695 -33.882401 705.800049
-46.416405 -34.206268 700.666687
-53.608982 -24.124569 704.540710
-46.156799 -25.494043 701.908936
-60.171574 -14.706714 702.000000
-54.778965 -14.696532 701.408142
-48.263386 -16.225307 700.846252
-61.817207 -4.953211 706.315796
-56.462425 -5.743515 703.032227
-44.407433 -2.667715 700.428528
-40.000000 -4.666500 700.000000
-70.799995 9.440001 708.000000
-63.630692 5.273932 704.977600
-58.313377 2.343250 703.750000
-70.575340 12.362000 708.000061
-64.669617 14.331093 704.250061
-58.120544 15.532635 700.727234
-43.167500 -92.092072 717.785645
-36.670902 -95.981148 711.700134
-50.979248 -81.772751 718.500000
-44.651718 -84.432281 714.681824
-38.786663 -88.848335 710.333374
-52.555458 -75.032150 717.666626
-45.802231 -75.107903 713.615295
-52.619133 -65.121407 716.233398
-45.392799 -66.246994 712.257202
-39.273998 -65.006004 711.000000
-60.258999 -50.671997 719.000000
-53.891014 -54.564098 714.799805
-48.686001 -57.476254 710.000000
-60.817078 -45.103424 717.500000
-55.712914 -44.839375 713.324280
-62.912682 -33.774994 715.863525
-56.408421 -35.706379 712.864807
-71.596085 -24.700750 717.083313
-65.722961 -26.596334 714.833435
-58.200939 -27.367126 711.625000
-71.016998 -19.120001 717.000000
-69.651001 -19.120001 717.000000
-73.534515 -4.190519 715.851929
-67.452080 -5.002840 713.359863
-74.424004 4.608243 716.422241
-68.182587 2.602250 712.333313
-74.935425 15.445325 712.949768
-81.772255 22.021999 717.000000
-74.583145 24.401199 715.088867
-69.593002 25.392000 716.399963
-75.460136 32.780869 714.652039
-82.592918 47.239628 718.076904
-82.754578 51.596287 715.571472
-91.073509 68.476334 719.000000
-86.338043 66.706505 717.409058
-91.269226 74.541138 719.000000
-86.670662 74.545341 716.538391
-54.533554 -85.832077 725.000061
-49.114250 -88.268005 721.250000
-62.006622 -73.533920 728.384705
-57.650829 -75.169319 722.086975
-63.657135 -64.344719 726.968811
-57.651958 -64.833221 721.409119
-64.210197 -55.521343 725.871826
-58.497868 -56.783371 720.500122
-71.757095 -41.972088 725.727234
-65.773613 -44.605972 722.920959
-72.950798 -35.437588 727.166626
-67.403412 -35.180229 722.863831
-81.675499 8.235000 720.666748
-79.461502 5.263166 721.333374
-87.085510 23.314335 720.000000
-93.382706 47.588585 728.529480
-88.021935 47.508076 723.769287
-93.613785 55.908325 727.321472
-88.324623 54.391106 723.888916
-93.963722 64.253342 723.093872
-88.191750 62.623745 720.625000
-96.166191 75.765480 724.516113
-101.365997 82.620003 729.000000
-95.687271 82.933174 725.666626
-88.457001 80.914001 720.000000
-64.569260 -84.722740 735.028564
-59.580887 -84.497223 731.222229
-71.793793 -73.479401 737.600037
-66.174332 -75.566673 732.400208
-74.217812 -64.496407 735.121277
-68.172470 -66.861885 731.294128
-80.234001 -54.193329 739.000000
-74.739235 -54.823299 734.613708
-69.378609 -54.749096 731.399963
-80.883842 -45.368698 739.000061
-75.761932 -45.656704 735.677246
-69.714005 -48.102997 732.000000
-90.088005 -31.671501 739.000000
-83.434906 -34.524204 738.000000
-77.421936 -34.886738 734.533447
-92.033623 -24.409153 737.230835
-87.665970 -25.562498 736.821289
-92.297119 -15.629210 738.894836
-88.294006 -16.500813 737.249878
-95.014000 -1.408000 739.000000
-96.116714 5.116179 737.428528
-99.237000 14.780000 739.000000
-105.571503 28.328245 739.000061
-96.724838 28.280668 733.250000
-103.761803 35.793793 739.000061
-95.825859 34.783741 732.615784
-103.579895 45.633789 737.586304
-97.135925 44.004559 733.960022
-103.266975 55.337128 735.806335
-98.064568 54.169941 731.562561
-104.561989 65.023430 735.000000
-98.337006 67.008377 731.000000
-111.423393 77.094803 738.600098
-105.238113 74.844780 733.679932
-111.626999 83.055771 737.666687
-105.162483 83.400215 732.200073
-81.210999 -81.210999 748.000000
-74.680687 -84.773529 744.930176
-68.896599 -87.250198 741.200012
-81.149292 -75.454147 747.428650
-76.216537 -75.647240 742.914368
-83.658630 -63.877815 745.846069
-78.779633 -66.420502 741.875000
-85.024727 -55.458057 744.944519
-92.248718 -42.263142 746.714355
-86.238693 -45.188087 743.194458
-92.492119 -36.125290 746.352905
-87.690231 -37.008232 740.692322
-95.848000 -21.143000 740.000000
-101.870499 -11.398000 748.000000
-96.575302 -14.686782 742.260742
-103.472084 -5.006931 746.965271
-96.266083 -6.245457 745.400085
-103.119202 4.799914 742.171326
-96.988991 5.472000 742.000061
-103.028175 13.231064 740.937500
-94.733398 12.848501 741.249939
-105.885605 27.669800 741.200073
-111.089577 36.637836 742.166687
-105.817276 34.833275 740.723938
-112.797615 45.949669 744.083374
-107.859863 43.914940 740.533325
-113.861122 55.563194 744.973694
-107.857910 53.752666 741.000061
-121.105011 66.251503 748.000061
-115.433067 65.147705 743.547729
-109.943001 62.724003 740.000000
-121.526001 79.276337 747.666687
-115.952950 74.768822 744.054077
-122.017334 84.756195 746.599976
-116.710327 83.637222 743.090820
-90.960007 -83.741005 758.000000
-85.562256 -85.053337 755.225037
-91.834404 -74.238129 757.266785
-86.186218 -74.978683 752.906250
-92.773964 -64.319511 755.333252
-86.325142 -67.934212 750.857178
-100.667000 -50.333000 755.000000
-95.029541 -54.638542 754.324402
-90.000000 -54.285801 750.000000
-101.235001 -45.155430 757.714233
-95.960381 -45.579498 752.937378
-102.248688 -33.728889 756.052551
-96.919174 -34.424198 751.799988
-103.923103 -24.383503 755.588196
-97.524475 -25.751293 753.588257
-105.410805 -15.076828 752.742859
-100.000008 -18.571335 750.000000
-111.291222 -6.070888 754.444397
-107.666817 -6.313333 750.333313
-112.179886 4.220534 754.400024
-108.888206 3.302500 752.200012
-123.445999 28.875999 758.000000
-122.693520 34.642574 757.809631
-118.508789 36.274929 757.428711
-122.597252 45.041836 757.684326
-118.221840 43.986889 755.888977
-123.751854 55.014206 755.433411
-118.979286 54.285721 750.000061
-125.682678 64.632439 754.062500
-120.000000 60.000000 750.000000
-125.999542 74.768051 754.875000
-131.386993 83.019005 758.000000
-127.122955 83.307884 753.421021
-101.555649 -74.209541 766.636414
-96.416283 -75.575523 761.840027
-101.842384 -65.566841 764.947388
-97.541878 -65.961731 760.533386
-102.429543 -55.777218 763.944519
-99.886002 -53.562000 760.000000
-111.704208 -42.108799 767.599976
-105.689514 -43.996849 764.077026
-112.341309 -34.821106 766.450134
-107.084396 -35.551003 762.391357
-113.563522 -24.547466 764.617554
-108.425163 -26.563002 760.666626
-121.417000 -10.971499 768.000000
-115.551422 -14.538187 765.162720
-121.723495 -4.387125 767.625061
-116.905960 -4.874154 764.230896
-121.694000 1.701500 766.666626
-116.737503 3.843100 762.250122
-132.075012 26.331285 768.000061
-125.750839 26.554388 765.166748
-132.522675 35.567375 766.125061
-127.375824 34.626724 761.863647
-118.704994 31.123999 760.000000
-134.064346 45.750282 765.531250
-127.274406 44.693478 761.174011
-133.463898 54.981369 765.592529
-128.199005 53.306396 760.499939
-140.433990 68.022507 768.000000
-134.709900 65.335938 764.526245
-140.381744 74.576576 767.714355
-135.186722 75.290237 763.114258
-141.728165 85.487228 767.692444
-135.606827 85.227028 763.323608
-140.860657 91.145340 767.666687
-134.701523 91.012497 764.500000
-129.347000 90.107002 763.000000
-120.189003 -72.706665 779.000000
-114.230316 -73.553009 778.391296
-106.574936 -75.498695 773.000061
-120.189003 -69.738998 779.000000
-114.950294 -64.967560 776.333252
-106.945930 -64.294128 770.956665
-120.485603 -53.417202 779.000000
-114.717369 -54.663765 775.642883
-107.315498 -54.987064 771.125061
-122.870239 -44.792725 776.666870
-115.717293 -45.655334 773.882446
-108.103500 -48.535835 772.166748
-122.554100 -35.404633 776.157898
-117.326042 -35.437870 770.818298
-130.239990 -20.719999 777.000000
-124.147774 -24.636610 774.611145
-118.471870 -25.857624 770.249939
-131.579437 -13.997667 778.111084
-125.518799 -15.186104 771.512939
-131.201340 -5.523273 777.909058
-126.116287 -5.241957 772.217468
-133.346924 5.248818 777.454651
-127.327278 3.349046 773.181763
-133.566223 10.958600 777.400024
-129.904999 10.333000 775.000000
-131.511002 27.133335 770.000000
-129.067001 23.467001 770.000000
-142.526001 36.851997 776.999939
-137.673187 36.430466 772.294128
-143.880051 46.009003 776.699951
-138.468704 43.755505 770.899963
-145.269623 54.365997 775.405457
-138.288620 55.992462 770.461609
-151.348999 68.996994 779.000000
-144.796494 64.982742 773.794128
-138.844345 60.621998 770.000000
-151.843323 74.190445 778.999939
-145.901840 75.074356 774.147156
-153.271439 85.887665 778.714417
-146.766220 84.571510 773.769409
-153.471451 91.705086 778.818115
-145.480316 93.520042 773.799988
-138.965012 94.438339 770.666748
-121.997795 -75.623199 783.000000
-116.527702 -77.494690 781.230774
-123.290565 -64.841309 782.749817
-130.749008 -54.854496 789.000000
-124.919678 -54.919064 782.424255
-132.834885 -42.027752 788.000000
-127.575188 -44.009911 782.090881
-134.202072 -34.782581 786.833435
-127.934502 -35.189201 782.799988
-135.121628 -25.062586 785.499878
-129.037506 -28.042501 781.666687
-141.647797 -14.121100 788.600037
-136.668549 -14.938214 784.142822
-142.555878 -5.388000 788.294128
-136.440430 -5.219417 782.833252
-142.751328 4.988834 786.458252
-137.312347 3.186715 781.142883
-144.118973 14.830873 784.536560
-136.661850 15.435525 780.666504
-151.466690 25.548573 788.999939
-145.346985 24.494398 785.566833
-136.801331 20.817667 780.666687
-152.594193 34.531998 786.818176
-146.878815 34.776806 784.190613
-153.475159 44.897476 784.800232
-147.237549 43.128597 780.799988
-154.345642 56.483566 786.695679
-148.570999 58.686005 780.000000
-160.703995 65.331505 788.500000
-154.838242 64.598030 783.837769
-148.570999 60.913998 780.000000
-161.204193 75.892365 788.272827
-155.947037 74.807167 781.583252
-162.235657 84.916534 787.666687
-156.906952 83.743004 781.222107
-162.540863 92.724998 787.000061
-155.701752 96.061096 780.903320
-147.462662 98.309006 782.000000
-153.264008 100.928757 784.999939
-148.591248 101.431755 786.000000
-133.676315 -64.001793 796.000183
-127.837868 -64.682083 794.928650
-140.473999 -57.397999 793.000000
-134.840546 -55.012894 794.793091
-129.572998 -58.759998 791.000000
-142.177994 -42.545143 797.714294
-135.860687 -45.225189 794.954590
-143.828430 -34.362804 797.066956
-138.412003 -35.453247 792.000061
-150.479996 -22.040001 798.000000
-145.139679 -25.184565 795.250122
-151.651825 -15.191335 797.500000
-146.582626 -15.124609 793.928772
-152.207779 -4.698801 795.900024
-147.771576 -5.164894 792.473755
-152.419632 4.550571 796.214355
-147.987930 3.852611 791.889038
-153.412552 16.438200 795.450073
-149.160004 19.587000 791.000000
-156.264496 24.372721 794.333374
-156.138489 30.171499 792.000000
-162.740891 47.194942 796.294128
-158.666672 47.337666 793.333435
-163.825012 54.721390 795.500061
-158.032547 53.905224 790.999939
-171.326080 67.286552 797.909058
-165.595001 65.109299 794.964417
-172.194702 73.862991 797.899902
-166.217987 75.141891 792.310364
-172.872131 85.764412 797.353027
-167.335159 84.760597 791.800171
-173.950607 94.948959 795.033508
-166.817291 95.743538 792.703857
-173.822021 100.953003 797.000061
-166.770874 102.146584 797.000061
-128.762009 -71.619003 800.000061
-141.944153 -65.433006 804.615295
-137.597015 -66.763893 800.666748
-144.498688 -53.505508 805.111145
-139.221207 -53.548801 803.199951
-152.974472 -43.730164 807.789246
-145.562912 -46.011276 803.039978
-138.667007 -48.000000 800.000000
-153.377945 -35.428036 805.565125
-148.341019 -35.980900 800.400085
-153.243362 -24.838125 802.500061
-161.907791 -12.620001 808.000000
-156.411865 -15.282705 802.416565
-162.112991 -5.386501 807.999939
-157.337723 -5.642632 803.999939
-162.844833 5.333476 805.809387
-157.309875 4.581191 801.809509
-170.834000 16.160000 808.000000
-164.755600 15.230851 805.846252
-157.162613 13.528399 801.066772
-165.778427 22.529877 805.374878
-160.000000 22.094999 800.000000
-173.160278 46.220142 805.000000
-167.135025 45.076290 800.285889
-160.000000 42.667000 800.000000
-180.069000 58.483997 808.000000
-174.941330 56.081795 806.322632
-168.812698 54.898407 800.600037
-181.608002 69.256996 808.000000
-175.874725 64.247887 802.370361
-169.143005 60.952000 800.000000
-181.300186 75.720810 808.000000
-176.866043 75.042816 804.761719
-183.141922 85.117828 806.079956
-177.322083 84.569008 802.117676
-184.669647 94.782379 805.729736
-178.508484 90.779495 801.000000
-182.996338 101.749832 807.333435
-174.690506 102.605499 801.000000
-164.151443 -55.162521 818.523926
-155.399750 -54.734531 814.733459
-148.863754 -56.844749 812.000061
-162.314423 -44.708801 817.800049
-156.861542 -45.855503 810.550171
-163.142441 -34.326668 816.733459
-158.453598 -34.128799 810.799988
-163.482040 -24.533390 816.043579
-158.277237 -26.551418 812.000061
-170.039993 -16.380001 819.000000
-165.754532 -15.120667 814.208374
-172.546936 -4.559072 817.142883
-166.977722 -5.459474 812.473755
-172.941605 4.783720 815.599976
-167.593872 3.533786 812.000122
-180.665344 17.130667 817.666687
-175.012955 15.248420 813.473755
-169.714005 10.800000 810.000000
-182.960052 22.627249 815.750000
-175.101959 23.191320 813.799866
-183.300003 39.000000 819.000000
-183.762543 45.082474 816.199951
-178.650452 46.466000 813.222229
-183.372849 53.565372 813.687439
-177.825607 51.556404 810.400024
-184.859863 67.036438 812.562561
-190.802597 76.011597 814.400024
-186.616776 74.903305 812.608826
-190.943008 80.723999 815.000000
-187.380341 81.300003 812.999939
-191.313995 96.428497 810.000000
-187.457504 100.286003 810.000000
-165.294693 -53.482403 821.000061
-172.582397 -43.065903 828.200012
-166.695541 -44.411587 822.411804
-173.289520 -34.694645 827.941223
-167.755478 -35.910263 822.066711
-174.616486 -24.402277 827.414001
-168.445755 -25.704082 822.000000
-180.011017 -14.843001 829.000000
-174.994675 -15.082078 824.680054
-181.395554 -5.084889 828.111084
-177.073471 -5.940072 823.714294
-183.058746 5.097760 826.199951
-177.848328 4.378601 821.200012
-184.083847 14.564953 823.666626
-178.274017 12.823001 821.000061
-185.521820 26.324501 824.833374
-184.749008 30.001999 829.000000
-189.220993 45.350334 821.000000
-181.038284 -53.913097 837.399963
-177.114761 -55.284832 837.705811
-182.586914 -45.502544 838.181702
-176.122971 -46.612057 835.235229
-183.971069 -34.758862 837.344788
-177.805740 -34.673801 832.466797
-191.771332 -25.836002 838.999939
-184.116592 -24.128557 835.559937
-178.863007 -27.699999 831.000000
-192.804932 -14.472468 837.933228
-185.795288 -15.002300 834.866638
-191.610504 -6.616750 833.666748
-186.371826 -6.000435 832.565247
-191.526001 5.065001 831.000000
-188.656799 4.253938 831.000061
-191.526001 11.080000 831.000000
-189.151489 11.871500 831.000000
-187.186325 -41.180668 842.333313
-191.161011 -30.969999 841.000000
-187.423004 -36.844002 841.000000
-192.598328 -23.782230 840.999878
-188.473999 -27.565403 841.400085
-193.830338 -19.223001 841.000000
