223.309113 26.951113 757.999939
244.003754 28.875999 758.000000
224.512009 30.320000 758.000000
239.094833 37.827801 758.000000
242.559906 34.651333 758.000000
259.164001 38.261002 758.000000
262.856537 37.607632 756.727356
237.035843 43.000347 758.000061
243.498367 44.108307 758.000122
256.775848 46.868549 758.000000
264.386902 43.399185 758.000061
271.436005 45.480000 758.000000
239.672012 50.533001 758.000000
244.004013 54.576199 758.000000
258.365997 54.104794 758.000122
265.570770 54.894787 757.999756
272.398682 58.233498 758.000000
259.885986 65.693253 758.000000
265.943451 65.034180 757.999756
274.741760 65.351364 757.999817
281.703217 66.094223 757.999939
253.792160 74.819298 756.428528
268.458344 73.363495 758.000061
275.107574 74.253036 757.999817
282.866272 73.513878 758.000061
288.039978 108.285995 758.000000
227.462402 25.039280 760.888855
233.790375 26.492575 760.678650
242.476486 28.952002 760.000000
228.030212 33.154503 760.100037
234.419846 34.491081 760.000061
245.570663 34.491116 760.088379
253.977325 35.790695 760.878845
264.366516 37.663498 760.499939
271.403015 39.291500 764.000000
236.763748 45.614498 760.250000
246.819016 45.237999 760.000183
254.546280 44.171894 760.000183
265.540466 45.945103 760.133484
274.097321 46.441292 761.952576
247.095688 54.487686 760.759949
253.739090 55.412899 760.162292
276.154877 54.481194 760.500061
283.718872 56.486622 761.153931
290.666992 59.587002 763.000000
248.738510 64.251915 765.166687
254.883499 65.308708 761.926086
261.295013 64.177994 760.000000
278.666504 61.523994 760.000000
285.904449 65.039352 760.538513
292.152710 66.709358 761.363708
255.380325 71.990829 761.294189
264.473511 75.616318 761.750061
274.866638 79.437996 760.000000
286.420593 76.623657 760.318298
294.817719 76.228447 763.052979
301.673401 77.418999 764.500000
268.148682 83.400314 766.150146
275.294800 85.267944 761.820129
284.968811 85.461639 760.749939
294.934387 84.930222 762.200073
303.273590 85.382607 762.071472
268.647980 92.750267 765.833374
275.186951 94.633522 763.627502
284.869141 95.201218 761.815796
294.777374 94.317703 763.355652
304.859131 94.686119 764.499756
312.221191 97.349510 765.666748
277.490326 102.407494 766.000122
285.398285 104.447205 763.862610
295.150024 104.320091 761.155518
304.778412 104.642548 763.300110
314.452484 105.369041 765.181519
320.571014 107.828667 765.000061
286.795807 115.348633 765.318970
295.132446 114.622490 762.425049
304.648651 115.204430 764.288635
315.014191 115.126762 766.106262
321.825775 116.375000 766.687439
286.321075 124.199692 766.599976
295.595123 125.160469 766.794922
304.887207 125.235733 764.518555
315.494598 125.412971 765.613525
322.964111 124.947708 767.222290
289.645996 130.194000 768.000000
295.672546 134.439545 766.652100
304.559692 135.282089 764.574402
314.709320 135.499374 764.918091
322.891144 134.417145 767.047668
298.212006 143.630325 766.833313
304.835754 145.128052 765.738098
314.723938 144.978226 764.952209
322.057739 143.852798 767.500122
305.727936 155.055450 767.000000
314.973297 154.928650 767.333374
320.548889 155.611374 768.000061
299.885986 166.765793 768.000061
305.263458 165.049728 766.816284
314.865173 165.103073 767.071594
321.097504 165.302872 768.000000
279.040009 173.673508 763.000000
280.492981 173.673508 763.000000
299.148895 173.704224 767.777832
304.978424 175.199051 767.404724
313.585510 174.431503 767.787781
320.365997 171.154007 768.000000
306.433655 185.504364 767.999939
312.641846 185.607407 767.999878
305.478851 191.978256 767.999939
312.685760 191.268250 768.000061
247.867020 64.533340 770.000000
264.908783 86.280754 773.325134
266.104797 93.750359 774.105225
271.213287 98.334862 773.857178
268.570007 100.899002 779.000000
273.935089 105.351189 773.000061
281.233246 108.166504 770.000000
274.709717 114.785912 772.000305
281.600006 114.400002 770.000244
268.570007 127.607674 779.000000
275.310059 125.117424 776.068115
282.476868 126.257317 772.772705
275.603302 134.164093 777.739197
285.286652 135.051483 773.749939
291.929504 137.163498 770.166748
327.800018 137.866669 770.000000
331.592499 138.960007 772.000000
278.648010 141.866302 778.142883
285.772736 144.232742 774.800049
294.434387 145.556305 771.473511
300.666992 149.600006 770.000000
327.006226 145.733871 770.960083
332.007080 145.847870 772.058899
285.903595 154.713013 772.000061
295.364014 155.059998 773.075500
301.342102 154.738449 770.363647
325.926331 155.229965 770.875061
332.317383 154.521545 772.176575
286.778717 164.348068 773.679871
294.999878 164.922714 772.708984
300.666992 162.066483 770.000000
326.773956 164.768387 770.769348
332.047058 165.006546 772.923096
287.069427 175.359070 772.880066
294.635559 174.907883 772.040039
300.666992 178.932999 770.000000
317.826599 177.760010 770.000000
325.373047 174.974762 770.615417
333.126282 174.667618 773.849915
288.539398 184.748016 775.923096
295.178314 185.277145 773.645752
302.734131 184.748383 770.961670
317.800018 183.733337 770.000244
324.972198 185.001633 771.885681
333.282471 184.920868 776.091187
296.805695 194.441696 774.564087
304.494202 196.577271 770.697266
315.833862 196.123993 770.588257
324.924194 195.348511 772.771423
331.710510 195.034348 775.714233
295.953186 205.389191 773.727173
305.142700 205.376968 770.705994
315.094727 205.601395 770.636536
324.894501 204.682281 773.399902
331.967194 204.813080 775.800049
295.145966 214.434052 773.347229
305.159973 215.599945 772.750061
314.451843 215.284500 771.170532
324.066406 214.525238 773.333252
331.244110 214.300690 777.153931
289.342987 229.990005 779.000000
295.208893 225.830566 775.640015
304.673065 224.950974 773.392029
314.305359 224.778549 772.618896
325.537720 225.645538 777.702637
330.890015 223.313248 779.000000
287.855164 236.097504 775.363708
294.668610 235.216583 773.654541
304.659729 235.498215 772.212585
314.687988 235.229843 773.853699
325.003021 235.071976 778.222229
275.279999 248.639999 777.000061
286.812256 245.618820 776.629578
294.170044 244.981262 773.315979
305.075836 245.147537 774.230774
315.548676 245.048233 775.823608
323.943146 244.747086 778.739197
275.889435 254.629944 778.000000
284.899994 254.559967 777.000244
294.464417 255.043594 776.581604
304.623840 254.740723 777.545532
314.333771 254.832870 778.420776
322.172150 251.691406 778.999939
276.570099 264.544617 778.257141
285.075134 264.470856 777.052856
294.519989 264.920074 777.000244
304.544708 264.749176 778.555542
311.105347 262.139343 779.000000
275.430237 276.196320 777.608582
284.765045 275.428314 777.877136
295.010651 275.918091 777.769226
304.345978 275.406128 778.379395
271.622192 103.595665 780.666687
272.284698 118.968994 784.000061
268.436340 125.635506 783.666748
271.697815 122.970497 781.599915
268.914001 130.742996 780.000000
272.085205 137.534012 781.999939
275.669189 144.905609 783.611328
283.753937 148.358002 782.000000
277.720001 151.210999 786.000000
282.178986 151.595993 788.000000
285.646698 195.913544 788.631409
291.564392 193.683411 785.799988
286.745392 203.487000 789.000000
291.937714 207.360687 785.466736
288.927307 213.316116 788.666687
291.622375 214.267181 786.631531
331.313995 228.056992 780.000000
288.703674 235.342667 785.333313
291.085999 233.431976 788.750000
331.313995 230.285995 780.000000
273.371002 249.599991 780.000000
286.535492 248.481003 783.500000
326.856995 246.628998 780.000000
268.782166 258.063202 785.416748
270.554016 255.660110 781.888794
285.181000 250.658997 788.000000
318.933685 258.019012 780.000000
325.213348 256.545868 781.478027
330.027008 257.600006 784.000000
268.207794 264.571411 785.130371
271.430328 264.611115 780.705811
309.029022 268.914001 780.000000
315.333282 265.319489 781.285645
324.687653 264.828949 783.941162
330.869019 263.497009 786.000000
272.230225 274.220764 782.250122
306.715607 275.160431 780.117493
315.132721 274.207794 782.400146
324.862000 275.159790 785.128296
332.066071 273.655914 786.277954
289.279999 188.333008 791.000000
291.540039 189.839996 791.000000
289.279999 192.853333 791.000061
292.952545 196.149124 791.000061
287.315979 204.998795 793.041809
292.521637 202.979004 791.615479
286.446655 216.016724 794.125000
293.046783 219.972992 791.000000
285.702393 225.032074 793.999939
292.913422 225.580704 792.000244
286.750702 234.863098 793.705933
292.439636 230.636597 791.399963
286.650421 245.090103 793.897522
265.043213 256.041656 793.999878
272.908691 254.476517 795.250122
284.825806 251.943466 794.636414
259.594025 262.630341 797.000061
263.626587 265.022522 792.684265
262.894226 273.040771 792.680115
326.946991 273.459961 791.000000
334.739990 273.256989 797.000000
286.475983 208.762009 800.000000
284.629120 214.389389 805.133301
283.831818 225.174820 802.000061
284.044525 236.418472 803.529419
277.798492 249.326004 808.000000
282.992737 245.415512 804.758545
258.559998 258.559998 808.000000
263.349213 256.896423 803.333374
275.561859 252.409729 804.076782
282.093994 252.701279 803.733337
258.946655 266.866638 804.833435
260.573730 263.501129 804.333374
287.729858 208.141266 813.154053
291.489990 207.763992 814.000000
283.979156 211.887665 811.000000
283.568329 238.549332 815.000000
279.343018 249.166504 812.500000
282.196686 243.742828 812.916687
265.051422 259.132843 816.600037
275.091675 254.075699 817.500122
258.049561 266.570557 812.643005
268.320007 260.520020 819.000000
268.253265 249.372498 826.000061
275.484253 246.429092 828.241516
282.885895 246.252716 826.789429
267.416687 255.846344 822.619019
274.213898 253.097183 823.142639
281.284210 251.112198 825.000000
267.410980 261.156006 821.000000
284.122498 239.011002 831.000000
278.582977 243.760010 831.000000
283.258606 242.293365 831.400085
255.532257 267.567200 831.700134
263.207397 266.645050 834.111206
