-196.300995 278.453003 908.000000
-201.410889 284.585114 908.000000
-195.320938 284.967621 908.000366
-201.410889 294.490875 908.000000
-194.750336 295.474670 907.170898
-188.518005 299.207977 908.000000
-203.029480 305.952759 906.090942
-194.903015 305.200439 903.692322
-186.857025 306.082214 907.142822
-196.694061 185.534821 916.999939
-200.866989 194.753342 917.000000
-196.014786 194.915070 916.999878
-200.866989 205.233337 917.000000
-196.537964 205.043472 916.999939
-202.664352 216.016464 916.764587
-195.263016 215.531326 916.354980
-188.639999 217.460007 917.000000
-203.404999 224.575073 915.909180
-194.285416 224.898285 915.294250
-188.639999 224.446655 917.000000
-204.003479 234.955307 915.080078
-195.011703 235.195145 914.333313
-188.057663 235.800034 916.999939
-204.830170 245.079773 915.000000
-194.909836 244.963776 911.947388
-186.625961 245.323914 916.333374
-204.256485 255.250244 914.285767
-195.100845 254.604309 910.468628
-187.059937 254.946533 914.760071
-204.437057 264.787048 912.639954
-195.017441 264.357849 910.083252
-186.054291 265.090363 914.838806
-211.347015 277.720001 917.000000
-205.033600 274.699585 912.200073
-194.898026 274.478363 909.999878
-185.395630 274.878540 913.837830
-179.112900 275.497009 916.999939
-211.347000 282.086487 917.000000
-206.608093 284.678009 913.294067
-191.244690 282.822205 910.000000
-185.321518 285.275452 913.714478
-179.407867 284.207581 917.000000
-206.587372 296.132904 914.142822
-190.667007 296.400024 910.000000
-184.845047 295.109497 911.810791
-176.734024 295.741547 916.230774
-207.394058 304.061188 913.933289
-182.487671 304.242767 910.999939
-175.698624 305.189178 915.064514
-201.807343 126.790672 926.666687
-194.845490 125.194412 925.733276
-187.607101 125.218483 927.000000
-203.137756 135.246292 925.750061
-194.653992 134.759781 924.833191
-187.386368 135.187485 927.000000
-204.035400 145.344330 923.965698
-194.196655 144.991028 922.666870
-186.425507 145.135681 926.400024
-210.120010 154.676605 927.000000
-204.254929 154.782471 923.416870
-194.617004 155.482132 921.815735
-186.279587 154.876923 926.625000
-210.120010 162.445679 927.000000
-205.293549 164.859818 924.608765
-195.515625 165.474869 920.000000
-186.177429 164.996155 924.387146
-211.003006 176.571335 927.000000
-204.802353 174.935745 922.119995
-195.275940 175.092346 920.129089
-186.208817 175.324936 924.666748
-211.886017 184.517181 927.000000
-205.139450 184.827972 921.321533
-193.443542 183.610535 919.999939
-185.062195 184.837082 923.736755
-211.633743 195.237579 927.000061
-206.261536 194.952042 922.087097
-191.594009 194.903809 919.999939
-184.694870 195.119537 922.877869
-178.337006 197.760010 927.000000
-212.547882 204.160614 927.000000
-206.495789 204.974304 921.909119
-192.284195 205.506561 920.000000
-184.543182 205.150208 923.447388
-176.707077 205.501923 927.000000
-211.809845 214.455490 926.666687
-207.148865 213.537445 921.071533
-191.360397 212.388626 920.000000
-184.823669 214.726654 921.885803
-176.045837 215.028214 926.281189
-211.684113 225.755203 923.799988
-208.533020 225.181015 920.000000
-184.202255 225.130753 920.413940
-175.680481 225.156189 925.531311
-212.151291 235.034500 924.299988
-208.533020 233.066681 920.000000
-183.610977 234.443771 920.250061
-175.520477 234.781219 924.878906
-169.508987 235.722748 927.000000
-211.796295 244.632446 922.461548
-181.872162 243.831314 920.000061
-175.232956 244.690674 924.771423
-169.508987 244.551498 927.000000
-213.061081 255.814667 923.210571
-208.533020 252.342667 920.000000
-182.028641 254.971298 920.000000
-174.875488 255.082672 923.102661
-168.920303 256.028564 926.999939
-213.534470 264.440399 923.500061
-181.371414 264.609619 920.000000
-174.667572 265.116089 921.212402
-167.738983 265.008545 926.375061
-214.529572 274.595245 923.714417
-173.736511 274.612671 921.033508
-167.628616 274.493134 926.375061
-221.144012 286.432343 926.333374
-215.148972 285.762085 923.937500
-180.494995 289.143005 920.000000
-174.075989 285.188751 920.606323
-167.482681 285.182831 926.111084
-221.336716 295.001312 924.909180
-215.139282 295.469543 922.235352
-172.629349 294.082001 920.941162
-166.472443 295.244232 926.083313
-221.279999 302.065002 922.000000
-215.331879 305.053589 921.136414
-171.456406 303.292389 920.400085
-166.560181 304.856628 924.156372
-211.269501 127.474503 936.000000
-205.874390 126.981247 930.750000
-182.978287 126.083984 930.000122
-176.378738 125.838516 934.090942
-212.308243 134.868790 935.777771
-208.544418 134.949005 931.000061
-182.811584 135.425766 930.000122
-175.928818 134.635498 934.000000
-213.505066 145.335876 934.529541
-209.029007 141.714005 930.000000
-181.813080 144.935104 930.000061
-175.186844 144.955078 933.777832
-168.660004 147.242752 936.999939
-214.049713 155.553604 932.571594
-181.571487 155.000000 930.000061
-175.114639 155.115265 932.264526
-168.660004 155.274384 937.000000
-214.627426 165.182297 932.500122
-181.473099 164.349121 930.000000
-174.901291 165.018524 933.437378
-167.037506 165.496109 937.000183
-221.309998 175.798996 937.000000
-215.165970 174.211761 931.217529
-181.128738 174.042862 929.999939
-175.259476 175.012009 933.485657
-168.065063 174.311661 937.000061
-220.995331 187.134674 935.666687
-216.441772 184.935196 931.875122
-180.686005 186.886002 930.000000
-175.268585 185.140289 933.787964
-167.662628 185.615219 937.000122
-216.650223 195.323868 932.800171
-180.686005 191.313995 930.000000
-174.513916 194.615509 932.843689
-165.603287 195.601501 936.750061
-221.685120 205.885574 936.428589
-216.655838 204.953140 930.800110
-172.716965 203.974899 930.454590
-165.038712 205.244598 935.468689
-221.362747 214.232010 936.142822
-216.441772 215.110062 931.875122
-170.942932 214.165604 930.000000
-164.593536 215.015549 934.222107
-158.248993 215.956238 937.000000
-221.309998 221.309998 937.000000
-217.027481 224.434128 933.916748
-170.721497 224.307114 929.999939
-164.255798 224.884689 932.757568
-157.951508 224.880005 937.000000
-221.747665 236.906494 936.333313
-217.698486 234.910049 932.692383
-170.056992 231.171509 930.000000
-164.502228 234.924377 933.117676
-157.282120 235.142334 937.000122
-221.747665 244.339783 936.333252
-217.451736 245.537552 932.272766
-170.056992 245.343002 930.000000
-164.198532 244.972473 931.972229
-156.484543 245.431702 936.619141
-222.476196 256.110718 934.400024
-218.461548 254.507782 930.777771
-163.691132 254.650299 931.433350
-156.945999 255.039185 936.333496
-223.658752 265.897186 933.750122
-218.897858 265.461151 930.000000
-163.000137 264.772980 931.142944
-156.683350 264.831360 935.517212
-224.364319 275.577698 934.052795
-219.066650 274.571411 930.000000
-163.343857 275.490967 930.444519
-156.167847 275.154999 935.483826
-231.126495 280.207977 937.000000
-224.336945 285.090027 933.363647
-219.302811 285.908600 930.000000
-163.137009 284.994965 930.353027
-155.752136 284.813568 934.555481
-226.614685 295.423889 934.333252
-161.908417 294.234344 930.000000
-155.504166 294.913147 933.705872
-148.491989 297.519684 937.000000
-224.932007 305.828125 933.500000
-162.085632 304.464386 929.999939
-155.465637 304.720276 932.823364
-147.677475 305.432037 936.764832
-161.199997 310.000000 930.000000
-215.814667 127.335548 941.555542
-171.035736 126.262245 940.250000
-166.133484 126.018570 945.142761
-221.741791 135.428589 948.000061
-217.111435 134.955948 942.000000
-170.990494 135.181000 939.999939
-164.648010 135.125824 944.891846
-158.300995 135.428543 948.000061
-222.732193 145.642548 947.181824
-218.780014 144.140717 942.571411
-170.095001 142.343002 940.000000
-163.548447 144.856888 942.517212
-157.322754 145.811432 948.000000
-223.090912 155.136398 945.000061
-218.438019 153.980804 940.000000
-163.273849 154.931076 941.275818
-156.230911 155.377426 947.368469
-223.351120 164.994629 945.176514
-162.336029 163.743851 940.999878
-157.181473 164.941879 946.173889
-223.348923 174.242599 943.083435
-163.504700 175.325623 940.199829
-157.015762 174.955292 945.652100
-226.148972 184.092102 945.352905
-163.030365 184.187546 940.571350
-156.046906 185.237946 946.257935
-149.874008 188.697006 948.000000
-223.943390 195.046219 944.066711
-161.143005 194.266495 940.000000
-155.444672 194.986572 943.500000
-148.871124 196.020447 948.000061
-226.420990 203.508423 944.400085
-155.317978 205.302826 941.942932
-148.763168 204.601257 948.000061
-231.130997 217.588501 948.000000
-226.773605 215.301758 943.937500
-153.693665 214.636063 941.000122
-147.502243 215.847382 945.666748
-231.130997 225.714401 948.000061
-224.763382 225.164871 941.590942
-153.232986 224.923477 940.916687
-146.610092 224.869095 944.454529
-226.159088 234.437195 943.555542
-152.580383 235.138702 940.199829
-146.434128 235.305969 944.479919
-233.697418 245.387115 948.000061
-226.653580 245.226685 941.714417
-151.742661 244.847626 939.999939
-145.212555 244.828888 943.966675
-233.004227 254.441315 947.812500
-226.606476 254.635391 942.461609
-152.190308 255.142960 939.999817
-146.145813 255.137360 944.739014
-233.768143 265.179047 946.736816
-228.562225 265.103210 940.400085
-151.295013 264.990387 940.000000
-145.097626 264.863342 944.393982
-233.581024 274.240387 943.749939
-229.181000 273.942810 940.000000
-150.847504 273.942749 940.000000
-144.838348 275.193054 944.828430
-138.136993 276.274414 948.000061
-232.725571 288.651398 947.142944
-226.878738 286.732147 940.000061
-150.399994 284.685822 940.000000
-144.528015 285.260223 943.999878
-138.136993 285.302795 948.000061
-240.160004 295.234039 948.000000
-234.638947 295.221069 946.600098
-229.181000 292.743011 940.000000
-150.400009 291.847687 940.000000
-144.130524 294.364777 941.566711
-136.080444 295.666931 946.699951
-240.160004 308.777008 948.000000
-234.506973 306.064087 945.999878
-229.303009 306.781769 940.500000
-143.070923 304.949890 940.374878
-136.322922 304.889923 945.749939
-240.160004 311.485992 948.000000
-226.502411 127.583176 955.750000
-161.952499 124.857330 950.000000
-154.793503 125.828148 950.500000
-145.155334 126.618546 954.400085
-231.745010 138.681992 958.000000
-226.676392 134.946762 953.549988
-153.495575 134.585358 950.555725
-146.348450 135.425522 955.958313
-232.152664 146.132538 956.333374
-227.044662 144.556000 950.818176
-152.425766 144.442474 949.999878
-145.326462 144.943359 955.035828
-235.039749 155.170593 957.115417
-228.255722 154.414856 952.142883
-151.482864 154.197296 949.999939
-145.535187 155.046249 955.555542
-235.249268 164.502441 955.115234
-228.678757 165.345367 949.999939
-151.999924 165.054596 949.999939
-144.521729 164.800430 955.285645
-138.681992 167.878006 958.000061
-240.869019 177.001999 958.000061
-235.044922 175.034317 953.347839
-228.904999 174.619003 949.999939
-151.638000 174.076157 949.999939
-144.673248 174.774002 953.937500
-137.997620 175.861511 958.000061
-234.768295 184.554276 951.237915
-228.904999 188.190002 950.000000
-150.965729 183.278717 950.000000
-144.351196 184.847534 954.735352
-137.769516 185.213181 958.000122
-235.012085 195.085648 952.749878
-229.206665 194.825562 949.999939
-143.812607 194.428207 952.258057
-137.769501 195.249603 958.000122
-234.953094 205.017365 952.499878
-229.809998 208.999985 950.000000
-143.225601 205.304703 952.296326
-135.568298 206.014008 957.500122
-234.745285 214.023666 953.176392
-142.602554 214.527252 952.636414
-134.962952 215.214386 957.520081
-129.557999 214.409500 958.000000
-234.729538 225.218689 950.687378
-141.596176 225.040405 952.352905
-135.211395 225.334442 957.133423
-129.557999 229.919998 958.000000
-234.923508 235.474167 950.000122
-141.946991 234.836105 949.999939
-135.744278 235.121246 954.878540
-129.557999 235.394394 958.000000
-235.539856 242.174850 950.000000
-141.142990 246.095261 950.000000
-135.346313 245.143478 954.588196
-128.949661 246.342865 958.000061
-237.449783 256.349091 949.999939
-141.821350 255.142746 949.999939
-135.384598 255.038681 953.515076
-128.396713 255.798340 958.000122
-240.667007 265.095001 950.000000
-237.650894 263.385986 949.999939
-141.142990 261.475983 950.000000
-135.148911 264.970947 952.257202
-127.733322 264.590454 958.000183
-133.547073 274.565735 951.600098
-127.183899 274.501801 957.000061
-133.000000 285.000031 950.000183
-126.414268 284.666504 954.954651
-241.571503 298.570984 950.000000
-237.952499 298.570984 950.000000
-130.964371 294.273621 949.999939
-124.904297 294.945709 956.031250
-118.610008 297.436005 958.000061
-241.873108 304.904846 949.999939
-238.254013 302.492035 950.000000
-130.738251 305.809631 949.999939
-124.814499 304.750488 955.029419
-118.610008 302.910675 958.000061
-233.385498 129.048492 961.000000
-140.947006 129.963989 961.000000
-135.073502 128.650208 964.900024
-241.789017 136.583008 969.000061
-235.835526 135.108047 963.315796
-141.633240 134.768753 961.000000
-134.821487 135.312881 964.617676
-129.199997 137.506012 969.000000
-241.539337 145.042007 968.000061
-236.952927 144.345078 963.333435
-140.947006 144.607819 961.000061
-134.860336 144.958817 963.333313
-127.104790 145.657730 968.666626
-240.291000 150.410995 963.000000
-237.961990 150.098999 961.000000
-140.947006 153.759995 961.000061
-134.974197 154.895782 963.199951
-125.645760 155.173355 968.874939
-134.145966 164.463333 961.586426
-126.166313 164.218185 967.304199
-133.298370 174.612930 961.592712
-125.948418 175.489471 966.749939
-132.777008 184.974350 961.500183
-125.479858 184.834885 967.285522
-119.971001 186.417007 969.000061
-132.777008 195.047119 961.500183
-125.104103 194.927765 966.428406
-119.971001 194.722824 969.000000
-132.617294 202.458008 961.285767
-125.571266 205.357254 965.242310
-119.443855 205.665421 969.000000
-125.303421 215.068634 963.068909
-119.233002 214.656509 969.000000
-131.794006 225.149002 961.000000
-125.584053 225.086563 963.437439
-118.699554 226.329010 968.666626
-124.732124 235.056244 962.551758
-116.929169 235.338242 968.279846
-124.081345 244.868988 961.960022
-115.845200 245.520645 967.606995
-123.514565 255.313187 961.608887
-115.291183 254.928589 966.562256
-122.641685 265.419220 961.000244
-114.913223 264.779663 965.352905
-122.184090 274.571167 961.000122
-115.406944 274.835052 965.482605
-121.937698 284.287048 961.000183
-114.918350 285.496338 964.944397
-107.871559 287.110992 969.000000
-120.810997 291.961029 961.000000
-114.078537 294.717285 962.275879
-106.459213 295.316162 968.052490
-114.039742 305.076782 961.677551
-106.091057 304.848602 968.666626
-114.032158 314.822418 962.185364
-105.916946 314.800995 968.759888
-125.540733 128.746277 973.181824
-119.101006 128.406006 977.000000
-75.368492 128.406006 977.000000
-124.809402 135.118530 974.517090
-118.037582 137.178589 977.000122
-75.368492 130.266998 977.000000
-242.537003 140.709000 972.000000
-122.469170 144.595551 972.555603
-116.794945 145.605881 975.889038
-120.651505 154.902847 972.000061
-115.641907 154.623932 974.478210
-121.638893 165.888123 972.000061
-116.311951 164.404755 974.999939
-121.767075 173.749405 972.000061
-115.753075 175.935425 975.159912
-120.343002 182.365509 972.000000
-114.868156 185.294327 973.922974
-109.796005 188.886490 977.000000
-115.208664 195.181808 973.851746
-109.796013 194.779678 977.000000
-114.334534 204.733643 972.384705
-109.288628 206.020004 976.625061
-114.105103 214.808456 972.190491
-108.414909 215.439178 975.750061
-114.405418 224.467346 972.384705
-107.297737 225.457016 975.684204
-112.011505 235.131378 972.000061
-106.233719 235.115341 974.399963
-111.086006 243.463013 972.000000
-105.755211 245.151825 973.517212
-111.086006 253.645981 972.000000
-104.949203 255.429749 974.099915
-104.566536 264.907196 973.843628
-98.630005 266.115997 977.000061
-111.086006 277.714355 972.000000
-104.955658 274.676086 973.124756
-97.669800 275.335327 976.700134
-111.086006 281.417023 972.000000
-103.586388 284.287201 972.999878
-97.579201 284.377350 975.800049
-101.637802 294.990143 972.714294
-97.879456 295.836548 976.272888
-102.137497 304.868652 972.000061
-96.890732 305.459747 974.519775
-101.829010 314.742828 972.000061
-96.546806 314.905121 974.799805
-114.072205 129.036407 981.800049
-105.066597 129.457001 985.000061
-96.043007 128.895508 985.500000
-80.266998 127.866508 980.000000
-78.400002 127.866508 980.000000
-114.284973 134.341522 981.153687
-105.088692 135.117874 985.240173
-97.898598 133.791611 986.499939
-80.266998 130.667007 980.000000
-78.400002 130.667007 980.000000
-111.850891 144.309311 980.749817
-105.190033 144.967682 984.321472
-99.740997 144.906799 988.000061
-110.833122 155.166748 980.000000
-104.730583 155.124146 983.851868
-99.113670 156.197998 988.000061
-111.626617 165.760010 979.999817
-105.002754 165.010086 984.439941
-99.203293 166.414291 988.000061
-111.377663 174.222122 979.999939
-104.857552 175.077362 983.066589
-98.203255 175.266174 986.750000
-110.133003 183.866745 980.000000
-104.722237 185.138870 981.799866
-97.710403 184.605011 985.411682
-110.133003 196.933502 980.000000
-104.878937 195.009842 981.392700
-97.490746 194.869934 985.499878
-104.160240 204.961731 981.439758
-96.737686 204.754593 986.200012
-103.740051 214.961746 981.349915
-96.862770 214.883667 986.217529
-102.314003 224.418259 980.199890
-96.546532 224.973724 984.272705
-101.500114 234.500000 980.000000
-96.533897 235.253937 984.136353
-100.800003 244.533401 980.000000
-94.954376 245.387238 984.206909
-88.449997 248.410995 988.000000
-100.800003 251.066513 980.000000
-94.609947 254.748993 982.757568
-88.450005 254.998032 988.000061
-93.802864 264.834320 982.965393
-88.450005 265.348602 988.000061
-92.737602 274.736755 982.727234
-87.945877 276.062988 987.625000
-93.332794 284.468811 981.110901
-87.043655 285.056213 984.900024
-93.883583 294.925140 980.631409
-87.182358 295.162170 984.826172
-92.089012 304.266663 979.999939
-85.666008 305.381195 983.606079
-78.800003 309.570984 985.000000
-91.467003 315.466614 980.000000
-85.134872 315.032654 982.032043
-77.977997 315.420746 983.499939
-91.549500 128.358002 991.000000
-86.019493 128.552490 992.500000
-93.883499 135.822433 991.749939
-86.263069 133.374329 994.600037
-78.573502 134.427002 994.000000
-94.273621 145.088211 992.110901
-88.532661 145.445328 996.000122
-94.052742 154.538620 990.999878
-87.088104 154.776108 995.235474
-94.132996 164.953430 991.461426
-85.350792 165.018188 995.799866
-79.760010 165.216995 996.999939
-93.076691 175.119400 991.947327
-86.895340 174.129623 995.588196
-79.760002 170.914001 997.000000
-92.529854 185.060120 991.400146
-86.042038 186.173782 995.428467
-79.127007 189.272018 997.000000
-92.529854 194.502151 991.400146
-85.250038 195.132919 994.599976
-78.738503 195.427094 996.099915
-91.767296 204.443710 991.000122
-85.288155 204.700958 995.079895
-78.810501 207.945496 997.000000
-91.549492 215.188614 991.000122
-85.163376 214.805908 993.599915
-78.036995 215.545837 994.400208
-91.549492 224.626587 991.000122
-85.074730 224.980652 992.559875
-78.040085 224.663284 993.250122
-91.549500 235.008652 991.000122
-85.301880 234.903809 992.777649
-78.715111 235.201401 995.799988
-91.235001 242.244339 991.000061
-84.778625 245.168076 993.222046
-78.810501 242.128494 997.000000
-84.072853 255.059448 991.899963
-78.979866 256.405579 994.000061
-84.170616 264.781464 990.999939
-78.335999 265.210510 991.000122
-83.780510 274.551300 992.166748
-78.257896 275.795624 994.000000
-82.442940 284.263519 992.384766
-77.575218 284.752991 993.333374
-82.135994 294.558899 991.300110
-77.503212 294.886169 992.400208
-81.168007 302.962738 991.000000
-78.594101 305.089020 993.181946
-84.762009 138.095505 1000.000000
-79.164993 138.302505 1001.500000
-83.434586 144.758743 1001.772888
-78.517197 145.545807 1005.400085
-82.127144 154.177292 1001.071472
-78.647346 155.381683 1003.000122
-82.857506 160.000000 1000.000000
-78.451660 163.254669 1000.500061
-82.685822 176.990829 1001.091003
-77.309692 174.820938 1003.750183
-82.763809 182.884903 1001.200073
-76.815720 184.506271 1002.666687
-79.047501 203.809662 1000.000000
-78.419754 246.225128 1001.125000
-78.730003 252.063690 1000.000000
