57.498623 -92.768867 689.000061
63.819283 -93.403961 688.999756
57.744667 -87.273499 689.000061
63.529030 -87.103325 688.999939
69.135002 -160.871994 698.000000
71.794334 -160.872009 698.000061
68.100998 -154.342529 697.823547
72.935066 -154.715363 697.526428
49.192001 -140.929993 698.000000
55.692848 -142.619766 696.193604
65.216492 -144.711868 697.744141
72.532860 -145.016785 698.000000
49.044338 -134.429459 698.000000
54.834656 -134.935257 695.465393
64.936516 -135.173752 695.734619
74.976585 -135.187851 696.661072
81.524673 -131.813339 697.833313
46.142590 -124.366493 697.000244
55.070957 -124.962486 695.064331
64.827515 -125.027344 694.589233
74.693710 -124.978706 694.730103
83.494659 -124.327583 697.156372
45.555084 -115.101517 696.022949
54.887436 -115.069687 694.375000
64.722076 -114.916580 693.449036
74.674294 -114.985855 693.875122
84.651817 -115.101982 695.062561
91.463074 -112.811279 697.357239
37.784393 -103.095726 697.388977
45.138950 -105.094810 695.166687
54.809460 -104.999176 693.391052
65.119423 -105.279594 691.491516
75.414536 -105.326805 693.192627
84.644272 -105.142143 694.339417
91.582726 -104.653961 696.333435
36.903881 -95.270271 696.738159
44.906319 -95.163177 694.660034
53.432255 -95.513657 691.400208
66.653076 -97.304077 689.999939
74.831482 -95.105904 690.585022
84.692307 -95.081139 694.059998
91.787369 -94.602440 697.160095
37.793499 -86.202408 696.249939
45.053288 -86.528290 694.195190
52.502319 -87.289398 691.499878
68.342918 -85.866676 690.000000
75.225471 -87.040863 691.764771
84.417732 -87.218178 693.788025
92.527168 -87.315765 697.000061
44.869560 -164.979782 704.579102
54.689079 -164.815826 701.066650
64.440887 -165.326187 700.615479
74.966309 -165.130981 700.871704
84.575432 -165.116531 704.755249
91.655403 -163.589584 707.631653
37.848499 -153.513931 707.857300
44.839401 -155.234238 703.736755
54.819221 -155.246246 700.389221
63.349308 -155.522339 700.021606
77.777779 -155.481522 699.999878
84.593201 -155.155853 703.615356
91.948494 -154.593933 707.291626
36.241486 -145.121735 706.865051
44.710369 -145.142548 702.033997
54.032253 -147.661407 700.043396
63.500004 -146.999863 699.999939
77.035408 -145.221832 700.045349
84.853226 -144.997772 702.285645
94.075745 -144.574371 706.441284
135.336334 -142.830383 707.680054
140.250992 -142.274506 708.000000
37.103603 -134.982620 705.642883
44.103931 -135.189926 701.714355
85.580261 -135.400970 700.348083
95.330482 -134.930527 704.860046
101.143005 -132.159988 708.000061
134.236664 -134.778748 706.071594
35.732250 -124.298889 704.725037
41.421844 -126.233383 700.315796
88.179359 -126.306770 700.176392
95.151108 -124.906364 703.519348
101.143005 -129.462997 708.000000
135.427246 -124.723831 706.820557
141.197220 -123.680000 707.428650
29.366001 -112.075203 707.200012
34.910938 -115.301231 705.040894
40.694801 -115.852020 701.266663
89.333000 -120.000000 700.000000
95.273895 -115.849724 701.500061
104.514503 -111.257004 708.000000
128.354416 -113.583344 705.000061
134.347931 -115.249138 706.509705
140.053009 -118.506660 707.000000
25.485180 -104.765724 707.636414
34.654758 -106.985611 702.363770
97.503853 -104.863960 702.650024
101.883942 -105.565933 706.266785
118.258240 -104.636055 706.941101
125.080719 -104.546021 704.456665
133.018433 -105.885597 707.178650
28.797750 -92.757874 703.250061
32.177738 -93.936783 700.842163
96.752434 -95.459808 701.103516
102.950554 -95.014671 706.344910
119.852997 -99.653000 707.000000
124.685799 -99.427399 705.399902
28.521179 -86.199585 705.176514
33.010036 -85.362640 701.700012
97.709145 -87.103363 702.000000
102.330582 -87.626785 706.214233
25.034327 -154.094757 716.195435
33.518700 -155.956589 712.599915
97.094582 -155.347534 711.259338
102.737129 -154.830429 713.896606
26.458080 -145.372665 713.972839
31.824928 -144.910568 711.000061
98.169136 -147.084229 710.875000
103.687981 -145.288467 716.222107
139.294998 -142.676498 710.000000
140.648010 -140.648010 710.000000
27.366608 -134.466934 712.499939
32.646564 -135.081024 710.600037
104.513184 -133.730820 712.956665
111.387672 -130.561340 719.000061
139.294998 -136.590408 710.000000
142.020615 -134.808243 712.692261
26.288414 -124.169922 713.499817
32.166775 -127.314224 710.222229
105.261971 -124.950539 713.023926
111.045303 -125.369804 716.200073
142.259003 -127.604500 710.166626
25.803349 -116.438385 716.470459
103.552002 -115.775719 710.771606
26.313610 -102.972038 712.321411
31.402718 -102.546288 712.428650
107.001282 -104.755791 710.605225
113.851707 -103.700104 710.638794
137.942993 -108.866501 710.000000
18.995499 -94.294174 712.333313
24.071510 -95.166054 711.733337
30.004000 -99.558006 716.000000
108.278099 -94.742958 710.571594
113.914230 -95.927917 711.700134
120.530998 -98.862999 711.000000
17.889868 -85.910271 715.200073
23.223001 -86.487396 712.930969
106.072052 -86.324532 711.052795
111.119331 -87.306999 714.333435
108.342995 -146.057007 720.000000
146.742996 -135.085495 720.000000
