# .PCD v.5 - Point Cloud Data file format
FIELDS x y z 
SIZE 4 4 4
TYPE F F F
COUNT 1 1 1
WIDTH 1615
HEIGHT 1
POINTS 1615
DATA ascii
0.312562  0.326078  0.887000
0.314251  0.326078  0.887000
0.315941  0.326078  0.887000
0.317630  0.326078  0.887000
0.319320  0.326078  0.887000
0.321010  0.326078  0.887000
0.320152  0.323505  0.880000
0.321829  0.323505  0.880000
0.323505  0.323505  0.880000
0.325181  0.323505  0.880000
0.327600  0.324240  0.882000
0.329280  0.324240  0.882000
0.330960  0.324240  0.882000
0.340560  0.331960  0.903000
0.342280  0.331960  0.903000
0.344000  0.331960  0.903000
0.345720  0.331960  0.903000
0.348210  0.332695  0.905000
0.349933  0.332695  0.905000
0.342720  0.324240  0.882000
0.344400  0.324240  0.882000
0.346080  0.324240  0.882000
0.346971  0.323505  0.880000
0.348648  0.323505  0.880000
0.350324  0.323505  0.880000
0.351200  0.322770  0.878000
0.352872  0.322770  0.878000
0.354545  0.322770  0.878000
0.356217  0.322770  0.878000
0.353406  0.318726  0.867000
0.354238  0.317990  0.865000
0.355886  0.317990  0.865000
0.357533  0.317990  0.865000
0.359181  0.317990  0.865000
0.360829  0.317990  0.865000
0.362476  0.317990  0.865000
-0.493048  0.308552  0.835000
-0.491457  0.308552  0.835000
-0.492213  0.310030  0.839000
-0.490615  0.310030  0.839000
-0.489017  0.310030  0.839000
-0.488581  0.310770  0.841000
-0.488137  0.311509  0.843000
-0.486531  0.311509  0.843000
-0.484926  0.311509  0.843000
-0.481027  0.310030  0.839000
-0.479429  0.310030  0.839000
-0.478970  0.310770  0.841000
-0.478503  0.311509  0.843000
-0.476897  0.311509  0.843000
-0.471909  0.309291  0.837000
-0.470314  0.309291  0.837000
-0.469840  0.310030  0.839000
-0.468242  0.310030  0.839000
-0.465531  0.309291  0.837000
-0.463937  0.309291  0.837000
-0.462343  0.309291  0.837000
-0.460749  0.309291  0.837000
-0.460251  0.310030  0.839000
-0.458653  0.310030  0.839000
-0.457055  0.310030  0.839000
-0.456543  0.310770  0.841000
-0.456023  0.311509  0.843000
-0.461425  0.316312  0.856000
-0.459794  0.316312  0.856000
-0.458164  0.316312  0.856000
-0.456533  0.316312  0.856000
-0.454903  0.316312  0.856000
-0.453272  0.316312  0.856000
-0.451642  0.316312  0.856000
-0.446857  0.314095  0.850000
-0.442619  0.312248  0.845000
-0.441010  0.312248  0.845000
-0.439400  0.312248  0.845000
-0.427922  0.306335  0.829000
-0.426343  0.306335  0.829000
-0.424764  0.306335  0.829000
-0.423185  0.306335  0.829000
-0.422623  0.307074  0.831000
-0.421040  0.307074  0.831000
-0.419457  0.307074  0.831000
-0.417874  0.307074  0.831000
-0.416291  0.307074  0.831000
-0.415707  0.307813  0.833000
-0.414120  0.307813  0.833000
-0.414514  0.309291  0.837000
-0.412920  0.309291  0.837000
-0.414274  0.311509  0.843000
-0.417074  0.314834  0.852000
-0.416427  0.315573  0.854000
-0.414800  0.315573  0.854000
-0.415109  0.317051  0.858000
-0.413474  0.317051  0.858000
-0.412800  0.317790  0.860000
-0.411162  0.317790  0.860000
-0.410476  0.318530  0.862000
-0.408834  0.318530  0.862000
-0.405303  0.317051  0.858000
-0.403669  0.317051  0.858000
-0.401097  0.316312  0.856000
-0.397600  0.314834  0.852000
-0.395048  0.314095  0.850000
-0.393429  0.314095  0.850000
-0.390888  0.313356  0.848000
-0.389272  0.313356  0.848000
-0.387657  0.313356  0.848000
-0.383766  0.311509  0.843000
-0.382160  0.311509  0.843000
-0.380554  0.311509  0.843000
-0.378949  0.311509  0.843000
-0.373762  0.308552  0.835000
-0.372171  0.308552  0.835000
-0.371469  0.309291  0.837000
-0.374084  0.321116  0.869000
-0.371571  0.320377  0.867000
-0.367787  0.318530  0.862000
-0.366145  0.318530  0.862000
-0.361120  0.315573  0.854000
-0.359493  0.315573  0.854000
-0.357867  0.315573  0.854000
-0.355406  0.314834  0.852000
-0.350876  0.312248  0.845000
-0.349267  0.312248  0.845000
-0.346834  0.311509  0.843000
-0.345229  0.311509  0.843000
-0.343623  0.311509  0.843000
-0.342017  0.311509  0.843000
-0.340411  0.311509  0.843000
-0.338806  0.311509  0.843000
-0.337200  0.311509  0.843000
-0.338381  0.314095  0.850000
-0.335970  0.313356  0.848000
-0.334354  0.313356  0.848000
-0.333524  0.314095  0.850000
-0.332686  0.314834  0.852000
-0.331063  0.314834  0.852000
-0.329440  0.314834  0.852000
-0.327048  0.314095  0.850000
-0.325429  0.314095  0.850000
-0.324571  0.314834  0.852000
-0.322949  0.314834  0.852000
-0.321326  0.314834  0.852000
-0.319703  0.314834  0.852000
-0.318080  0.314834  0.852000
-0.317200  0.315573  0.854000
-0.315573  0.315573  0.854000
-0.315417  0.317051  0.858000
-0.313783  0.317051  0.858000
-0.310693  0.315573  0.854000
-0.309067  0.315573  0.854000
-0.307440  0.315573  0.854000
-0.305813  0.315573  0.854000
-0.304187  0.315573  0.854000
-0.302560  0.315573  0.854000
-0.300229  0.314834  0.852000
-0.298606  0.314834  0.852000
-0.296983  0.314834  0.852000
-0.295360  0.314834  0.852000
-0.293737  0.314834  0.852000
-0.292114  0.314834  0.852000
-0.289810  0.314095  0.850000
-0.287512  0.313356  0.848000
-0.285897  0.313356  0.848000
-0.284952  0.314095  0.850000
-0.283333  0.314095  0.850000
-0.281714  0.314095  0.850000
-0.280754  0.314834  0.852000
-0.273562  0.308552  0.835000
-0.271971  0.308552  0.835000
-0.271676  0.310030  0.839000
-0.269434  0.309291  0.837000
-0.267200  0.308552  0.835000
-0.264973  0.307813  0.833000
-0.263387  0.307813  0.833000
-0.263057  0.309291  0.837000
-0.266149  0.314834  0.852000
-0.265147  0.315573  0.854000
-0.264754  0.317051  0.858000
-0.263120  0.317051  0.858000
-0.262095  0.317790  0.860000
-0.259851  0.317051  0.858000
-0.258217  0.317051  0.858000
-0.253592  0.313356  0.848000
-0.251086  0.312248  0.845000
-0.249476  0.312248  0.845000
-0.248747  0.313356  0.848000
-0.247131  0.313356  0.848000
-0.246095  0.314095  0.850000
-0.244476  0.314095  0.850000
-0.242857  0.314095  0.850000
-0.241806  0.314834  0.852000
-0.240747  0.315573  0.854000
-0.239680  0.316312  0.856000
-0.238050  0.316312  0.856000
-0.235867  0.315573  0.854000
-0.234240  0.315573  0.854000
-0.233158  0.316312  0.856000
-0.231528  0.316312  0.856000
-0.230434  0.317051  0.858000
-0.228267  0.316312  0.856000
-0.224518  0.313356  0.848000
-0.222903  0.313356  0.848000
-0.221288  0.313356  0.848000
-0.219672  0.313356  0.848000
-0.218057  0.313356  0.848000
-0.224099  0.324442  0.878000
-0.208560  0.321116  0.869000
-0.206905  0.321116  0.869000
-0.205250  0.321116  0.869000
-0.203594  0.321116  0.869000
-0.201939  0.321116  0.869000
-0.199823  0.320377  0.867000
-0.198171  0.320377  0.867000
-0.196520  0.320377  0.867000
-0.194869  0.320377  0.867000
-0.193217  0.320377  0.867000
-0.191566  0.320377  0.867000
-0.189914  0.320377  0.867000
-0.187829  0.319638  0.865000
-0.186181  0.319638  0.865000
-0.176853  0.306335  0.829000
-0.175274  0.306335  0.829000
-0.173695  0.306335  0.829000
-0.180006  0.320377  0.867000
-0.178766  0.321116  0.869000
-0.177110  0.321116  0.869000
-0.175859  0.321855  0.871000
-0.174200  0.321855  0.871000
-0.172541  0.321855  0.871000
-0.170882  0.321855  0.871000
-0.168834  0.321116  0.869000
-0.166794  0.320377  0.867000
-0.165143  0.320377  0.867000
-0.163491  0.320377  0.867000
-0.161840  0.320377  0.867000
-0.160189  0.320377  0.867000
-0.158171  0.319638  0.865000
-0.154895  0.316312  0.856000
-0.153265  0.316312  0.856000
-0.151280  0.315573  0.854000
-0.149653  0.315573  0.854000
-0.148027  0.315573  0.854000
-0.146057  0.314834  0.852000
-0.144434  0.314834  0.852000
-0.142811  0.314834  0.852000
-0.141520  0.315573  0.854000
-0.139893  0.315573  0.854000
-0.138267  0.315573  0.854000
-0.136000  0.314095  0.850000
-0.132326  0.309291  0.837000
-0.099840  0.302640  0.819000
-0.098280  0.302640  0.819000
-0.096720  0.302640  0.819000
-0.095392  0.303379  0.821000
-0.093829  0.303379  0.821000
-0.083726  0.300792  0.814000
-0.082175  0.300792  0.814000
-0.080625  0.300792  0.814000
-0.078880  0.300053  0.812000
-0.076762  0.297836  0.806000
-0.074667  0.295619  0.800000
-0.073143  0.295619  0.800000
-0.071619  0.295619  0.800000
-0.069920  0.294880  0.798000
-0.068400  0.294880  0.798000
-0.066880  0.294880  0.798000
-0.065278  0.294510  0.797000
-0.063600  0.293771  0.795000
-0.061930  0.293032  0.793000
-0.060267  0.292293  0.791000
-0.058611  0.291554  0.789000
-0.057036  0.291185  0.788000
-0.055394  0.290446  0.786000
-0.053897  0.290446  0.786000
-0.052267  0.289707  0.784000
-0.050773  0.289707  0.784000
-0.049154  0.288968  0.782000
-0.047543  0.288229  0.780000
-0.046057  0.288229  0.780000
-0.044514  0.287859  0.779000
-0.042920  0.287120  0.777000
-0.041333  0.286381  0.775000
-0.039857  0.286381  0.775000
-0.038282  0.285642  0.773000
-0.036810  0.285642  0.773000
-0.035291  0.285272  0.772000
-0.033733  0.284533  0.770000
-0.032267  0.284533  0.770000
-0.030720  0.283794  0.768000
-0.029219  0.283425  0.767000
-0.027686  0.282686  0.765000
-0.026160  0.281947  0.763000
-0.024642  0.281208  0.761000
-0.023192  0.281208  0.761000
-0.021714  0.280838  0.760000
-0.020213  0.280099  0.758000
-0.018770  0.280099  0.758000
-0.017280  0.279360  0.756000
-0.015819  0.278990  0.755000
-0.014381  0.278990  0.755000
-0.012909  0.278251  0.753000
-0.011459  0.277882  0.752000
-0.010027  0.277882  0.752000
-0.008571  0.277143  0.750000
-0.007143  0.277143  0.750000
-0.005699  0.276404  0.748000
-0.004269  0.276034  0.747000
-0.002846  0.276034  0.747000
-0.001419  0.275295  0.745000
0.000000  0.275295  0.745000
0.001419  0.275295  0.745000
0.002838  0.275295  0.745000
0.004257  0.275295  0.745000
0.005676  0.275295  0.745000
0.007095  0.275295  0.745000
0.008537  0.276034  0.747000
0.072998  0.321855  0.871000
0.074486  0.321116  0.869000
0.076141  0.321116  0.869000
0.077796  0.321116  0.869000
0.079269  0.320377  0.867000
0.080920  0.320377  0.867000
0.082571  0.320377  0.867000
0.084223  0.320377  0.867000
0.086072  0.321116  0.869000
0.087728  0.321116  0.869000
0.089589  0.321855  0.871000
0.091248  0.321855  0.871000
0.093120  0.322594  0.873000
0.094783  0.322594  0.873000
0.098213  0.328507  0.889000
0.099907  0.328507  0.889000
0.099771  0.322594  0.873000
0.101434  0.322594  0.873000
0.104750  0.327768  0.887000
0.106440  0.327768  0.887000
0.106423  0.322594  0.873000
0.108086  0.322594  0.873000
0.110000  0.323333  0.875000
0.111667  0.323333  0.875000
0.113981  0.325181  0.880000
0.115394  0.324442  0.878000
0.117067  0.324442  0.878000
0.118739  0.324442  0.878000
0.120411  0.324442  0.878000
0.122362  0.325181  0.880000
0.125307  0.328507  0.889000
0.127000  0.328507  0.889000
0.128693  0.328507  0.889000
0.130387  0.328507  0.889000
0.132080  0.328507  0.889000
0.130162  0.319638  0.865000
0.131810  0.319638  0.865000
0.133457  0.319638  0.865000
0.135105  0.319638  0.865000
0.136752  0.319638  0.865000
0.138720  0.320377  0.867000
0.140048  0.319638  0.865000
0.141695  0.319638  0.865000
0.143343  0.319638  0.865000
0.145326  0.320377  0.867000
0.146977  0.320377  0.867000
0.148629  0.320377  0.867000
0.151667  0.323333  0.875000
0.153859  0.324442  0.878000
0.155886  0.325181  0.880000
0.157562  0.325181  0.880000
0.158876  0.324442  0.878000
0.160000  0.323333  0.875000
0.161667  0.323333  0.875000
0.162960  0.322594  0.873000
0.164246  0.321855  0.871000
0.165905  0.321855  0.871000
0.167179  0.321116  0.869000
0.168834  0.321116  0.869000
0.170882  0.321855  0.871000
0.172541  0.321855  0.871000
0.174200  0.321855  0.871000
0.175859  0.321855  0.871000
0.177926  0.322594  0.873000
0.179589  0.322594  0.873000
0.181667  0.323333  0.875000
0.183333  0.323333  0.875000
0.185000  0.323333  0.875000
0.186667  0.323333  0.875000
0.187903  0.322594  0.873000
0.189566  0.322594  0.873000
0.191229  0.322594  0.873000
0.192450  0.321855  0.871000
0.194109  0.321855  0.871000
0.196217  0.322594  0.873000
0.177253  0.288968  0.782000
0.178743  0.288968  0.782000
0.180693  0.289707  0.784000
0.181257  0.288229  0.780000
0.182743  0.288229  0.780000
0.207848  0.325181  0.880000
0.209524  0.325181  0.880000
0.210720  0.324442  0.878000
0.212392  0.324442  0.878000
0.215528  0.326659  0.884000
0.216720  0.325920  0.882000
0.218400  0.325920  0.882000
0.220080  0.325920  0.882000
0.221760  0.325920  0.882000
0.223440  0.325920  0.882000
0.220015  0.318530  0.862000
0.221657  0.318530  0.862000
0.224594  0.320377  0.867000
0.226246  0.320377  0.867000
0.227897  0.320377  0.867000
0.229549  0.320377  0.867000
0.230667  0.319638  0.865000
0.232314  0.319638  0.865000
0.233962  0.319638  0.865000
0.241602  0.327768  0.887000
0.243291  0.327768  0.887000
0.244981  0.327768  0.887000
0.246670  0.327768  0.887000
0.247520  0.326659  0.884000
0.248640  0.325920  0.882000
0.250320  0.325920  0.882000
0.252000  0.325920  0.882000
0.253105  0.325181  0.880000
0.254781  0.325181  0.880000
0.256457  0.325181  0.880000
0.258133  0.325181  0.880000
0.259219  0.324442  0.878000
0.260891  0.324442  0.878000
0.261069  0.322594  0.873000
0.262731  0.322594  0.873000
0.264394  0.322594  0.873000
0.264838  0.321116  0.869000
0.266493  0.321116  0.869000
0.270926  0.324442  0.878000
0.273219  0.325181  0.880000
0.274270  0.324442  0.878000
0.275943  0.324442  0.878000
0.277615  0.324442  0.878000
0.279288  0.324442  0.878000
0.280960  0.324442  0.878000
0.278448  0.319638  0.865000
0.280095  0.319638  0.865000
0.280766  0.318530  0.862000
0.281752  0.317790  0.860000
0.283390  0.317790  0.860000
0.285691  0.318530  0.862000
0.287333  0.318530  0.862000
0.289981  0.319638  0.865000
0.291629  0.319638  0.865000
0.293954  0.320377  0.867000
0.295606  0.320377  0.867000
0.296571  0.319638  0.865000
0.298219  0.319638  0.865000
0.300560  0.320377  0.867000
0.302909  0.321116  0.869000
0.305265  0.321855  0.871000
0.307629  0.322594  0.873000
0.307874  0.321116  0.869000
0.309530  0.321116  0.869000
0.311901  0.321855  0.871000
0.312120  0.320377  0.867000
0.313048  0.319638  0.865000
0.314695  0.319638  0.865000
0.316343  0.319638  0.865000
0.320931  0.322594  0.873000
0.322594  0.322594  0.873000
0.327600  0.325920  0.882000
0.329280  0.325920  0.882000
0.321204  0.316312  0.856000
0.322834  0.316312  0.856000
0.342280  0.333680  0.903000
0.344000  0.333680  0.903000
0.328491  0.317051  0.858000
0.330126  0.317051  0.858000
0.332533  0.317790  0.860000
0.334949  0.318530  0.862000
0.344400  0.325920  0.882000
0.344510  0.324442  0.878000
0.346183  0.324442  0.878000
0.348648  0.325181  0.880000
0.350324  0.325181  0.880000
0.349200  0.322594  0.873000
0.350863  0.322594  0.873000
0.350103  0.320377  0.867000
0.351754  0.320377  0.867000
0.352590  0.319638  0.865000
0.353010  0.318530  0.862000
0.354651  0.318530  0.862000
0.356293  0.318530  0.862000
0.357935  0.318530  0.862000
0.359577  0.318530  0.862000
0.361219  0.318530  0.862000
-0.488280  0.304200  0.819000
-0.486720  0.304200  0.819000
-0.485160  0.304200  0.819000
-0.484781  0.304943  0.821000
-0.483217  0.304943  0.821000
-0.491040  0.310886  0.837000
-0.489446  0.310886  0.837000
-0.489017  0.311629  0.839000
-0.487419  0.311629  0.839000
-0.486979  0.312371  0.841000
-0.486531  0.313114  0.843000
-0.484926  0.313114  0.843000
-0.482173  0.312371  0.841000
-0.480571  0.312371  0.841000
-0.478970  0.312371  0.841000
-0.477368  0.312371  0.841000
-0.475766  0.312371  0.841000
-0.470781  0.310143  0.835000
-0.469190  0.310143  0.835000
-0.468720  0.310886  0.837000
-0.467126  0.310886  0.837000
-0.464419  0.310143  0.835000
-0.462829  0.310143  0.835000
-0.461238  0.310143  0.835000
-0.459648  0.310143  0.835000
-0.459154  0.310886  0.837000
-0.457560  0.310886  0.837000
-0.455966  0.310886  0.837000
-0.454371  0.310886  0.837000
-0.452777  0.310886  0.837000
-0.451183  0.310886  0.837000
-0.442069  0.305686  0.823000
-0.442642  0.307171  0.827000
-0.441067  0.307171  0.827000
-0.439491  0.307171  0.827000
-0.438975  0.307914  0.829000
-0.437396  0.307914  0.829000
-0.446857  0.315714  0.850000
-0.442619  0.313857  0.845000
-0.441010  0.313857  0.845000
-0.439400  0.313857  0.845000
-0.427429  0.306429  0.825000
-0.425857  0.306429  0.825000
-0.426343  0.307914  0.829000
-0.424764  0.307914  0.829000
-0.423185  0.307914  0.829000
-0.422623  0.308657  0.831000
-0.421040  0.308657  0.831000
-0.418448  0.307914  0.829000
-0.416869  0.307914  0.829000
-0.415290  0.307914  0.829000
-0.414709  0.308657  0.831000
-0.413126  0.308657  0.831000
-0.412533  0.309400  0.833000
-0.411933  0.310143  0.835000
-0.414274  0.313114  0.843000
-0.415116  0.314971  0.848000
-0.413501  0.314971  0.848000
-0.412857  0.315714  0.850000
-0.415109  0.318686  0.858000
-0.413474  0.318686  0.858000
-0.411840  0.318686  0.858000
-0.410206  0.318686  0.858000
-0.391905  0.305686  0.823000
-0.390337  0.305686  0.823000
-0.388770  0.305686  0.823000
-0.387202  0.305686  0.823000
-0.399223  0.316457  0.852000
-0.397600  0.316457  0.852000
-0.395048  0.315714  0.850000
-0.393429  0.315714  0.850000
-0.385817  0.310886  0.837000
-0.384223  0.310886  0.837000
-0.382629  0.310886  0.837000
-0.380124  0.310143  0.835000
-0.378533  0.310143  0.835000
-0.376943  0.310143  0.835000
-0.375352  0.310143  0.835000
-0.373762  0.310143  0.835000
-0.372171  0.310143  0.835000
-0.371469  0.310886  0.837000
-0.369874  0.310886  0.837000
-0.368280  0.310886  0.837000
-0.369429  0.320171  0.862000
-0.365227  0.317943  0.856000
-0.362747  0.317200  0.854000
-0.359429  0.315714  0.850000
-0.357810  0.315714  0.850000
-0.357029  0.316457  0.852000
-0.354571  0.315714  0.850000
-0.350046  0.313114  0.843000
-0.348440  0.313114  0.843000
-0.346834  0.313114  0.843000
-0.344410  0.312371  0.841000
-0.342808  0.312371  0.841000
-0.342017  0.313114  0.843000
-0.339604  0.312371  0.841000
-0.338002  0.312371  0.841000
-0.337200  0.313114  0.843000
-0.336390  0.313857  0.845000
-0.335970  0.314971  0.848000
-0.334354  0.314971  0.848000
-0.333524  0.315714  0.850000
-0.332686  0.316457  0.852000
-0.331063  0.316457  0.852000
-0.329440  0.316457  0.852000
-0.327048  0.315714  0.850000
-0.325429  0.315714  0.850000
-0.324571  0.316457  0.852000
-0.322949  0.316457  0.852000
-0.321326  0.316457  0.852000
-0.319703  0.316457  0.852000
-0.318080  0.316457  0.852000
-0.317200  0.317200  0.854000
-0.315573  0.317200  0.854000
-0.313947  0.317200  0.854000
-0.312320  0.317200  0.854000
-0.309966  0.316457  0.852000
-0.308343  0.316457  0.852000
-0.306720  0.316457  0.852000
-0.305813  0.317200  0.854000
-0.303474  0.316457  0.852000
-0.301851  0.316457  0.852000
-0.300229  0.316457  0.852000
-0.298606  0.316457  0.852000
-0.296983  0.316457  0.852000
-0.295360  0.316457  0.852000
-0.293048  0.315714  0.850000
-0.291429  0.315714  0.850000
-0.289128  0.314971  0.848000
-0.287512  0.314971  0.848000
-0.285897  0.314971  0.848000
-0.284952  0.315714  0.850000
-0.283333  0.315714  0.850000
-0.281714  0.315714  0.850000
-0.280754  0.316457  0.852000
-0.276183  0.313114  0.843000
-0.274577  0.313114  0.843000
-0.269086  0.308657  0.831000
-0.267503  0.308657  0.831000
-0.265920  0.308657  0.831000
-0.264337  0.308657  0.831000
-0.262754  0.308657  0.831000
-0.263057  0.310886  0.837000
-0.261463  0.310886  0.837000
-0.265147  0.317200  0.854000
-0.263520  0.317200  0.854000
-0.261893  0.317200  0.854000
-0.260267  0.317200  0.854000
-0.258640  0.317200  0.854000
-0.255208  0.314971  0.848000
-0.252695  0.313857  0.845000
-0.251086  0.313857  0.845000
-0.249476  0.313857  0.845000
-0.247867  0.313857  0.845000
-0.246257  0.313857  0.845000
-0.245516  0.314971  0.848000
-0.243901  0.314971  0.848000
-0.242857  0.315714  0.850000
-0.241806  0.316457  0.852000
-0.240747  0.317200  0.854000
-0.239120  0.317200  0.854000
-0.237493  0.317200  0.854000
-0.235867  0.317200  0.854000
-0.234240  0.317200  0.854000
-0.232613  0.317200  0.854000
-0.230987  0.317200  0.854000
-0.229897  0.317943  0.856000
-0.228267  0.317943  0.856000
-0.224518  0.314971  0.848000
-0.222903  0.314971  0.848000
-0.221288  0.314971  0.848000
-0.219672  0.314971  0.848000
-0.218057  0.314971  0.848000
-0.208560  0.322771  0.869000
-0.206905  0.322771  0.869000
-0.205250  0.322771  0.869000
-0.203594  0.322771  0.869000
-0.201939  0.322771  0.869000
-0.200284  0.322771  0.869000
-0.198171  0.322029  0.867000
-0.196520  0.322029  0.867000
-0.194869  0.322029  0.867000
-0.193217  0.322029  0.867000
-0.191566  0.322029  0.867000
-0.189914  0.322029  0.867000
-0.179143  0.306429  0.825000
-0.178432  0.307914  0.829000
-0.176853  0.307914  0.829000
-0.175274  0.307914  0.829000
-0.173695  0.307914  0.829000
-0.178968  0.320171  0.862000
-0.178354  0.322029  0.867000
-0.176703  0.322029  0.867000
-0.168994  0.310886  0.837000
-0.167400  0.310886  0.837000
-0.165806  0.310886  0.837000
-0.164211  0.310886  0.837000
-0.162617  0.310886  0.837000
-0.161408  0.311629  0.839000
-0.160571  0.313114  0.843000
-0.159343  0.313857  0.845000
-0.160160  0.318686  0.858000
-0.158526  0.318686  0.858000
-0.156891  0.318686  0.858000
-0.154171  0.316457  0.852000
-0.152190  0.315714  0.850000
-0.150571  0.315714  0.850000
-0.148952  0.315714  0.850000
-0.147333  0.315714  0.850000
-0.145714  0.315714  0.850000
-0.144095  0.315714  0.850000
-0.142476  0.315714  0.850000
-0.140857  0.315714  0.850000
-0.139238  0.315714  0.850000
-0.136810  0.313857  0.845000
-0.136000  0.315714  0.850000
-0.132326  0.310886  0.837000
-0.080724  0.302714  0.815000
-0.079171  0.302714  0.815000
-0.077143  0.300857  0.810000
-0.075040  0.298629  0.804000
-0.073326  0.297886  0.802000
-0.071798  0.297886  0.802000
-0.069920  0.296400  0.798000
-0.068400  0.296400  0.798000
-0.066880  0.296400  0.798000
-0.065360  0.296400  0.798000
-0.063760  0.296029  0.797000
-0.062086  0.295286  0.795000
-0.060419  0.294543  0.793000
-0.058909  0.294543  0.793000
-0.057253  0.293800  0.791000
-0.055535  0.292686  0.788000
-0.053897  0.291943  0.786000
-0.052400  0.291943  0.786000
-0.050773  0.291200  0.784000
-0.049280  0.291200  0.784000
-0.047665  0.290457  0.782000
-0.046175  0.290457  0.782000
-0.044571  0.289714  0.780000
-0.043030  0.289343  0.779000
-0.041440  0.288600  0.777000
-0.039960  0.288600  0.777000
-0.038381  0.287857  0.775000
-0.036810  0.287114  0.773000
-0.035337  0.287114  0.773000
-0.033821  0.286743  0.772000
-0.032267  0.286000  0.770000
-0.030720  0.285257  0.768000
-0.029219  0.284886  0.767000
-0.027686  0.284143  0.765000
-0.026229  0.284143  0.765000
-0.024707  0.283400  0.763000
-0.023192  0.282657  0.761000
-0.021714  0.282286  0.760000
-0.020213  0.281543  0.758000
-0.018770  0.281543  0.758000
-0.017280  0.280800  0.756000
-0.015819  0.280429  0.755000
-0.014381  0.280429  0.755000
-0.012943  0.280429  0.755000
-0.011474  0.279686  0.753000
-0.010040  0.279686  0.753000
-0.008594  0.279314  0.752000
-0.007162  0.279314  0.752000
-0.005699  0.277829  0.748000
-0.004274  0.277829  0.748000
-0.002846  0.277457  0.747000
-0.001419  0.276714  0.745000
0.000000  0.276714  0.745000
0.001419  0.276714  0.745000
0.002838  0.276714  0.745000
0.004257  0.276714  0.745000
0.005676  0.276714  0.745000
0.007095  0.276714  0.745000
0.008537  0.277457  0.747000
0.010000  0.278571  0.750000
0.048091  0.293057  0.789000
0.049594  0.293057  0.789000
0.074486  0.322771  0.869000
0.075966  0.322029  0.867000
0.077617  0.322029  0.867000
0.079086  0.321286  0.865000
0.080733  0.321286  0.865000
0.082571  0.322029  0.867000
0.084223  0.322029  0.867000
0.085874  0.322029  0.867000
0.087728  0.322771  0.869000
0.089383  0.322771  0.869000
0.091248  0.323514  0.871000
0.092907  0.323514  0.871000
0.092286  0.315714  0.850000
0.093905  0.315714  0.850000
0.095524  0.315714  0.850000
0.099543  0.323514  0.871000
0.100970  0.322771  0.869000
0.102625  0.322771  0.869000
0.104280  0.322771  0.869000
0.105935  0.322771  0.869000
0.108086  0.324257  0.873000
0.109749  0.324257  0.873000
0.111667  0.325000  0.875000
0.113333  0.325000  0.875000
0.115394  0.326114  0.878000
0.117067  0.326114  0.878000
0.118739  0.326114  0.878000
0.117669  0.318686  0.858000
0.119303  0.318686  0.858000
0.120937  0.318686  0.858000
0.127000  0.330200  0.889000
0.128693  0.330200  0.889000
0.126867  0.321286  0.865000
0.128514  0.321286  0.865000
0.130162  0.321286  0.865000
0.131810  0.321286  0.865000
0.133457  0.321286  0.865000
0.135105  0.321286  0.865000
0.136752  0.321286  0.865000
0.138400  0.321286  0.865000
0.140048  0.321286  0.865000
0.141695  0.321286  0.865000
0.142846  0.320171  0.862000
0.144488  0.320171  0.862000
0.146130  0.320171  0.862000
0.147771  0.320171  0.862000
0.151320  0.324257  0.873000
0.153859  0.326114  0.878000
0.155531  0.326114  0.878000
0.157204  0.326114  0.878000
0.156886  0.322029  0.867000
0.158537  0.322029  0.867000
0.161667  0.325000  0.875000
0.162960  0.324257  0.873000
0.164246  0.323514  0.871000
0.165905  0.323514  0.871000
0.167179  0.322771  0.869000
0.168834  0.322771  0.869000
0.170882  0.323514  0.871000
0.172541  0.323514  0.871000
0.174200  0.323514  0.871000
0.175859  0.323514  0.871000
0.177926  0.324257  0.873000
0.179589  0.324257  0.873000
0.181251  0.324257  0.873000
0.183333  0.325000  0.875000
0.184577  0.324257  0.873000
0.186240  0.324257  0.873000
0.187903  0.324257  0.873000
0.189566  0.324257  0.873000
0.190790  0.323514  0.871000
0.192450  0.323514  0.871000
0.194109  0.323514  0.871000
0.195768  0.323514  0.871000
0.197880  0.324257  0.873000
0.178743  0.290457  0.782000
0.180232  0.290457  0.782000
0.181025  0.289343  0.779000
0.182509  0.289343  0.779000
0.207848  0.326857  0.880000
0.209524  0.326857  0.880000
0.209520  0.324257  0.873000
0.211183  0.324257  0.873000
0.210895  0.321286  0.865000
0.212543  0.321286  0.865000
0.216667  0.325000  0.875000
0.215090  0.320171  0.862000
0.216731  0.320171  0.862000
0.217360  0.318686  0.858000
0.218994  0.318686  0.858000
0.221657  0.320171  0.862000
0.224076  0.321286  0.865000
0.225724  0.321286  0.865000
0.227371  0.321286  0.865000
0.229019  0.321286  0.865000
0.229867  0.320171  0.862000
0.231509  0.320171  0.862000
0.233150  0.320171  0.862000
0.232069  0.316457  0.852000
0.233691  0.316457  0.852000
0.235867  0.317200  0.854000
0.246670  0.329457  0.887000
0.247520  0.328343  0.884000
0.248076  0.326857  0.880000
0.249752  0.326857  0.880000
0.251429  0.326857  0.880000
0.253105  0.326857  0.880000
0.254781  0.326857  0.880000
0.256457  0.326857  0.880000
0.258133  0.326857  0.880000
0.259219  0.326114  0.878000
0.260891  0.326114  0.878000
0.256583  0.318686  0.858000
0.258217  0.318686  0.858000
0.259851  0.318686  0.858000
0.262095  0.319429  0.860000
0.264347  0.320171  0.862000
0.267531  0.322029  0.867000
0.269183  0.322029  0.867000
0.274270  0.326114  0.878000
0.275943  0.326114  0.878000
0.277615  0.326114  0.878000
0.279288  0.326114  0.878000
0.280960  0.326114  0.878000
0.277482  0.320171  0.862000
0.279124  0.320171  0.862000
0.280114  0.319429  0.860000
0.281752  0.319429  0.860000
0.283390  0.319429  0.860000
0.285029  0.319429  0.860000
0.286667  0.319429  0.860000
0.288975  0.320171  0.862000
0.290617  0.320171  0.862000
0.293954  0.322029  0.867000
0.294924  0.321286  0.865000
0.296571  0.321286  0.865000
0.298219  0.321286  0.865000
0.299867  0.321286  0.865000
0.302909  0.322771  0.869000
0.304564  0.322771  0.869000
0.306924  0.323514  0.871000
0.306457  0.321286  0.865000
0.308105  0.321286  0.865000
0.310469  0.322029  0.867000
0.312120  0.322029  0.867000
0.313048  0.321286  0.865000
0.314695  0.321286  0.865000
0.316343  0.321286  0.865000
0.318726  0.322029  0.867000
0.320377  0.322029  0.867000
0.322029  0.322029  0.867000
0.319573  0.317943  0.856000
0.321204  0.317943  0.856000
0.322834  0.317943  0.856000
0.324465  0.317943  0.856000
0.326857  0.318686  0.858000
0.327726  0.317943  0.856000
0.329356  0.317943  0.856000
0.331760  0.318686  0.858000
0.334171  0.319429  0.860000
0.335810  0.319429  0.860000
0.344510  0.326114  0.878000
0.346183  0.326114  0.878000
0.347855  0.326114  0.878000
0.349528  0.326114  0.878000
0.349200  0.324257  0.873000
0.344834  0.318686  0.858000
0.346469  0.318686  0.858000
0.349726  0.320171  0.862000
0.350552  0.319429  0.860000
0.351371  0.318686  0.858000
0.353006  0.318686  0.858000
0.354640  0.318686  0.858000
0.356274  0.318686  0.858000
0.357909  0.318686  0.858000
0.358705  0.317943  0.856000
0.360335  0.317943  0.856000
0.361120  0.317200  0.854000
0.362747  0.317200  0.854000
-0.487088  0.305013  0.817000
-0.485531  0.305013  0.817000
-0.483975  0.305013  0.817000
-0.483600  0.305760  0.819000
-0.482040  0.305760  0.819000
-0.480480  0.305760  0.819000
-0.481259  0.307253  0.823000
-0.486686  0.311733  0.835000
-0.485095  0.311733  0.835000
-0.484663  0.312480  0.837000
-0.485377  0.313973  0.841000
-0.484926  0.314720  0.843000
-0.482173  0.313973  0.841000
-0.480571  0.313973  0.841000
-0.477830  0.313227  0.839000
-0.476232  0.313227  0.839000
-0.473503  0.312480  0.837000
-0.470781  0.311733  0.835000
-0.469190  0.311733  0.835000
-0.468720  0.312480  0.837000
-0.463777  0.310240  0.831000
-0.462194  0.310240  0.831000
-0.460611  0.310240  0.831000
-0.459029  0.310240  0.831000
-0.458547  0.310987  0.833000
-0.456960  0.310987  0.833000
-0.455373  0.310987  0.833000
-0.453787  0.310987  0.833000
-0.453286  0.311733  0.835000
-0.451695  0.311733  0.835000
-0.444714  0.308000  0.825000
-0.442069  0.307253  0.823000
-0.440501  0.307253  0.823000
-0.440000  0.308000  0.825000
-0.437366  0.307253  0.823000
-0.435798  0.307253  0.823000
-0.434230  0.307253  0.823000
-0.432663  0.307253  0.823000
-0.431095  0.307253  0.823000
-0.428484  0.306507  0.821000
-0.429000  0.308000  0.825000
-0.427429  0.308000  0.825000
-0.425857  0.308000  0.825000
-0.424286  0.308000  0.825000
-0.423739  0.308747  0.827000
-0.423185  0.309493  0.829000
-0.421606  0.309493  0.829000
-0.420027  0.309493  0.829000
-0.418448  0.309493  0.829000
-0.416869  0.309493  0.829000
-0.415290  0.309493  0.829000
-0.413710  0.309493  0.829000
-0.412131  0.309493  0.829000
-0.411543  0.310240  0.831000
-0.410947  0.310987  0.833000
-0.403463  0.306507  0.821000
-0.401899  0.306507  0.821000
-0.400335  0.306507  0.821000
-0.398771  0.306507  0.821000
-0.397208  0.306507  0.821000
-0.395644  0.306507  0.821000
-0.394080  0.306507  0.821000
-0.392516  0.306507  0.821000
-0.391905  0.307253  0.823000
-0.390337  0.307253  0.823000
-0.388770  0.307253  0.823000
-0.387202  0.307253  0.823000
-0.384697  0.306507  0.821000
-0.383133  0.306507  0.821000
-0.381570  0.306507  0.821000
-0.380006  0.306507  0.821000
-0.383973  0.310987  0.833000
-0.382387  0.310987  0.833000
-0.380800  0.310987  0.833000
-0.379213  0.310987  0.833000
-0.378533  0.311733  0.835000
-0.376943  0.311733  0.835000
-0.375352  0.311733  0.835000
-0.373762  0.311733  0.835000
-0.372171  0.311733  0.835000
-0.371469  0.312480  0.837000
-0.369874  0.312480  0.837000
-0.370040  0.313973  0.841000
-0.369429  0.321813  0.862000
-0.363520  0.318080  0.852000
-0.361897  0.318080  0.852000
-0.356469  0.314720  0.843000
-0.354863  0.314720  0.843000
-0.355352  0.316587  0.848000
-0.353737  0.316587  0.848000
-0.350046  0.314720  0.843000
-0.348440  0.314720  0.843000
-0.346834  0.314720  0.843000
-0.344410  0.313973  0.841000
-0.342808  0.313973  0.841000
-0.342017  0.314720  0.843000
-0.339604  0.313973  0.841000
-0.338002  0.313973  0.841000
-0.337200  0.314720  0.843000
-0.335594  0.314720  0.843000
-0.333196  0.313973  0.841000
-0.331594  0.313973  0.841000
-0.331562  0.315467  0.845000
-0.331905  0.317333  0.850000
-0.330286  0.317333  0.850000
-0.328667  0.317333  0.850000
-0.327048  0.317333  0.850000
-0.325429  0.317333  0.850000
-0.323810  0.317333  0.850000
-0.311198  0.306507  0.821000
-0.309634  0.306507  0.821000
-0.308821  0.307253  0.823000
-0.307253  0.307253  0.823000
-0.317943  0.319573  0.856000
-0.316312  0.319573  0.856000
-0.313947  0.318827  0.854000
-0.309029  0.315467  0.845000
-0.307419  0.315467  0.845000
-0.305810  0.315467  0.845000
-0.306000  0.317333  0.850000
-0.305097  0.318080  0.852000
-0.302762  0.317333  0.850000
-0.301143  0.317333  0.850000
-0.299524  0.317333  0.850000
-0.297905  0.317333  0.850000
-0.296983  0.318080  0.852000
-0.295360  0.318080  0.852000
-0.293048  0.317333  0.850000
-0.291429  0.317333  0.850000
-0.286059  0.313227  0.839000
-0.284461  0.313227  0.839000
-0.284211  0.314720  0.843000
-0.283276  0.315467  0.845000
-0.281667  0.315467  0.845000
-0.280057  0.315467  0.845000
-0.279436  0.316587  0.848000
-0.274217  0.312480  0.837000
-0.272623  0.312480  0.837000
-0.269086  0.310240  0.831000
-0.267503  0.310240  0.831000
-0.265280  0.309493  0.829000
-0.263701  0.309493  0.829000
-0.262754  0.310240  0.831000
-0.261171  0.310240  0.831000
-0.259589  0.310240  0.831000
-0.258006  0.310240  0.831000
-0.263520  0.318827  0.854000
-0.261893  0.318827  0.854000
-0.255086  0.312480  0.837000
-0.253491  0.312480  0.837000
-0.252499  0.313227  0.839000
-0.252097  0.314720  0.843000
-0.250491  0.314720  0.843000
-0.248886  0.314720  0.843000
-0.246693  0.313973  0.841000
-0.245091  0.313973  0.841000
-0.244069  0.314720  0.843000
-0.242463  0.314720  0.843000
-0.241429  0.315467  0.845000
-0.240670  0.316587  0.848000
-0.240747  0.318827  0.854000
-0.239120  0.318827  0.854000
-0.237493  0.318827  0.854000
-0.235314  0.318080  0.852000
-0.232594  0.316587  0.848000
-0.230979  0.316587  0.848000
-0.230987  0.318827  0.854000
-0.229897  0.319573  0.856000
-0.228267  0.319573  0.856000
-0.223724  0.315467  0.845000
-0.222114  0.315467  0.845000
-0.220505  0.315467  0.845000
-0.219672  0.316587  0.848000
-0.186328  0.309493  0.829000
-0.184749  0.309493  0.829000
-0.181844  0.307253  0.823000
-0.179838  0.306507  0.821000
-0.179143  0.308000  0.825000
-0.177571  0.308000  0.825000
-0.176000  0.308000  0.825000
-0.174851  0.308747  0.827000
-0.173695  0.309493  0.829000
-0.173362  0.311733  0.835000
-0.171771  0.311733  0.835000
-0.170181  0.311733  0.835000
-0.168590  0.311733  0.835000
-0.167000  0.311733  0.835000
-0.165806  0.312480  0.837000
-0.164211  0.312480  0.837000
-0.162617  0.312480  0.837000
-0.161023  0.312480  0.837000
-0.159810  0.313227  0.839000
-0.158966  0.314720  0.843000
-0.158667  0.317333  0.850000
-0.157417  0.318080  0.852000
-0.156160  0.318827  0.854000
-0.154171  0.318080  0.852000
-0.152190  0.317333  0.850000
-0.149686  0.315467  0.845000
-0.148076  0.315467  0.845000
-0.146467  0.315467  0.845000
-0.144857  0.315467  0.845000
-0.144095  0.317333  0.850000
-0.141303  0.314720  0.843000
-0.139034  0.313227  0.839000
-0.137436  0.313227  0.839000
-0.136810  0.315467  0.845000
-0.136000  0.317333  0.850000
-0.132326  0.312480  0.837000
-0.130731  0.312480  0.837000
-0.129446  0.313227  0.839000
-0.075040  0.300160  0.804000
-0.073326  0.299413  0.802000
-0.071798  0.299413  0.802000
-0.070095  0.298667  0.800000
-0.068571  0.298667  0.800000
-0.067048  0.298667  0.800000
-0.065360  0.297920  0.798000
-0.063760  0.297547  0.797000
-0.062242  0.297547  0.797000
-0.060571  0.296800  0.795000
-0.059057  0.296800  0.795000
-0.057398  0.296053  0.793000
-0.055606  0.294560  0.789000
-0.054103  0.294560  0.789000
-0.052533  0.294187  0.788000
-0.050903  0.293440  0.786000
-0.049406  0.293440  0.786000
-0.047787  0.292693  0.784000
-0.046293  0.292693  0.784000
-0.044686  0.291947  0.782000
-0.043196  0.291947  0.782000
-0.041547  0.290827  0.779000
-0.039960  0.290080  0.777000
-0.038480  0.290080  0.777000
-0.036905  0.289333  0.775000
-0.035429  0.289333  0.775000
-0.033865  0.288587  0.773000
-0.032350  0.288213  0.772000
-0.030800  0.287467  0.770000
-0.029219  0.286347  0.767000
-0.027686  0.285600  0.765000
-0.026229  0.285600  0.765000
-0.024707  0.284853  0.763000
-0.023192  0.284107  0.761000
-0.021743  0.284107  0.761000
-0.020267  0.283733  0.760000
-0.018819  0.283733  0.760000
-0.017280  0.282240  0.756000
-0.015840  0.282240  0.756000
-0.014381  0.281867  0.755000
-0.012943  0.281867  0.755000
-0.011505  0.281867  0.755000
-0.010040  0.281120  0.753000
-0.008594  0.280747  0.752000
-0.007162  0.280747  0.752000
-0.005714  0.280000  0.750000
-0.004274  0.279253  0.748000
-0.002846  0.278880  0.747000
-0.001423  0.278880  0.747000
0.000000  0.278880  0.747000
0.001419  0.278133  0.745000
0.002838  0.278133  0.745000
0.004269  0.278880  0.747000
0.005691  0.278880  0.747000
0.007114  0.278880  0.747000
0.008537  0.278880  0.747000
0.010000  0.280000  0.750000
0.048091  0.294560  0.789000
0.049594  0.294560  0.789000
0.075790  0.322933  0.865000
0.077438  0.322933  0.865000
0.078811  0.321813  0.862000
0.080453  0.321813  0.862000
0.082381  0.322933  0.865000
0.084029  0.322933  0.865000
0.085874  0.323680  0.867000
0.087526  0.323680  0.867000
0.089383  0.324427  0.869000
0.091038  0.324427  0.869000
0.090453  0.316587  0.848000
0.092069  0.316587  0.848000
0.093684  0.316587  0.848000
0.095299  0.316587  0.848000
0.097143  0.317333  0.850000
0.099227  0.318827  0.854000
0.101090  0.319573  0.856000
0.102720  0.319573  0.856000
0.104350  0.319573  0.856000
0.108086  0.325920  0.873000
0.109749  0.325920  0.873000
0.111156  0.325173  0.871000
0.112815  0.325173  0.871000
0.112503  0.319573  0.856000
0.113867  0.318827  0.854000
0.115493  0.318827  0.854000
0.117120  0.318827  0.854000
0.119025  0.319573  0.856000
0.120655  0.319573  0.856000
0.122571  0.320320  0.858000
0.124495  0.321067  0.860000
0.126427  0.321813  0.862000
0.128514  0.322933  0.865000
0.130162  0.322933  0.865000
0.131810  0.322933  0.865000
0.133457  0.322933  0.865000
0.134636  0.321813  0.862000
0.136278  0.321813  0.862000
0.137920  0.321813  0.862000
0.139562  0.321813  0.862000
0.141204  0.321813  0.862000
0.142183  0.320320  0.858000
0.143817  0.320320  0.858000
0.145790  0.321067  0.860000
0.147086  0.320320  0.858000
0.148720  0.320320  0.858000
0.150004  0.319573  0.856000
0.151634  0.319573  0.856000
0.153265  0.319573  0.856000
0.154895  0.319573  0.856000
0.157623  0.321813  0.862000
0.162221  0.327787  0.878000
0.162960  0.325920  0.873000
0.163114  0.322933  0.865000
0.164762  0.322933  0.865000
0.167179  0.324427  0.869000
0.168834  0.324427  0.869000
0.170490  0.324427  0.869000
0.172145  0.324427  0.869000
0.173800  0.324427  0.869000
0.175455  0.324427  0.869000
0.177518  0.325173  0.871000
0.179589  0.325920  0.873000
0.181251  0.325920  0.873000
0.182914  0.325920  0.873000
0.184577  0.325920  0.873000
0.186240  0.325920  0.873000
0.187903  0.325920  0.873000
0.189131  0.325173  0.871000
0.190790  0.325173  0.871000
0.192008  0.324427  0.869000
0.193663  0.324427  0.869000
0.195768  0.325173  0.871000
0.177253  0.291947  0.782000
0.178743  0.291947  0.782000
0.180232  0.291947  0.782000
0.181025  0.290827  0.779000
0.182509  0.290827  0.779000
0.183992  0.290827  0.779000
0.200714  0.314720  0.843000
0.184320  0.286720  0.768000
0.185783  0.286720  0.768000
0.187246  0.286720  0.768000
0.210331  0.319573  0.856000
0.211962  0.319573  0.856000
0.214590  0.321067  0.860000
0.216229  0.321067  0.860000
0.217360  0.320320  0.858000
0.218994  0.320320  0.858000
0.220629  0.320320  0.858000
0.222263  0.320320  0.858000
0.224419  0.321067  0.860000
0.226583  0.321813  0.862000
0.227695  0.321067  0.860000
0.228800  0.320320  0.858000
0.229360  0.318827  0.854000
0.229905  0.317333  0.850000
0.230979  0.316587  0.848000
0.231771  0.315467  0.845000
0.232276  0.313973  0.841000
0.233878  0.313973  0.841000
0.235480  0.313973  0.841000
0.248076  0.328533  0.880000
0.249752  0.328533  0.880000
0.251429  0.328533  0.880000
0.253105  0.328533  0.880000
0.254781  0.328533  0.880000
0.256457  0.328533  0.880000
0.250507  0.318827  0.854000
0.252133  0.318827  0.854000
0.254354  0.319573  0.856000
0.255985  0.319573  0.856000
0.257615  0.319573  0.856000
0.259246  0.319573  0.856000
0.261486  0.320320  0.858000
0.263120  0.320320  0.858000
0.265371  0.321067  0.860000
0.267010  0.321067  0.860000
0.274270  0.327787  0.878000
0.275943  0.327787  0.878000
0.277615  0.327787  0.878000
0.279924  0.328533  0.880000
0.281600  0.328533  0.880000
0.276194  0.320320  0.858000
0.277829  0.320320  0.858000
0.280114  0.321067  0.860000
0.281752  0.321067  0.860000
0.283390  0.321067  0.860000
0.285029  0.321067  0.860000
0.286667  0.321067  0.860000
0.286293  0.318827  0.854000
0.287920  0.318827  0.854000
0.290225  0.319573  0.856000
0.293901  0.321813  0.862000
0.294857  0.321067  0.860000
0.296495  0.321067  0.860000
0.299867  0.322933  0.865000
0.302909  0.324427  0.869000
0.304564  0.324427  0.869000
0.306924  0.325173  0.871000
0.306457  0.322933  0.865000
0.308105  0.322933  0.865000
0.310469  0.323680  0.867000
0.311400  0.322933  0.865000
0.313048  0.322933  0.865000
0.313604  0.321813  0.862000
0.315246  0.321813  0.862000
0.316888  0.321813  0.862000
0.318530  0.321813  0.862000
0.314971  0.316587  0.848000
0.316587  0.316587  0.848000
0.320453  0.318827  0.854000
0.322834  0.319573  0.856000
0.324465  0.319573  0.856000
0.326857  0.320320  0.858000
0.327726  0.319573  0.856000
0.329356  0.319573  0.856000
0.331760  0.320320  0.858000
0.331840  0.318827  0.854000
0.332686  0.318080  0.852000
0.334309  0.318080  0.852000
0.333171  0.315467  0.845000
0.334781  0.315467  0.845000
0.339973  0.318827  0.854000
0.341600  0.318827  0.854000
0.344030  0.319573  0.856000
0.345661  0.319573  0.856000
0.348103  0.320320  0.858000
0.348922  0.319573  0.856000
0.350552  0.319573  0.856000
0.351360  0.318827  0.854000
0.351333  0.317333  0.850000
0.352952  0.317333  0.850000
0.356240  0.318827  0.854000
0.357867  0.318827  0.854000
0.359493  0.318827  0.854000
0.361120  0.318827  0.854000
0.362747  0.318827  0.854000
-0.487088  0.306570  0.817000
-0.485531  0.306570  0.817000
-0.483975  0.306570  0.817000
-0.483600  0.307320  0.819000
-0.482040  0.307320  0.819000
-0.480480  0.307320  0.819000
-0.480090  0.308070  0.821000
-0.480857  0.309571  0.825000
-0.482771  0.311823  0.831000
-0.483505  0.313324  0.835000
-0.485377  0.315575  0.841000
-0.483775  0.315575  0.841000
-0.482173  0.315575  0.841000
-0.480571  0.315575  0.841000
-0.477830  0.314825  0.839000
-0.476232  0.314825  0.839000
-0.473503  0.314074  0.837000
-0.470781  0.313324  0.835000
-0.469190  0.313324  0.835000
-0.466480  0.312573  0.833000
-0.462661  0.311072  0.829000
-0.461082  0.311072  0.829000
-0.458394  0.310322  0.827000
-0.456819  0.310322  0.827000
-0.455244  0.310322  0.827000
-0.453669  0.310322  0.827000
-0.453187  0.311072  0.829000
-0.451608  0.311072  0.829000
-0.453286  0.313324  0.835000
-0.441958  0.306570  0.817000
-0.440402  0.306570  0.817000
-0.440994  0.308070  0.821000
-0.439430  0.308070  0.821000
-0.438933  0.308821  0.823000
-0.435240  0.307320  0.819000
-0.433680  0.307320  0.819000
-0.433175  0.308070  0.821000
-0.431611  0.308070  0.821000
-0.430048  0.308070  0.821000
-0.428484  0.308070  0.821000
-0.427429  0.309571  0.825000
-0.425857  0.309571  0.825000
-0.424286  0.309571  0.825000
-0.423739  0.310322  0.827000
-0.423185  0.311072  0.829000
-0.421606  0.311072  0.829000
-0.420027  0.311072  0.829000
-0.418448  0.311072  0.829000
-0.416869  0.311072  0.829000
-0.415290  0.311072  0.829000
-0.413710  0.311072  0.829000
-0.412131  0.311072  0.829000
-0.410552  0.311072  0.829000
-0.406013  0.308821  0.823000
-0.403463  0.308070  0.821000
-0.401899  0.308070  0.821000
-0.400335  0.308070  0.821000
-0.398771  0.308070  0.821000
-0.397208  0.308070  0.821000
-0.395644  0.308070  0.821000
-0.394080  0.308070  0.821000
-0.392516  0.308070  0.821000
-0.391905  0.308821  0.823000
-0.390337  0.308821  0.823000
-0.387825  0.308070  0.821000
-0.386261  0.308070  0.821000
-0.384697  0.308070  0.821000
-0.383133  0.308070  0.821000
-0.381570  0.308070  0.821000
-0.380006  0.308070  0.821000
-0.378442  0.308070  0.821000
-0.379632  0.310322  0.827000
-0.379886  0.311823  0.831000
-0.378303  0.311823  0.831000
-0.378533  0.313324  0.835000
-0.376943  0.313324  0.835000
-0.375352  0.313324  0.835000
-0.373762  0.313324  0.835000
-0.372171  0.313324  0.835000
-0.371469  0.314074  0.837000
-0.370758  0.314825  0.839000
-0.370040  0.315575  0.841000
-0.365143  0.319703  0.852000
-0.363520  0.319703  0.852000
-0.358924  0.317076  0.845000
-0.356469  0.316326  0.843000
-0.354021  0.315575  0.841000
-0.344038  0.308070  0.821000
-0.342474  0.308070  0.821000
-0.350046  0.316326  0.843000
-0.347613  0.315575  0.841000
-0.345189  0.314825  0.839000
-0.343590  0.314825  0.839000
-0.341992  0.314825  0.839000
-0.341206  0.315575  0.841000
-0.338796  0.314825  0.839000
-0.337198  0.314825  0.839000
-0.334800  0.314074  0.837000
-0.332410  0.313324  0.835000
-0.330819  0.313324  0.835000
-0.330017  0.314074  0.837000
-0.329992  0.315575  0.841000
-0.329952  0.317076  0.845000
-0.328343  0.317076  0.845000
-0.328667  0.318952  0.850000
-0.327048  0.318952  0.850000
-0.325429  0.318952  0.850000
-0.312000  0.307320  0.819000
-0.310440  0.307320  0.819000
-0.309634  0.308070  0.821000
-0.308070  0.308070  0.821000
-0.306507  0.308070  0.821000
-0.306429  0.309571  0.825000
-0.306335  0.311072  0.829000
-0.304756  0.311072  0.829000
-0.303909  0.311823  0.831000
-0.303781  0.313324  0.835000
-0.302914  0.314074  0.837000
-0.294840  0.307320  0.819000
-0.293280  0.307320  0.819000
-0.291720  0.307320  0.819000
-0.290160  0.307320  0.819000
-0.288600  0.307320  0.819000
-0.287741  0.308070  0.821000
-0.286177  0.308070  0.821000
-0.294667  0.318952  0.850000
-0.290634  0.316326  0.843000
-0.289029  0.316326  0.843000
-0.285377  0.314074  0.837000
-0.283783  0.314074  0.837000
-0.282189  0.314074  0.837000
-0.281265  0.314825  0.839000
-0.279667  0.314825  0.839000
-0.278069  0.314825  0.839000
-0.273175  0.311072  0.829000
-0.271596  0.311072  0.829000
-0.270017  0.311072  0.829000
-0.268438  0.311072  0.829000
-0.266859  0.311072  0.829000
-0.265280  0.311072  0.829000
-0.263701  0.311072  0.829000
-0.262122  0.311072  0.829000
-0.261171  0.311823  0.831000
-0.259589  0.311823  0.831000
-0.258006  0.311823  0.831000
-0.256423  0.311823  0.831000
-0.254840  0.311823  0.831000
-0.254476  0.313324  0.835000
-0.252886  0.313324  0.835000
-0.251897  0.314074  0.837000
-0.250901  0.314825  0.839000
-0.249897  0.315575  0.841000
-0.248295  0.315575  0.841000
-0.246693  0.315575  0.841000
-0.245091  0.315575  0.841000
-0.243490  0.315575  0.841000
-0.242463  0.316326  0.843000
-0.241429  0.317076  0.845000
-0.240670  0.318202  0.848000
-0.240747  0.320453  0.854000
-0.239680  0.321204  0.856000
-0.238050  0.321204  0.856000
-0.235314  0.319703  0.852000
-0.230126  0.314825  0.839000
-0.226349  0.311823  0.831000
-0.224766  0.311823  0.831000
-0.223183  0.311823  0.831000
-0.225333  0.317076  0.845000
-0.223724  0.317076  0.845000
-0.222114  0.317076  0.845000
-0.220505  0.317076  0.845000
-0.189486  0.311072  0.829000
-0.187907  0.311072  0.829000
-0.186328  0.311072  0.829000
-0.184749  0.311072  0.829000
-0.181844  0.308821  0.823000
-0.179838  0.308070  0.821000
-0.178274  0.308070  0.821000
-0.176710  0.308070  0.821000
-0.175573  0.308821  0.823000
-0.174006  0.308821  0.823000
-0.173695  0.311072  0.829000
-0.173362  0.313324  0.835000
-0.171771  0.313324  0.835000
-0.169773  0.312573  0.833000
-0.168187  0.312573  0.833000
-0.167000  0.313324  0.835000
-0.165410  0.313324  0.835000
-0.164211  0.314074  0.837000
-0.162229  0.313324  0.835000
-0.160638  0.313324  0.835000
-0.159429  0.314074  0.837000
-0.157834  0.314074  0.837000
-0.156613  0.314825  0.839000
-0.154646  0.314074  0.837000
-0.153051  0.314074  0.837000
-0.152543  0.316326  0.843000
-0.150221  0.314825  0.839000
-0.148269  0.314074  0.837000
-0.146674  0.314074  0.837000
-0.145427  0.314825  0.839000
-0.143486  0.314074  0.837000
-0.141891  0.314074  0.837000
-0.140297  0.314074  0.837000
-0.138703  0.314074  0.837000
-0.137436  0.314825  0.839000
-0.136810  0.317076  0.845000
-0.134880  0.316326  0.843000
-0.132326  0.314074  0.837000
-0.130731  0.314074  0.837000
-0.129446  0.314825  0.839000
-0.127848  0.314825  0.839000
-0.071977  0.301691  0.804000
-0.070270  0.300941  0.802000
-0.068571  0.300190  0.800000
