# .PCD v.5 - Point Cloud Data file format
FIELDS x y z 
SIZE 4 4 4
TYPE F F F
COUNT 1 1 1
WIDTH 1618
HEIGHT 1
POINTS 1618
DATA ascii
0.362690  0.178339  1.052000
0.364693  0.178339  1.052000
0.366697  0.178339  1.052000
0.368701  0.178339  1.052000
-0.494556  0.169886  0.991000
-0.491177  0.169371  0.988000
-0.489295  0.169371  0.988000
-0.488893  0.169886  0.991000
-0.485531  0.169371  0.988000
-0.483650  0.169371  0.988000
-0.483230  0.169886  0.991000
-0.481343  0.169886  0.991000
-0.485261  0.171943  1.003000
-0.483350  0.171943  1.003000
-0.481440  0.171943  1.003000
-0.476661  0.170914  0.997000
-0.474762  0.170914  0.997000
-0.471440  0.170400  0.994000
-0.469547  0.170400  0.994000
-0.466242  0.169886  0.991000
-0.464354  0.169886  0.991000
-0.462467  0.169886  0.991000
-0.460579  0.169886  0.991000
-0.460080  0.170400  0.994000
-0.459570  0.170914  0.997000
-0.461802  0.172457  1.006000
-0.459886  0.172457  1.006000
-0.457970  0.172457  1.006000
-0.456960  0.172800  1.008000
-0.454137  0.172457  1.006000
-0.452221  0.172457  1.006000
-0.448962  0.171943  1.003000
-0.445714  0.171429  1.000000
-0.443810  0.171429  1.000000
-0.444556  0.172457  1.006000
-0.442640  0.172457  1.006000
-0.440724  0.172457  1.006000
-0.438808  0.172457  1.006000
-0.437760  0.172800  1.008000
-0.437137  0.173314  1.011000
-0.435211  0.173314  1.011000
-0.433286  0.173314  1.011000
-0.430080  0.172800  1.008000
-0.427310  0.172457  1.006000
-0.425394  0.172457  1.006000
-0.417164  0.169886  0.991000
-0.415276  0.169886  0.991000
-0.414640  0.170400  0.994000
-0.412747  0.170400  0.994000
-0.410853  0.170400  0.994000
-0.410194  0.170914  0.997000
-0.408295  0.170914  0.997000
-0.406396  0.170914  0.997000
-0.403280  0.170400  0.994000
-0.401387  0.170400  0.994000
-0.399493  0.170400  0.994000
-0.398800  0.170914  0.997000
-0.399290  0.171943  1.003000
-0.400549  0.173314  1.011000
-0.396651  0.172457  1.006000
-0.394735  0.172457  1.006000
-0.394771  0.173314  1.011000
-0.392846  0.173314  1.011000
-0.390920  0.173314  1.011000
-0.388994  0.173314  1.011000
-0.385920  0.172800  1.008000
-0.384000  0.172800  1.008000
-0.382080  0.172800  1.008000
-0.379406  0.172457  1.006000
-0.377490  0.172457  1.006000
-0.375573  0.172457  1.006000
-0.374400  0.172800  1.008000
-0.372480  0.172800  1.008000
-0.370560  0.172800  1.008000
-0.368640  0.172800  1.008000
-0.367811  0.173314  1.011000
-0.366971  0.173829  1.014000
-0.365040  0.173829  1.014000
-0.360960  0.172800  1.008000
-0.359040  0.172800  1.008000
-0.357120  0.172800  1.008000
-0.357314  0.173829  1.014000
-0.354331  0.173314  1.011000
-0.352406  0.173314  1.011000
-0.350480  0.173314  1.011000
-0.348554  0.173314  1.011000
-0.346629  0.173314  1.011000
-0.345726  0.173829  1.014000
-0.343794  0.173829  1.014000
-0.341863  0.173829  1.014000
-0.339931  0.173829  1.014000
-0.338000  0.173829  1.014000
-0.336069  0.173829  1.014000
-0.334137  0.173829  1.014000
-0.331223  0.173314  1.011000
-0.329297  0.173314  1.011000
-0.327371  0.173314  1.011000
-0.325446  0.173314  1.011000
-0.323520  0.173314  1.011000
-0.321594  0.173314  1.011000
-0.319669  0.173314  1.011000
-0.317743  0.173314  1.011000
-0.316754  0.173829  1.014000
-0.314823  0.173829  1.014000
-0.312891  0.173829  1.014000
-0.310960  0.173829  1.014000
-0.309029  0.173829  1.014000
-0.307097  0.173829  1.014000
-0.305166  0.173829  1.014000
-0.302337  0.173314  1.011000
-0.300411  0.173314  1.011000
-0.298486  0.173314  1.011000
-0.297440  0.173829  1.014000
-0.295509  0.173829  1.014000
-0.293577  0.173829  1.014000
-0.291646  0.173829  1.014000
-0.289714  0.173829  1.014000
-0.289486  0.174857  1.020000
-0.288389  0.175371  1.023000
-0.288400  0.176571  1.030000
-0.287272  0.177086  1.033000
-0.286133  0.177600  1.036000
-0.284160  0.177600  1.036000
-0.282187  0.177600  1.036000
-0.280213  0.177600  1.036000
-0.278240  0.177600  1.036000
-0.270400  0.173829  1.014000
-0.268469  0.173829  1.014000
-0.266537  0.173829  1.014000
-0.265389  0.174343  1.017000
-0.264229  0.174857  1.020000
-0.263057  0.175371  1.023000
-0.261109  0.175371  1.023000
-0.259920  0.175886  1.026000
-0.257211  0.175371  1.023000
-0.255263  0.175371  1.023000
-0.253314  0.175371  1.023000
-0.251366  0.175371  1.023000
-0.249417  0.175371  1.023000
-0.246743  0.174857  1.020000
-0.244800  0.174857  1.020000
-0.243571  0.175371  1.023000
-0.241623  0.175371  1.023000
-0.239674  0.175371  1.023000
-0.237726  0.175371  1.023000
-0.236469  0.175886  1.026000
-0.234514  0.175886  1.026000
-0.232560  0.175886  1.026000
-0.230606  0.175886  1.026000
-0.228651  0.175886  1.026000
-0.226034  0.175371  1.023000
-0.223429  0.174857  1.020000
-0.221486  0.174857  1.020000
-0.218251  0.173829  1.014000
-0.216320  0.173829  1.014000
-0.214389  0.173829  1.014000
-0.213086  0.174343  1.017000
-0.211149  0.174343  1.017000
-0.209829  0.174857  1.020000
-0.208497  0.175371  1.023000
-0.208568  0.177086  1.033000
-0.206600  0.177086  1.033000
-0.204632  0.177086  1.033000
-0.203253  0.177600  1.036000
-0.201280  0.177600  1.036000
-0.199307  0.177600  1.036000
-0.197333  0.177600  1.036000
-0.195360  0.177600  1.036000
-0.193387  0.177600  1.036000
-0.191413  0.177600  1.036000
-0.189440  0.177600  1.036000
-0.145722  0.179657  1.048000
-0.143726  0.179657  1.048000
-0.141730  0.179657  1.048000
-0.139333  0.179143  1.045000
-0.137343  0.179143  1.045000
-0.135741  0.179657  1.048000
-0.133745  0.179657  1.048000
-0.131371  0.179143  1.045000
-0.129010  0.178629  1.042000
-0.127025  0.178629  1.042000
-0.125040  0.178629  1.042000
-0.123410  0.179143  1.045000
-0.121070  0.178629  1.042000
-0.118743  0.178114  1.039000
-0.116427  0.177600  1.036000
-0.114453  0.177600  1.036000
-0.112480  0.177600  1.036000
-0.110507  0.177600  1.036000
-0.109162  0.178629  1.042000
-0.107177  0.178629  1.042000
-0.104587  0.177600  1.036000
-0.102613  0.177600  1.036000
-0.101223  0.178629  1.042000
-0.097429  0.175371  1.023000
-0.095480  0.175371  1.023000
-0.093806  0.175886  1.026000
-0.092210  0.176571  1.030000
-0.090248  0.176571  1.030000
-0.088286  0.176571  1.030000
-0.086324  0.176571  1.030000
-0.084362  0.176571  1.030000
-0.082640  0.177086  1.033000
-0.080672  0.177086  1.033000
-0.078705  0.177086  1.033000
-0.076960  0.177600  1.036000
-0.074987  0.177600  1.036000
-0.073225  0.178114  1.039000
-0.071246  0.178114  1.039000
-0.069067  0.177600  1.036000
-0.067093  0.177600  1.036000
-0.065120  0.177600  1.036000
-0.062964  0.177086  1.033000
-0.060996  0.177086  1.033000
-0.059029  0.177086  1.033000
-0.057227  0.177600  1.036000
-0.055253  0.177600  1.036000
-0.053280  0.177600  1.036000
-0.051307  0.177600  1.036000
-0.049333  0.177600  1.036000
-0.047497  0.178114  1.039000
-0.045518  0.178114  1.039000
-0.043413  0.177600  1.036000
-0.041440  0.177600  1.036000
-0.039467  0.177600  1.036000
-0.037493  0.177600  1.036000
-0.035623  0.178114  1.039000
-0.033547  0.177600  1.036000
-0.031573  0.177600  1.036000
-0.029600  0.177600  1.036000
-0.027627  0.177600  1.036000
-0.025728  0.178114  1.039000
-0.023749  0.178114  1.039000
-0.021770  0.178114  1.039000
-0.019790  0.178114  1.039000
-0.017966  0.179657  1.048000
-0.015970  0.179657  1.048000
-0.014027  0.180343  1.052000
-0.012023  0.180343  1.052000
-0.010019  0.180343  1.052000
-0.007916  0.178114  1.039000
-0.005937  0.178114  1.039000
-0.003970  0.178629  1.042000
-0.001979  0.178114  1.039000
0.000000  0.178114  1.039000
0.001979  0.178114  1.039000
0.003958  0.178114  1.039000
0.005971  0.179143  1.045000
0.007985  0.179657  1.048000
0.009981  0.179657  1.048000
0.011771  0.176571  1.030000
0.013733  0.176571  1.030000
0.015741  0.177086  1.033000
0.017709  0.177086  1.033000
0.019676  0.177086  1.033000
0.021707  0.177600  1.036000
0.023680  0.177600  1.036000
0.025802  0.178629  1.042000
0.027787  0.178629  1.042000
0.029771  0.178629  1.042000
0.031756  0.178629  1.042000
0.033741  0.178629  1.042000
0.035726  0.178629  1.042000
0.037710  0.178629  1.042000
0.039695  0.178629  1.042000
0.041680  0.178629  1.042000
0.043665  0.178629  1.042000
0.045650  0.178629  1.042000
0.047909  0.179657  1.048000
0.049905  0.179657  1.048000
0.051901  0.179657  1.048000
0.054103  0.180343  1.052000
0.056107  0.180343  1.052000
0.058110  0.180343  1.052000
0.060114  0.180343  1.052000
0.062118  0.180343  1.052000
0.064122  0.180343  1.052000
0.066126  0.180343  1.052000
0.068130  0.180343  1.052000
0.070133  0.180343  1.052000
0.072137  0.180343  1.052000
0.074352  0.180857  1.055000
0.076145  0.180343  1.052000
0.078149  0.180343  1.052000
0.080381  0.180857  1.055000
0.082390  0.180857  1.055000
0.084400  0.180857  1.055000
0.086410  0.180857  1.055000
0.088168  0.180343  1.052000
0.090171  0.180343  1.052000
0.092175  0.180343  1.052000
0.094179  0.180343  1.052000
0.096183  0.180343  1.052000
0.098187  0.180343  1.052000
0.100190  0.180343  1.052000
0.101806  0.179657  1.048000
0.103802  0.179657  1.048000
0.106202  0.180343  1.052000
0.108206  0.180343  1.052000
0.110210  0.180343  1.052000
0.112533  0.180857  1.055000
0.114217  0.180343  1.052000
0.116221  0.180343  1.052000
0.118225  0.180343  1.052000
0.120571  0.180857  1.055000
0.122930  0.181371  1.058000
0.124945  0.181371  1.058000
0.125400  0.179143  1.045000
0.127025  0.178629  1.042000
0.129010  0.178629  1.042000
0.130994  0.178629  1.042000
0.132979  0.178629  1.042000
0.134964  0.178629  1.042000
0.137343  0.179143  1.045000
0.139333  0.179143  1.045000
0.142270  0.180343  1.052000
0.144686  0.180857  1.055000
0.146695  0.180857  1.055000
0.148705  0.180857  1.055000
0.150286  0.180343  1.052000
0.151710  0.179657  1.048000
0.153707  0.179657  1.048000
0.155703  0.179657  1.048000
0.157699  0.179657  1.048000
0.159695  0.179657  1.048000
0.161691  0.179657  1.048000
0.164312  0.180343  1.052000
0.166316  0.180343  1.052000
0.168800  0.180857  1.055000
0.170810  0.180857  1.055000
0.172819  0.180857  1.055000
0.174829  0.180857  1.055000
0.176838  0.180857  1.055000
0.178339  0.180343  1.052000
0.180343  0.180343  1.052000
0.181653  0.179657  1.048000
0.183124  0.179143  1.045000
0.185114  0.179143  1.045000
0.187105  0.179143  1.045000
0.188552  0.178629  1.042000
0.190537  0.178629  1.042000
0.192522  0.178629  1.042000
0.194507  0.178629  1.042000
0.196491  0.178629  1.042000
0.198476  0.178629  1.042000
0.201038  0.179143  1.045000
0.203029  0.179143  1.045000
0.207570  0.181371  1.058000
0.209585  0.181371  1.058000
0.211600  0.181371  1.058000
0.213615  0.181371  1.058000
0.216242  0.181886  1.061000
0.218263  0.181886  1.061000
0.220284  0.181886  1.061000
0.221676  0.181371  1.058000
0.222423  0.180343  1.052000
0.222933  0.179143  1.045000
0.224924  0.179143  1.045000
0.227566  0.179657  1.048000
0.230438  0.180343  1.052000
0.232442  0.180343  1.052000
0.234446  0.180343  1.052000
0.236450  0.180343  1.052000
0.239813  0.181371  1.058000
0.241829  0.181371  1.058000
0.241539  0.179657  1.048000
0.242838  0.179143  1.045000
0.244829  0.179143  1.045000
0.246110  0.178629  1.042000
0.248095  0.178629  1.042000
0.250080  0.178629  1.042000
0.253516  0.179657  1.048000
0.256488  0.180343  1.052000
0.258491  0.180343  1.052000
0.260495  0.180343  1.052000
0.263248  0.180857  1.055000
0.266011  0.181371  1.058000
0.268787  0.181886  1.061000
0.271573  0.182400  1.064000
0.273600  0.182400  1.064000
0.274850  0.181886  1.061000
0.276870  0.181886  1.061000
0.278103  0.181371  1.058000
0.280118  0.181371  1.058000
0.281333  0.180857  1.055000
0.283343  0.180857  1.055000
0.285352  0.180857  1.055000
0.287362  0.180857  1.055000
0.290194  0.181371  1.058000
0.292210  0.181371  1.058000
0.295059  0.181886  1.061000
0.297080  0.181886  1.061000
0.299101  0.181886  1.061000
0.301973  0.182400  1.064000
0.305143  0.183086  1.068000
0.308040  0.183600  1.071000
0.310080  0.183600  1.071000
0.301920  0.177600  1.036000
0.318267  0.186000  1.085000
0.320333  0.186000  1.085000
0.322400  0.186000  1.085000
0.324467  0.186000  1.085000
0.326533  0.186000  1.085000
0.325269  0.184114  1.074000
0.327314  0.184114  1.074000
0.328440  0.183600  1.071000
0.328320  0.182400  1.064000
0.330347  0.182400  1.064000
0.332373  0.182400  1.064000
0.334400  0.182400  1.064000
0.335478  0.181886  1.061000
0.337499  0.181886  1.061000
0.339520  0.181886  1.061000
0.341541  0.181886  1.061000
0.342590  0.181371  1.058000
0.344606  0.181371  1.058000
0.345638  0.180857  1.055000
0.347648  0.180857  1.055000
0.349657  0.180857  1.055000
0.351667  0.180857  1.055000
0.354682  0.181371  1.058000
0.355686  0.180857  1.055000
0.357695  0.180857  1.055000
0.358682  0.180343  1.052000
0.360686  0.180343  1.052000
0.361310  0.179657  1.048000
0.363307  0.179657  1.048000
0.364257  0.179143  1.045000
0.366248  0.179143  1.045000
-0.493059  0.171253  0.988000
-0.489686  0.170733  0.985000
-0.487810  0.170733  0.985000
-0.488893  0.171773  0.991000
-0.485531  0.171253  0.988000
-0.483650  0.171253  0.988000
-0.483230  0.171773  0.991000
-0.481343  0.171773  0.991000
-0.482358  0.172813  0.997000
-0.481905  0.173333  1.000000
-0.478560  0.172813  0.997000
-0.475227  0.172293  0.994000
-0.473333  0.172293  0.994000
-0.470017  0.171773  0.991000
-0.468130  0.171773  0.991000
-0.464830  0.171253  0.988000
-0.462949  0.171253  0.988000
-0.461067  0.171253  0.988000
-0.459185  0.171253  0.988000
-0.458691  0.171773  0.991000
-0.456804  0.171773  0.991000
-0.456293  0.172293  0.994000
-0.455771  0.172813  0.997000
-0.453872  0.172813  0.997000
-0.454693  0.173853  1.003000
-0.451429  0.173333  1.000000
-0.448175  0.172813  0.997000
-0.444933  0.172293  0.994000
-0.443040  0.172293  0.994000
-0.442478  0.172813  0.997000
-0.441905  0.173333  1.000000
-0.440000  0.173333  1.000000
-0.438095  0.173333  1.000000
-0.436190  0.173333  1.000000
-0.435589  0.173853  1.003000
-0.435840  0.174720  1.008000
-0.433920  0.174720  1.008000
-0.424714  0.171773  0.991000
-0.422827  0.171773  0.991000
-0.420939  0.171773  0.991000
-0.419051  0.171773  0.991000
-0.417164  0.171773  0.991000
-0.415276  0.171773  0.991000
-0.413389  0.171773  0.991000
-0.411501  0.171773  0.991000
-0.409613  0.171773  0.991000
-0.406491  0.171253  0.988000
-0.404610  0.171253  0.988000
-0.402728  0.171253  0.988000
-0.402063  0.171773  0.991000
-0.400175  0.171773  0.991000
-0.398288  0.171773  0.991000
-0.397600  0.172293  0.994000
-0.398095  0.173333  1.000000
-0.396190  0.173333  1.000000
-0.394286  0.173333  1.000000
-0.393558  0.173853  1.003000
-0.393600  0.174720  1.008000
-0.391680  0.174720  1.008000
-0.389760  0.174720  1.008000
-0.387070  0.174373  1.006000
-0.384006  0.173853  1.003000
-0.382095  0.173853  1.003000
-0.380185  0.173853  1.003000
-0.377143  0.173333  1.000000
-0.375238  0.173333  1.000000
-0.374453  0.173853  1.003000
-0.372543  0.173853  1.003000
-0.370632  0.173853  1.003000
-0.368722  0.173853  1.003000
-0.367909  0.174373  1.006000
-0.365992  0.174373  1.006000
-0.364800  0.174720  1.008000
-0.358920  0.172813  0.997000
-0.357021  0.172813  0.997000
-0.356190  0.173333  1.000000
-0.354286  0.173333  1.000000
-0.353438  0.173853  1.003000
-0.351528  0.173853  1.003000
-0.349617  0.173853  1.003000
-0.347707  0.173853  1.003000
-0.345796  0.173853  1.003000
-0.344914  0.174373  1.006000
-0.343680  0.174720  1.008000
-0.341760  0.174720  1.008000
-0.339840  0.174720  1.008000
-0.338926  0.175240  1.011000
-0.337000  0.175240  1.011000
-0.335074  0.175240  1.011000
-0.333149  0.175240  1.011000
-0.330240  0.174720  1.008000
-0.328320  0.174720  1.008000
-0.326400  0.174720  1.008000
-0.325446  0.175240  1.011000
-0.323520  0.175240  1.011000
-0.321594  0.175240  1.011000
-0.319669  0.175240  1.011000
-0.317743  0.175240  1.011000
-0.315817  0.175240  1.011000
-0.313891  0.175240  1.011000
-0.311966  0.175240  1.011000
-0.310040  0.175240  1.011000
-0.308114  0.175240  1.011000
-0.306189  0.175240  1.011000
-0.304263  0.175240  1.011000
-0.301440  0.174720  1.008000
-0.299520  0.174720  1.008000
-0.297600  0.174720  1.008000
-0.296560  0.175240  1.011000
-0.294634  0.175240  1.011000
-0.292709  0.175240  1.011000
-0.290783  0.175240  1.011000
-0.287429  0.174373  1.006000
-0.285512  0.174373  1.006000
-0.280213  0.172293  0.994000
-0.278320  0.172293  0.994000
-0.276427  0.172293  0.994000
-0.274533  0.172293  0.994000
-0.274286  0.173333  1.000000
-0.272381  0.173333  1.000000
-0.270476  0.173333  1.000000
-0.269377  0.173853  1.003000
-0.267467  0.173853  1.003000
-0.266350  0.174373  1.006000
-0.264434  0.174373  1.006000
-0.263823  0.175240  1.011000
-0.262674  0.175760  1.014000
-0.262286  0.176800  1.020000
-0.260343  0.176800  1.020000
-0.258400  0.176800  1.020000
-0.255703  0.176280  1.017000
-0.253017  0.175760  1.014000
-0.251086  0.175760  1.014000
-0.249154  0.175760  1.014000
-0.247223  0.175760  1.014000
-0.245291  0.175760  1.014000
-0.243360  0.175760  1.014000
-0.242143  0.176280  1.017000
-0.240914  0.176800  1.020000
-0.239674  0.177320  1.023000
-0.237726  0.177320  1.023000
-0.235777  0.177320  1.023000
-0.233829  0.177320  1.023000
-0.231880  0.177320  1.023000
-0.229257  0.176800  1.020000
-0.226646  0.176280  1.017000
-0.224046  0.175760  1.014000
-0.222114  0.175760  1.014000
-0.219531  0.175240  1.011000
-0.216960  0.174720  1.008000
-0.215040  0.174720  1.008000
-0.213120  0.174720  1.008000
-0.211829  0.175240  1.011000
-0.210526  0.175760  1.014000
-0.207977  0.175240  1.011000
-0.206051  0.175240  1.011000
-0.204731  0.175760  1.014000
-0.203400  0.176280  1.017000
-0.203246  0.177840  1.026000
-0.202076  0.178533  1.030000
-0.200697  0.179053  1.033000
-0.198730  0.179053  1.033000
-0.196762  0.179053  1.033000
-0.194229  0.178533  1.030000
-0.192267  0.178533  1.030000
-0.190859  0.179053  1.033000
-0.188891  0.179053  1.033000
-0.137737  0.181653  1.048000
-0.135741  0.181653  1.048000
-0.133745  0.181653  1.048000
-0.130994  0.180613  1.042000
-0.128638  0.180093  1.039000
-0.126659  0.180093  1.039000
-0.124680  0.180093  1.039000
-0.123055  0.180613  1.042000
-0.121070  0.180613  1.042000
-0.118400  0.179573  1.036000
-0.116427  0.179573  1.036000
-0.114453  0.179573  1.036000
-0.112154  0.179053  1.033000
-0.110187  0.179053  1.033000
-0.108219  0.179053  1.033000
-0.106560  0.179573  1.036000
-0.104587  0.179573  1.036000
-0.101326  0.177320  1.023000
-0.099377  0.177320  1.023000
-0.097429  0.177320  1.023000
-0.095480  0.177320  1.023000
-0.093531  0.177320  1.023000
-0.091851  0.177840  1.026000
-0.089897  0.177840  1.026000
-0.087943  0.177840  1.026000
-0.085989  0.177840  1.026000
-0.084362  0.178533  1.030000
-0.082640  0.179053  1.033000
-0.080438  0.178533  1.030000
-0.078476  0.178533  1.030000
-0.076737  0.179053  1.033000
-0.074770  0.179053  1.033000
-0.072802  0.179053  1.033000
-0.070834  0.179053  1.033000
-0.068667  0.178533  1.030000
-0.066705  0.178533  1.030000
-0.064743  0.178533  1.030000
-0.062781  0.178533  1.030000
-0.060583  0.177840  1.026000
-0.058629  0.177840  1.026000
-0.056895  0.178533  1.030000
-0.054933  0.178533  1.030000
-0.052971  0.178533  1.030000
-0.051158  0.179053  1.033000
-0.049190  0.179053  1.033000
-0.047360  0.179573  1.036000
-0.045387  0.179573  1.036000
-0.043162  0.178533  1.030000
-0.041200  0.178533  1.030000
-0.039352  0.179053  1.033000
-0.037385  0.179053  1.033000
-0.035520  0.179573  1.036000
-0.033450  0.179053  1.033000
-0.031482  0.179053  1.033000
-0.029514  0.179053  1.033000
-0.027547  0.179053  1.033000
-0.025579  0.179053  1.033000
-0.023543  0.178533  1.030000
-0.021497  0.177840  1.026000
-0.019543  0.177840  1.026000
-0.017966  0.181653  1.048000
-0.015970  0.181653  1.048000
-0.014027  0.182347  1.052000
-0.011691  0.177320  1.023000
-0.009743  0.177320  1.023000
-0.007794  0.177320  1.023000
-0.005937  0.180093  1.039000
-0.003947  0.179573  1.036000
-0.001962  0.178533  1.030000
0.000000  0.178533  1.030000
0.001973  0.179573  1.036000
0.003947  0.179573  1.036000
0.005920  0.179573  1.036000
0.007817  0.177840  1.026000
0.009771  0.177840  1.026000
0.011726  0.177840  1.026000
0.013733  0.178533  1.030000
0.015695  0.178533  1.030000
0.017657  0.178533  1.030000
0.019676  0.179053  1.033000
0.021707  0.179573  1.036000
0.023680  0.179573  1.036000
0.025653  0.179573  1.036000
0.027627  0.179573  1.036000
0.029600  0.179573  1.036000
0.031482  0.179053  1.033000
0.033450  0.179053  1.033000
0.035520  0.179573  1.036000
0.037385  0.179053  1.033000
0.039352  0.179053  1.033000
0.041440  0.179573  1.036000
0.043413  0.179573  1.036000
0.045518  0.180093  1.039000
0.047634  0.180613  1.042000
0.049619  0.180613  1.042000
0.051901  0.181653  1.048000
0.054103  0.182347  1.052000
0.056107  0.182347  1.052000
0.058110  0.182347  1.052000
0.060114  0.182347  1.052000
0.061882  0.181653  1.048000
0.063878  0.181653  1.048000
0.065874  0.181653  1.048000
0.067870  0.181653  1.048000
0.069667  0.181133  1.045000
0.071657  0.181133  1.045000
0.073859  0.181653  1.048000
0.075855  0.181653  1.048000
0.077851  0.181653  1.048000
0.080152  0.182347  1.052000
0.082156  0.182347  1.052000
0.084160  0.182347  1.052000
0.085836  0.181653  1.048000
0.087832  0.181653  1.048000
0.089314  0.180613  1.042000
0.091299  0.180613  1.042000
0.093284  0.180613  1.042000
0.095269  0.180613  1.042000
0.097813  0.181653  1.048000
0.099524  0.181133  1.045000
0.101514  0.181133  1.045000
0.103505  0.181133  1.045000
0.105495  0.181133  1.045000
0.107486  0.181133  1.045000
0.110210  0.182347  1.052000
0.111147  0.180613  1.042000
0.113131  0.180613  1.042000
0.115116  0.180613  1.042000
0.116090  0.179053  1.033000
0.118057  0.179053  1.033000
0.120025  0.179053  1.033000
0.121992  0.179053  1.033000
0.124320  0.179573  1.036000
0.126659  0.180093  1.039000
0.128267  0.179573  1.036000
0.129863  0.179053  1.033000
0.131830  0.179053  1.033000
0.134575  0.180093  1.039000
0.136554  0.180093  1.039000
0.138533  0.180093  1.039000
0.140512  0.180093  1.039000
0.144686  0.182867  1.055000
0.146695  0.182867  1.055000
0.147295  0.181133  1.045000
0.148857  0.180613  1.042000
0.150842  0.180613  1.042000
0.152827  0.180613  1.042000
0.154811  0.180613  1.042000
0.156796  0.180613  1.042000
0.158781  0.180613  1.042000
0.161229  0.181133  1.045000
0.163688  0.181653  1.048000
0.165684  0.181653  1.048000
0.168320  0.182347  1.052000
0.170324  0.182347  1.052000
0.172328  0.182347  1.052000
0.173669  0.181653  1.048000
0.175665  0.181653  1.048000
0.176644  0.180613  1.042000
0.178629  0.180613  1.042000
0.180613  0.180613  1.042000
0.182072  0.180093  1.039000
0.184051  0.180093  1.039000
0.186030  0.180093  1.039000
0.188010  0.180093  1.039000
0.189989  0.180093  1.039000
0.191968  0.180093  1.039000
0.193947  0.180093  1.039000
0.196491  0.180613  1.042000
0.198476  0.180613  1.042000
0.201038  0.181133  1.045000
0.203029  0.181133  1.045000
0.205608  0.181653  1.048000
0.207604  0.181653  1.048000
0.209600  0.181653  1.048000
0.211596  0.181653  1.048000
0.212981  0.181133  1.045000
0.214971  0.181133  1.045000
0.216962  0.181133  1.045000
0.218952  0.181133  1.045000
0.220943  0.181133  1.045000
0.222293  0.180613  1.042000
0.224278  0.180613  1.042000
0.226914  0.181133  1.045000
0.228905  0.181133  1.045000
0.230232  0.180613  1.042000
0.232217  0.180613  1.042000
0.234876  0.181133  1.045000
0.235507  0.180093  1.039000
0.237486  0.180093  1.039000
0.240156  0.180613  1.042000
0.242141  0.180613  1.042000
0.244126  0.180613  1.042000
0.247528  0.181653  1.048000
0.248810  0.181133  1.045000
0.250800  0.181133  1.045000
0.252790  0.181133  1.045000
0.255512  0.181653  1.048000
0.257509  0.181653  1.048000
0.260495  0.182347  1.052000
0.262499  0.182347  1.052000
0.264503  0.182347  1.052000
0.267267  0.182867  1.055000
0.270042  0.183387  1.058000
0.271286  0.182867  1.055000
0.272518  0.182347  1.052000
0.274522  0.182347  1.052000
0.276526  0.182347  1.052000
0.277470  0.181653  1.048000
0.278667  0.181133  1.045000
0.280657  0.181133  1.045000
0.283459  0.181653  1.048000
0.286545  0.182347  1.052000
0.288549  0.182347  1.052000
0.290552  0.182347  1.052000
0.291444  0.181653  1.048000
0.292600  0.181133  1.045000
0.294590  0.181133  1.045000
0.294878  0.180093  1.039000
0.295143  0.179053  1.033000
0.297110  0.179053  1.033000
0.299947  0.179573  1.036000
0.301920  0.179573  1.036000
0.304773  0.180093  1.039000
0.306752  0.180093  1.039000
0.309623  0.180613  1.042000
0.311608  0.180613  1.042000
0.313592  0.180613  1.042000
0.315577  0.180613  1.042000
0.324267  0.184427  1.064000
0.326293  0.184427  1.064000
0.328320  0.184427  1.064000
0.330347  0.184427  1.064000
0.332373  0.184427  1.064000
0.332514  0.183387  1.058000
0.333581  0.182867  1.055000
0.335590  0.182867  1.055000
0.337600  0.182867  1.055000
0.339610  0.182867  1.055000
0.341619  0.182867  1.055000
0.343629  0.182867  1.055000
0.344655  0.182347  1.052000
0.346659  0.182347  1.052000
0.348663  0.182347  1.052000
0.350667  0.182347  1.052000
0.353676  0.182867  1.055000
0.354674  0.182347  1.052000
0.356678  0.182347  1.052000
0.357318  0.181653  1.048000
0.359314  0.181653  1.048000
0.360276  0.181133  1.045000
0.362267  0.181133  1.045000
0.364257  0.181133  1.045000
0.365196  0.180613  1.042000
0.367181  0.180613  1.042000
-0.490933  0.171733  0.980000
-0.489067  0.171733  0.980000
-0.487200  0.171733  0.980000
-0.485333  0.171733  0.980000
-0.487413  0.173135  0.988000
-0.485531  0.173135  0.988000
-0.482181  0.172610  0.985000
-0.480305  0.172610  0.985000
-0.479886  0.173135  0.988000
-0.482358  0.174712  0.997000
-0.479013  0.174187  0.994000
-0.475680  0.173661  0.991000
-0.473792  0.173661  0.991000
-0.471905  0.173661  0.991000
-0.468594  0.173135  0.988000
-0.466712  0.173135  0.988000
-0.463419  0.172610  0.985000
-0.461543  0.172610  0.985000
-0.459667  0.172610  0.985000
-0.457790  0.172610  0.985000
-0.455914  0.172610  0.985000
-0.453116  0.172259  0.983000
-0.451244  0.172259  0.983000
-0.449371  0.172259  0.983000
-0.447499  0.172259  0.983000
-0.453333  0.175238  1.000000
-0.451429  0.175238  1.000000
-0.446827  0.174187  0.994000
-0.442248  0.173135  0.988000
-0.440366  0.173135  0.988000
-0.441147  0.174187  0.994000
-0.441905  0.175238  1.000000
-0.438680  0.174712  0.997000
-0.436781  0.174712  0.997000
-0.434882  0.174712  0.997000
-0.434286  0.175238  1.000000
-0.434975  0.176290  1.006000
-0.431768  0.175764  1.003000
-0.424714  0.173661  0.991000
-0.422827  0.173661  0.991000
-0.420939  0.173661  0.991000
-0.419051  0.173661  0.991000
-0.417164  0.173661  0.991000
-0.415276  0.173661  0.991000
-0.413389  0.173661  0.991000
-0.411501  0.173661  0.991000
-0.409613  0.173661  0.991000
-0.406491  0.173135  0.988000
-0.404610  0.173135  0.988000
-0.402728  0.173135  0.988000
-0.400846  0.173135  0.988000
-0.398964  0.173135  0.988000
-0.398288  0.173661  0.991000
-0.397600  0.174187  0.994000
-0.395707  0.174187  0.994000
-0.393813  0.174187  0.994000
-0.391920  0.174187  0.994000
-0.391204  0.174712  0.997000
-0.392819  0.176290  1.006000
-0.391680  0.176640  1.008000
-0.388987  0.176290  1.006000
-0.382453  0.174187  0.994000
-0.380560  0.174187  0.994000
-0.380952  0.175238  1.000000
-0.380185  0.175764  1.003000
-0.377143  0.175238  1.000000
-0.375238  0.175238  1.000000
-0.373333  0.175238  1.000000
-0.371429  0.175238  1.000000
-0.369524  0.175238  1.000000
-0.367619  0.175238  1.000000
-0.363520  0.174187  0.994000
-0.360535  0.173661  0.991000
-0.358648  0.173661  0.991000
-0.356760  0.173661  0.991000
-0.355947  0.174187  0.994000
-0.354053  0.174187  0.994000
-0.352160  0.174187  0.994000
-0.351324  0.174712  0.997000
-0.349425  0.174712  0.997000
-0.347526  0.174712  0.997000
-0.344587  0.174187  0.994000
-0.342693  0.174187  0.994000
-0.343886  0.175764  1.003000
-0.343680  0.176640  1.008000
-0.341760  0.176640  1.008000
-0.339840  0.176640  1.008000
-0.338926  0.177166  1.011000
-0.337000  0.177166  1.011000
-0.334080  0.176640  1.008000
-0.332160  0.176640  1.008000
-0.330240  0.176640  1.008000
-0.328320  0.176640  1.008000
-0.326400  0.176640  1.008000
-0.324480  0.176640  1.008000
-0.322560  0.176640  1.008000
-0.321594  0.177166  1.011000
-0.319669  0.177166  1.011000
-0.317743  0.177166  1.011000
-0.315817  0.177166  1.011000
-0.313891  0.177166  1.011000
-0.311966  0.177166  1.011000
-0.310040  0.177166  1.011000
-0.308114  0.177166  1.011000
-0.306189  0.177166  1.011000
-0.304263  0.177166  1.011000
-0.300842  0.176290  1.006000
-0.298926  0.176290  1.006000
-0.297600  0.176640  1.008000
-0.296560  0.177166  1.011000
-0.294634  0.177166  1.011000
-0.292709  0.177166  1.011000
-0.289920  0.176640  1.008000
-0.285714  0.175238  1.000000
-0.281255  0.173661  0.991000
-0.279368  0.173661  0.991000
-0.277480  0.173661  0.991000
-0.276427  0.174187  0.994000
-0.274533  0.174187  0.994000
-0.273463  0.174712  0.997000
-0.271564  0.174712  0.997000
-0.269665  0.174712  0.997000
-0.268571  0.175238  1.000000
-0.267467  0.175764  1.003000
-0.265556  0.175764  1.003000
-0.264434  0.176290  1.006000
-0.262518  0.176290  1.006000
-0.261120  0.176640  1.008000
-0.262286  0.178743  1.020000
-0.260343  0.178743  1.020000
-0.258400  0.178743  1.020000
-0.255703  0.178217  1.017000
-0.251021  0.176290  1.006000
-0.249105  0.176290  1.006000
-0.249154  0.177691  1.014000
-0.247223  0.177691  1.014000
-0.244566  0.177166  1.011000
-0.242640  0.177166  1.011000
-0.241429  0.177691  1.014000
-0.239497  0.177691  1.014000
-0.238971  0.178743  1.020000
-0.237029  0.178743  1.020000
-0.235086  0.178743  1.020000
-0.233143  0.178743  1.020000
-0.231200  0.178743  1.020000
-0.225436  0.175764  1.003000
-0.223526  0.175764  1.003000
-0.222278  0.176290  1.006000
-0.221457  0.177166  1.011000
-0.218880  0.176640  1.008000
-0.216960  0.176640  1.008000
-0.215040  0.176640  1.008000
-0.213120  0.176640  1.008000
-0.211829  0.177166  1.011000
-0.210526  0.177691  1.014000
-0.207977  0.177166  1.011000
-0.206051  0.177166  1.011000
-0.204731  0.177691  1.014000
-0.203400  0.178217  1.017000
-0.202057  0.178743  1.020000
-0.201291  0.179794  1.026000
-0.132891  0.119863  0.684000
-0.131589  0.119863  0.684000
-0.130667  0.120213  0.686000
-0.129360  0.120213  0.686000
-0.192267  0.180495  1.030000
-0.190305  0.180495  1.030000
-0.188343  0.180495  1.030000
-0.130994  0.182598  1.042000
-0.128638  0.182072  1.039000
-0.126659  0.182072  1.039000
-0.124680  0.182072  1.039000
-0.123055  0.182598  1.042000
-0.118400  0.181547  1.036000
-0.116090  0.181021  1.033000
-0.114122  0.181021  1.033000
-0.111069  0.179269  1.023000
-0.109120  0.179269  1.023000
-0.107171  0.179269  1.023000
-0.103577  0.179794  1.026000
-0.101029  0.178743  1.020000
-0.099086  0.178743  1.020000
-0.097143  0.178743  1.020000
-0.095200  0.178743  1.020000
-0.093257  0.178743  1.020000
-0.091583  0.179269  1.023000
-0.089634  0.179269  1.023000
-0.087686  0.179269  1.023000
-0.085737  0.179269  1.023000
-0.083789  0.179269  1.023000
-0.082080  0.179794  1.026000
-0.080126  0.179794  1.026000
-0.078171  0.179794  1.026000
-0.076217  0.179794  1.026000
-0.074552  0.180495  1.030000
-0.072590  0.180495  1.030000
-0.070354  0.179794  1.026000
-0.068400  0.179794  1.026000
-0.066446  0.179794  1.026000
-0.064491  0.179794  1.026000
-0.062537  0.179794  1.026000
-0.060406  0.179269  1.023000
-0.058457  0.179269  1.023000
-0.056674  0.179794  1.026000
-0.054933  0.180495  1.030000
-0.052971  0.180495  1.030000
-0.051010  0.180495  1.030000
-0.049048  0.180495  1.030000
-0.047223  0.181021  1.033000
-0.044554  0.178217  1.017000
-0.042617  0.178217  1.017000
-0.040680  0.178217  1.017000
-0.038629  0.177691  1.014000
-0.036697  0.177691  1.014000
-0.035417  0.181021  1.033000
-0.033126  0.179269  1.023000
-0.031177  0.179269  1.023000
-0.029514  0.181021  1.033000
-0.027547  0.181021  1.033000
-0.025406  0.179794  1.026000
-0.023383  0.179269  1.023000
-0.021434  0.179269  1.023000
-0.019429  0.178743  1.020000
-0.017486  0.178743  1.020000
-0.015497  0.178217  1.017000
-0.013560  0.178217  1.017000
-0.011623  0.178217  1.017000
-0.009714  0.178743  1.020000
-0.007771  0.178743  1.020000
-0.005811  0.178217  1.017000
-0.003874  0.178217  1.017000
-0.001943  0.178743  1.020000
0.000000  0.178743  1.020000
0.001962  0.180495  1.030000
0.003924  0.180495  1.030000
0.005886  0.180495  1.030000
0.007817  0.179794  1.026000
0.009771  0.179794  1.026000
0.011726  0.179794  1.026000
0.013680  0.179794  1.026000
0.015695  0.180495  1.030000
0.017657  0.180495  1.030000
0.019676  0.181021  1.033000
0.021644  0.181021  1.033000
0.023680  0.181547  1.036000
0.025653  0.181547  1.036000
0.027547  0.181021  1.033000
0.029514  0.181021  1.033000
0.031482  0.181021  1.033000
0.033352  0.180495  1.030000
0.035314  0.180495  1.030000
0.037276  0.180495  1.030000
0.039238  0.180495  1.030000
0.041320  0.181021  1.033000
0.043288  0.181021  1.033000
0.045518  0.182072  1.039000
0.047634  0.182598  1.042000
0.049619  0.182598  1.042000
0.051752  0.183124  1.045000
0.053897  0.183650  1.048000
0.056107  0.184350  1.052000
0.058110  0.184350  1.052000
0.059886  0.183650  1.048000
0.061528  0.182598  1.042000
0.063512  0.182598  1.042000
0.065497  0.182598  1.042000
0.067288  0.182072  1.039000
0.069267  0.182072  1.039000
0.071246  0.182072  1.039000
0.073436  0.182598  1.042000
0.075421  0.182598  1.042000
0.077629  0.183124  1.045000
0.079848  0.183650  1.048000
0.082156  0.184350  1.052000
0.084160  0.184350  1.052000
0.083543  0.178743  1.020000
0.085486  0.178743  1.020000
0.087171  0.178217  1.017000
0.089109  0.178217  1.017000
0.091314  0.178743  1.020000
0.093257  0.178743  1.020000
0.095200  0.178743  1.020000
0.098095  0.180495  1.030000
0.100057  0.180495  1.030000
0.102613  0.181547  1.036000
0.104587  0.181547  1.036000
0.106251  0.181021  1.033000
0.108219  0.181021  1.033000
0.110187  0.181021  1.033000
0.112154  0.181021  1.033000
0.114122  0.181021  1.033000
0.116090  0.181021  1.033000
0.117714  0.180495  1.030000
0.119676  0.180495  1.030000
0.121638  0.180495  1.030000
0.123960  0.181021  1.033000
0.125928  0.181021  1.033000
0.127895  0.181021  1.033000
0.129486  0.180495  1.030000
0.131448  0.180495  1.030000
0.133798  0.181021  1.033000
0.135766  0.181021  1.033000
0.137333  0.180495  1.030000
0.138754  0.179794  1.026000
0.140709  0.179794  1.026000
0.143219  0.180495  1.030000
0.145604  0.181021  1.033000
0.147571  0.181021  1.033000
0.149539  0.181021  1.033000
0.151947  0.181547  1.036000
0.153920  0.181547  1.036000
0.156345  0.182072  1.039000
0.158324  0.182072  1.039000
0.160303  0.182072  1.039000
0.162750  0.182598  1.042000
0.164735  0.182598  1.042000
0.167200  0.183124  1.045000
0.169676  0.183650  1.048000
0.170690  0.182598  1.042000
0.172674  0.182598  1.042000
0.173653  0.181547  1.036000
0.174610  0.180495  1.030000
0.176571  0.180495  1.030000
0.179053  0.181021  1.033000
0.181547  0.181547  1.036000
0.183520  0.181547  1.036000
0.185493  0.181547  1.036000
0.187467  0.181547  1.036000
0.189440  0.181547  1.036000
0.191413  0.181547  1.036000
0.193387  0.181547  1.036000
0.195926  0.182072  1.039000
0.197905  0.182072  1.039000
0.199307  0.181547  1.036000
0.201280  0.181547  1.036000
0.204430  0.182598  1.042000
0.207010  0.183124  1.045000
0.207800  0.182072  1.039000
0.209779  0.182072  1.039000
0.211758  0.182072  1.039000
0.213120  0.181547  1.036000
0.215093  0.181547  1.036000
0.217067  0.181547  1.036000
0.219040  0.181547  1.036000
0.221653  0.182072  1.039000
0.223632  0.182072  1.039000
0.225611  0.182072  1.039000
0.226933  0.181547  1.036000
0.228907  0.181547  1.036000
0.231549  0.182072  1.039000
0.233528  0.182072  1.039000
0.234147  0.181021  1.033000
0.236114  0.181021  1.033000
0.238082  0.181021  1.033000
0.240050  0.181021  1.033000
0.242720  0.181547  1.036000
0.246110  0.182598  1.042000
0.248095  0.182598  1.042000
0.250080  0.182598  1.042000
0.252065  0.182598  1.042000
0.255512  0.183650  1.048000
0.257509  0.183650  1.048000
0.259505  0.183650  1.048000
0.261501  0.183650  1.048000
0.263497  0.183650  1.048000
0.265493  0.183650  1.048000
0.268510  0.184350  1.052000
0.269486  0.183650  1.048000
0.270705  0.183124  1.045000
0.272695  0.183124  1.045000
0.274686  0.183124  1.045000
0.276676  0.183124  1.045000
0.277867  0.182598  1.042000
0.279851  0.182598  1.042000
0.281836  0.182598  1.042000
0.284638  0.183124  1.045000
0.286629  0.183124  1.045000
0.287790  0.182598  1.042000
0.288941  0.182072  1.039000
0.290080  0.181547  1.036000
0.291208  0.181021  1.033000
0.293175  0.181021  1.033000
0.294286  0.180495  1.030000
0.296248  0.180495  1.030000
0.299078  0.181021  1.033000
0.301046  0.181021  1.033000
0.303013  0.181021  1.033000
0.305867  0.181547  1.036000
0.308731  0.182072  1.039000
0.311608  0.182598  1.042000
0.313592  0.182598  1.042000
0.312800  0.178743  1.020000
0.318754  0.181021  1.033000
0.320722  0.181021  1.033000
0.326438  0.183124  1.045000
0.328429  0.183124  1.045000
0.329470  0.182598  1.042000
0.331455  0.182598  1.042000
0.335360  0.183650  1.048000
0.337356  0.183650  1.048000
0.339352  0.183650  1.048000
0.341349  0.183650  1.048000
0.343345  0.183650  1.048000
0.345341  0.183650  1.048000
0.347337  0.183650  1.048000
0.349333  0.183650  1.048000
0.351330  0.183650  1.048000
0.352314  0.183124  1.045000
0.354305  0.183124  1.045000
0.356295  0.183124  1.045000
0.358286  0.183124  1.045000
0.359242  0.182598  1.042000
0.361227  0.182598  1.042000
0.363211  0.182598  1.042000
0.364145  0.182072  1.039000
0.366124  0.182072  1.039000
-0.487928  0.172537  0.974000
-0.486072  0.172537  0.974000
-0.487200  0.173600  0.980000
-0.485333  0.173600  0.980000
-0.485933  0.174486  0.985000
-0.483074  0.174131  0.983000
-0.481202  0.174131  0.983000
-0.480305  0.174486  0.985000
-0.478429  0.174486  0.985000
-0.476552  0.174486  0.985000
-0.474676  0.174486  0.985000
-0.472800  0.174486  0.985000
-0.470924  0.174486  0.985000
-0.469048  0.174486  0.985000
-0.466223  0.174131  0.983000
-0.462933  0.173600  0.980000
-0.461067  0.173600  0.980000
-0.459200  0.173600  0.980000
-0.458733  0.174131  0.983000
-0.456861  0.174131  0.983000
-0.454989  0.174131  0.983000
-0.451733  0.173600  0.980000
-0.449867  0.173600  0.980000
-0.448000  0.173600  0.980000
-0.446133  0.173600  0.980000
-0.444267  0.173600  0.980000
-0.451429  0.177143  1.000000
-0.441882  0.174131  0.983000
-0.440010  0.174131  0.983000
-0.438137  0.174131  0.983000
-0.439815  0.175549  0.991000
-0.441905  0.177143  1.000000
-0.438680  0.176611  0.997000
-0.436781  0.176611  0.997000
-0.434882  0.176611  0.997000
-0.434286  0.177143  1.000000
-0.434975  0.178206  1.006000
-0.431768  0.177674  1.003000
-0.426000  0.176080  0.994000
-0.422827  0.175549  0.991000
-0.420939  0.175549  0.991000
-0.417783  0.175017  0.988000
-0.415901  0.175017  0.988000
-0.414019  0.175017  0.988000
-0.412137  0.175017  0.988000
-0.409010  0.174486  0.985000
-0.407133  0.174486  0.985000
-0.405257  0.174486  0.985000
-0.403381  0.174486  0.985000
-0.401505  0.174486  0.985000
-0.399629  0.174486  0.985000
-0.398964  0.175017  0.988000
-0.397082  0.175017  0.988000
-0.396400  0.175549  0.991000
-0.394512  0.175549  0.991000
-0.391436  0.175017  0.988000
-0.389554  0.175017  0.988000
-0.388850  0.175549  0.991000
-0.392819  0.178206  1.006000
-0.391680  0.178560  1.008000
-0.388987  0.178206  1.006000
-0.381299  0.175549  0.991000
-0.379411  0.175549  0.991000
-0.377524  0.175549  0.991000
-0.377910  0.176611  0.997000
-0.374880  0.176080  0.994000
-0.372987  0.176080  0.994000
-0.369973  0.175549  0.991000
-0.368086  0.175549  0.991000
-0.367307  0.176080  0.994000
-0.364310  0.175549  0.991000
-0.362423  0.175549  0.991000
-0.359444  0.175017  0.988000
-0.357562  0.175017  0.988000
-0.356760  0.175549  0.991000
-0.354872  0.175549  0.991000
-0.352985  0.175549  0.991000
-0.351097  0.175549  0.991000
-0.349210  0.175549  0.991000
-0.347322  0.175549  0.991000
-0.346480  0.176080  0.994000
-0.343547  0.175549  0.991000
-0.341659  0.175549  0.991000
-0.339771  0.175549  0.991000
-0.340952  0.177143  1.000000
-0.339048  0.177143  1.000000
-0.327703  0.172183  0.972000
-0.325851  0.172183  0.972000
-0.336000  0.178560  1.008000
-0.334080  0.178560  1.008000
-0.332160  0.178560  1.008000
-0.328602  0.177674  1.003000
-0.326691  0.177674  1.003000
-0.324781  0.177674  1.003000
-0.322870  0.177674  1.003000
-0.311680  0.172537  0.974000
-0.309825  0.172537  0.974000
-0.307970  0.172537  0.974000
-0.307057  0.173069  0.977000
-0.304259  0.172537  0.974000
-0.302404  0.172537  0.974000
-0.301474  0.173069  0.977000
-0.308507  0.178206  1.006000
-0.306590  0.178206  1.006000
-0.305280  0.178560  1.008000
-0.299147  0.176080  0.994000
-0.297253  0.176080  0.994000
-0.298034  0.177674  1.003000
-0.297010  0.178206  1.006000
-0.295680  0.178560  1.008000
-0.288806  0.175549  0.991000
-0.286918  0.175549  0.991000
-0.285030  0.175549  0.991000
-0.283143  0.175549  0.991000
-0.281255  0.175549  0.991000
-0.279368  0.175549  0.991000
-0.277480  0.175549  0.991000
-0.275592  0.175549  0.991000
-0.273705  0.175549  0.991000
-0.272640  0.176080  0.994000
-0.270747  0.176080  0.994000
-0.268853  0.176080  0.994000
-0.267766  0.176611  0.997000
-0.266667  0.177143  1.000000
-0.264762  0.177143  1.000000
-0.262857  0.177143  1.000000
-0.260952  0.177143  1.000000
-0.261120  0.178560  1.008000
-0.259200  0.178560  1.008000
-0.252941  0.175549  0.991000
-0.251053  0.175549  0.991000
-0.249920  0.176080  0.994000
-0.248775  0.176611  0.997000
-0.247619  0.177143  1.000000
-0.245714  0.177143  1.000000
-0.243810  0.177143  1.000000
-0.241905  0.177143  1.000000
-0.240720  0.177674  1.003000
-0.241429  0.179623  1.014000
-0.239497  0.179623  1.014000
-0.238971  0.180686  1.020000
-0.237029  0.180686  1.020000
-0.235086  0.180686  1.020000
-0.233143  0.180686  1.020000
-0.223947  0.175017  0.988000
-0.222065  0.175017  0.988000
-0.223526  0.177674  1.003000
-0.222278  0.178206  1.006000
-0.220800  0.178560  1.008000
-0.218880  0.178560  1.008000
-0.216960  0.178560  1.008000
-0.215040  0.178560  1.008000
-0.213120  0.178560  1.008000
-0.211829  0.179091  1.011000
-0.209903  0.179091  1.011000
-0.207977  0.179091  1.011000
-0.206051  0.179091  1.011000
-0.204731  0.179623  1.014000
-0.202800  0.179623  1.014000
-0.135299  0.120989  0.683000
-0.133998  0.120989  0.683000
-0.132891  0.121166  0.684000
-0.131589  0.121166  0.684000
-0.130286  0.121166  0.684000
-0.128983  0.121166  0.684000
-0.128053  0.121520  0.686000
-0.126747  0.121520  0.686000
-0.126659  0.184051  1.039000
-0.124680  0.184051  1.039000
-0.116090  0.182989  1.033000
-0.114122  0.182989  1.033000
-0.111069  0.181217  1.023000
-0.109120  0.181217  1.023000
-0.103577  0.181749  1.026000
-0.100434  0.179623  1.014000
-0.098503  0.179623  1.014000
-0.096286  0.179091  1.011000
-0.094360  0.179091  1.011000
-0.092983  0.180154  1.017000
-0.091314  0.180686  1.020000
-0.089371  0.180686  1.020000
-0.087686  0.181217  1.023000
-0.085737  0.181217  1.023000
-0.083789  0.181217  1.023000
-0.081840  0.181217  1.023000
-0.079657  0.180686  1.020000
-0.077714  0.180686  1.020000
-0.075994  0.181217  1.023000
-0.074263  0.181749  1.026000
-0.072309  0.181749  1.026000
-0.070149  0.181217  1.023000
-0.068200  0.181217  1.023000
-0.066251  0.181217  1.023000
-0.064303  0.181217  1.023000
-0.062171  0.180686  1.020000
-0.060229  0.180686  1.020000
-0.058457  0.181217  1.023000
-0.056509  0.181217  1.023000
-0.054560  0.181217  1.023000
-0.052611  0.181217  1.023000
-0.050663  0.181217  1.023000
-0.049048  0.182457  1.030000
-0.046354  0.179623  1.014000
-0.044423  0.179623  1.014000
-0.042491  0.179623  1.014000
-0.040560  0.179623  1.014000
-0.038629  0.179623  1.014000
-0.036697  0.179623  1.014000
-0.035417  0.182989  1.033000
-0.032834  0.179623  1.014000
-0.030903  0.179623  1.014000
-0.028971  0.179623  1.014000
-0.027040  0.179623  1.014000
-0.025406  0.181749  1.026000
-0.023246  0.180154  1.017000
-0.021246  0.179623  1.014000
-0.019314  0.179623  1.014000
-0.017331  0.179091  1.011000
-0.015406  0.179091  1.011000
-0.013520  0.179623  1.014000
-0.011589  0.179623  1.014000
-0.009657  0.179623  1.014000
-0.007726  0.179623  1.014000
-0.005794  0.179623  1.014000
-0.003863  0.179623  1.014000
-0.001937  0.180154  1.017000
0.000000  0.180154  1.017000
0.001954  0.181749  1.026000
0.003909  0.181749  1.026000
0.005886  0.182457  1.030000
0.007848  0.182457  1.030000
0.009771  0.181749  1.026000
0.011726  0.181749  1.026000
0.013680  0.181749  1.026000
0.015634  0.181749  1.026000
0.017589  0.181749  1.026000
0.019619  0.182457  1.030000
0.021581  0.182457  1.030000
0.023543  0.182457  1.030000
0.025505  0.182457  1.030000
0.027467  0.182457  1.030000
0.029314  0.181749  1.026000
0.031269  0.181749  1.026000
0.033223  0.181749  1.026000
0.035074  0.181217  1.023000
0.037023  0.181217  1.023000
0.039086  0.181749  1.026000
0.041200  0.182457  1.030000
0.043162  0.182457  1.030000
0.045255  0.182989  1.033000
0.047497  0.184051  1.039000
0.049476  0.184051  1.039000
0.051604  0.184583  1.042000
0.053897  0.185646  1.048000
0.055893  0.185646  1.048000
0.057890  0.185646  1.048000
0.059886  0.185646  1.048000
0.060583  0.181749  1.026000
0.062537  0.181749  1.026000
0.064114  0.180686  1.020000
0.066057  0.180686  1.020000
0.068400  0.181749  1.026000
0.070354  0.181749  1.026000
0.072309  0.181749  1.026000
0.074263  0.181749  1.026000
0.076217  0.181749  1.026000
0.079848  0.185646  1.048000
0.082156  0.186354  1.052000
0.081360  0.180154  1.017000
0.083297  0.180154  1.017000
0.085234  0.180154  1.017000
0.087171  0.180154  1.017000
0.089109  0.180154  1.017000
0.091046  0.180154  1.017000
0.092983  0.180154  1.017000
0.094920  0.180154  1.017000
0.097143  0.180686  1.020000
0.099377  0.181217  1.023000
0.101326  0.181217  1.023000
0.103274  0.181217  1.023000
0.105943  0.182457  1.030000
0.107905  0.182457  1.030000
0.109867  0.182457  1.030000
0.111829  0.182457  1.030000
0.113790  0.182457  1.030000
0.115752  0.182457  1.030000
0.117257  0.181749  1.026000
0.119211  0.181749  1.026000
0.121638  0.182457  1.030000
0.123600  0.182457  1.030000
0.125562  0.182457  1.030000
0.127524  0.182457  1.030000
0.128983  0.181749  1.026000
0.130937  0.181749  1.026000
0.133410  0.182457  1.030000
0.134846  0.181749  1.026000
0.136800  0.181749  1.026000
0.138349  0.181217  1.023000
0.140297  0.181217  1.023000
0.142246  0.181217  1.023000
0.144617  0.181749  1.026000
0.146571  0.181749  1.026000
0.148526  0.181749  1.026000
0.151507  0.182989  1.033000
0.153474  0.182989  1.033000
0.155893  0.183520  1.036000
0.157867  0.183520  1.036000
0.159840  0.183520  1.036000
0.161813  0.183520  1.036000
0.163787  0.183520  1.036000
0.165280  0.182989  1.033000
0.167248  0.182989  1.033000
0.167086  0.180686  1.020000
0.169029  0.180686  1.020000
0.171474  0.181217  1.023000
0.173423  0.181217  1.023000
0.175886  0.181749  1.026000
0.177840  0.181749  1.026000
0.181021  0.182989  1.033000
0.182989  0.182989  1.033000
0.184956  0.182989  1.033000
0.187467  0.183520  1.036000
0.189440  0.183520  1.036000
0.191413  0.183520  1.036000
0.192827  0.182989  1.033000
0.194794  0.182989  1.033000
0.196762  0.182989  1.033000
0.198730  0.182989  1.033000
0.200697  0.182989  1.033000
0.202665  0.182989  1.033000
0.204632  0.182989  1.033000
0.207200  0.183520  1.036000
0.209173  0.183520  1.036000
0.210535  0.182989  1.033000
0.212503  0.182989  1.033000
0.214470  0.182989  1.033000
0.215810  0.182457  1.030000
0.217771  0.182457  1.030000
0.220373  0.182989  1.033000
0.222341  0.182989  1.033000
0.224309  0.182989  1.033000
0.226276  0.182989  1.033000
0.228244  0.182989  1.033000
0.230211  0.182989  1.033000
0.232179  0.182989  1.033000
0.234147  0.182989  1.033000
0.236114  0.182989  1.033000
0.238082  0.182989  1.033000
0.240050  0.182989  1.033000
0.242017  0.182989  1.033000
0.244693  0.183520  1.036000
