# .PCD v.5 - Point Cloud Data file format
FIELDS x y z 
SIZE 4 4 4
TYPE F F F
COUNT 1 1 1
WIDTH 1563
HEIGHT 1
POINTS 1563
DATA ascii
-0.109333  -0.030667  0.700000
-0.108000  -0.030667  0.700000
-0.107124  -0.030798  0.703000
-0.105935  -0.030842  0.704000
-0.104743  -0.030886  0.705000
-0.103693  -0.030973  0.707000
-0.101333  -0.030667  0.700000
-0.100000  -0.030667  0.700000
-0.099653  -0.030973  0.707000
-0.098446  -0.031017  0.708000
0.024027  -0.032507  0.742000
0.025440  -0.032507  0.742000
0.026890  -0.032550  0.743000
0.028305  -0.032550  0.743000
0.029720  -0.032550  0.743000
0.031135  -0.032550  0.743000
0.032638  -0.032638  0.745000
0.129562  -0.031368  0.716000
0.130926  -0.031368  0.716000
0.132844  -0.031499  0.719000
0.134213  -0.031499  0.719000
0.135206  -0.031411  0.717000
0.136571  -0.031411  0.717000
0.138322  -0.031499  0.719000
0.139691  -0.031499  0.719000
0.143415  -0.032025  0.731000
0.140251  -0.031017  0.708000
0.141600  -0.031017  0.708000
0.142747  -0.030973  0.707000
0.144093  -0.030973  0.707000
0.145646  -0.031017  0.708000
0.147410  -0.031105  0.710000
0.149600  -0.031280  0.714000
0.150960  -0.031280  0.714000
0.152320  -0.031280  0.714000
0.153680  -0.031280  0.714000
0.155040  -0.031280  0.714000
0.156400  -0.031280  0.714000
0.157097  -0.031149  0.711000
0.158451  -0.031149  0.711000
0.159806  -0.031149  0.711000
0.160480  -0.031017  0.708000
0.161829  -0.031017  0.708000
0.171994  -0.031149  0.711000
0.173349  -0.031149  0.711000
0.174703  -0.031149  0.711000
0.176552  -0.031236  0.713000
0.177910  -0.031236  0.713000
0.179269  -0.031236  0.713000
0.180627  -0.031236  0.713000
0.182240  -0.031280  0.714000
0.183600  -0.031280  0.714000
0.184960  -0.031280  0.714000
0.186320  -0.031280  0.714000
0.187680  -0.031280  0.714000
0.189040  -0.031280  0.714000
0.190400  -0.031280  0.714000
0.192566  -0.031411  0.717000
0.193661  -0.031368  0.716000
0.195025  -0.031368  0.716000
0.195840  -0.031280  0.714000
0.197200  -0.031280  0.714000
0.198560  -0.031280  0.714000
0.199920  -0.031280  0.714000
0.201280  -0.031280  0.714000
0.202640  -0.031280  0.714000
0.219880  -0.031411  0.717000
0.221246  -0.031411  0.717000
0.222611  -0.031411  0.717000
0.224602  -0.031499  0.719000
0.226286  -0.031543  0.720000
0.227657  -0.031543  0.720000
0.229665  -0.031630  0.722000
0.232000  -0.031762  0.725000
0.233381  -0.031762  0.725000
0.234762  -0.031762  0.725000
0.236469  -0.031806  0.726000
0.237851  -0.031806  0.726000
0.241371  -0.030842  0.704000
-0.411371  -0.031543  0.690000
-0.406491  -0.031269  0.684000
-0.405189  -0.031269  0.684000
-0.402705  -0.031177  0.682000
-0.401406  -0.031177  0.682000
-0.396000  -0.030857  0.675000
-0.394714  -0.030857  0.675000
-0.393429  -0.030857  0.675000
-0.392143  -0.030857  0.675000
-0.398640  -0.031680  0.693000
-0.397320  -0.031680  0.693000
-0.396000  -0.031680  0.693000
-0.393541  -0.031589  0.691000
-0.392225  -0.031589  0.691000
-0.390909  -0.031589  0.691000
-0.389592  -0.031589  0.691000
-0.388276  -0.031589  0.691000
-0.388080  -0.031680  0.693000
-0.387318  -0.031726  0.694000
-0.386552  -0.031771  0.695000
-0.353457  -0.031771  0.695000
-0.352133  -0.031771  0.695000
-0.350810  -0.031771  0.695000
-0.348983  -0.031726  0.694000
-0.347661  -0.031726  0.694000
-0.346339  -0.031726  0.694000
-0.345514  -0.031771  0.695000
-0.345676  -0.031909  0.698000
-0.345333  -0.032000  0.700000
-0.345474  -0.032137  0.703000
-0.343771  -0.032229  0.705000
-0.342429  -0.032229  0.705000
-0.341086  -0.032229  0.705000
-0.327192  -0.032183  0.704000
-0.325851  -0.032183  0.704000
-0.322286  -0.032229  0.705000
-0.320943  -0.032229  0.705000
-0.311080  -0.032320  0.707000
-0.309733  -0.032320  0.707000
-0.308387  -0.032320  0.707000
-0.307474  -0.032366  0.708000
-0.257973  -0.031589  0.691000
-0.256657  -0.031589  0.691000
-0.253863  -0.031406  0.687000
-0.252187  -0.031360  0.686000
-0.250149  -0.031269  0.684000
-0.248846  -0.031269  0.684000
-0.247181  -0.031223  0.683000
-0.244800  -0.031086  0.680000
-0.243505  -0.031086  0.680000
-0.242210  -0.031086  0.680000
-0.240206  -0.030994  0.678000
-0.237505  -0.030811  0.674000
-0.236221  -0.030811  0.674000
-0.234240  -0.030720  0.672000
-0.232613  -0.030674  0.671000
-0.230990  -0.030629  0.670000
-0.229371  -0.030583  0.669000
-0.228097  -0.030583  0.669000
-0.226823  -0.030583  0.669000
-0.225549  -0.030583  0.669000
-0.223604  -0.030491  0.667000
-0.222333  -0.030491  0.667000
-0.221063  -0.030491  0.667000
-0.220451  -0.030583  0.669000
-0.218522  -0.030491  0.667000
-0.217251  -0.030491  0.667000
-0.215981  -0.030491  0.667000
-0.214710  -0.030491  0.667000
-0.213440  -0.030491  0.667000
-0.212170  -0.030491  0.667000
-0.210899  -0.030491  0.667000
-0.209314  -0.030446  0.666000
-0.208046  -0.030446  0.666000
-0.207088  -0.030491  0.667000
-0.205509  -0.030446  0.666000
-0.204240  -0.030446  0.666000
-0.202971  -0.030446  0.666000
-0.201703  -0.030446  0.666000
-0.200434  -0.030446  0.666000
-0.199166  -0.030446  0.666000
-0.198194  -0.030491  0.667000
-0.196924  -0.030491  0.667000
-0.195653  -0.030491  0.667000
-0.194383  -0.030491  0.667000
-0.193112  -0.030491  0.667000
-0.192417  -0.030583  0.669000
-0.191143  -0.030583  0.669000
-0.189869  -0.030583  0.669000
-0.188594  -0.030583  0.669000
-0.187600  -0.030629  0.670000
-0.186324  -0.030629  0.670000
-0.185324  -0.030674  0.671000
-0.184320  -0.030720  0.672000
-0.183040  -0.030720  0.672000
-0.182301  -0.030811  0.674000
-0.181017  -0.030811  0.674000
-0.180000  -0.030857  0.675000
-0.178714  -0.030857  0.675000
-0.177691  -0.030903  0.676000
-0.176926  -0.030994  0.678000
-0.175634  -0.030994  0.678000
-0.174600  -0.031040  0.679000
-0.173562  -0.031086  0.680000
-0.173027  -0.031223  0.683000
-0.171726  -0.031223  0.683000
-0.170674  -0.031269  0.684000
-0.169371  -0.031269  0.684000
-0.169297  -0.031497  0.689000
-0.167985  -0.031497  0.689000
-0.166672  -0.031497  0.689000
-0.165600  -0.031543  0.690000
-0.164286  -0.031543  0.690000
-0.163208  -0.031589  0.691000
-0.162360  -0.031680  0.693000
-0.161040  -0.031680  0.693000
-0.159950  -0.031726  0.694000
-0.129280  -0.032320  0.707000
-0.127933  -0.032320  0.707000
-0.126766  -0.032366  0.708000
-0.125771  -0.032457  0.710000
-0.124594  -0.032503  0.711000
-0.123240  -0.032503  0.711000
-0.121886  -0.032503  0.711000
-0.120531  -0.032503  0.711000
-0.117501  -0.032046  0.701000
-0.116000  -0.032000  0.700000
-0.114667  -0.032000  0.700000
-0.113010  -0.031909  0.698000
-0.111680  -0.031909  0.698000
-0.110350  -0.031909  0.698000
-0.109333  -0.032000  0.700000
-0.108000  -0.032000  0.700000
-0.107124  -0.032137  0.703000
-0.106086  -0.032229  0.705000
-0.104743  -0.032229  0.705000
-0.103693  -0.032320  0.707000
-0.101044  -0.031909  0.698000
-0.099714  -0.031909  0.698000
-0.099653  -0.032320  0.707000
-0.098446  -0.032366  0.708000
0.024027  -0.033920  0.742000
0.025440  -0.033920  0.742000
0.026890  -0.033966  0.743000
0.028305  -0.033966  0.743000
0.029720  -0.033966  0.743000
0.031135  -0.033966  0.743000
0.032638  -0.034057  0.745000
0.131474  -0.032869  0.719000
0.132474  -0.032777  0.717000
0.133653  -0.032731  0.716000
0.135017  -0.032731  0.716000
0.136381  -0.032731  0.716000
0.137745  -0.032731  0.716000
0.139109  -0.032731  0.716000
0.138903  -0.032366  0.708000
0.140251  -0.032366  0.708000
0.141600  -0.032366  0.708000
0.142747  -0.032320  0.707000
0.144093  -0.032320  0.707000
0.145646  -0.032366  0.708000
0.146994  -0.032366  0.708000
0.148971  -0.032503  0.711000
0.150326  -0.032503  0.711000
0.151680  -0.032503  0.711000
0.153034  -0.032503  0.711000
0.154823  -0.032594  0.713000
0.156181  -0.032594  0.713000
0.157097  -0.032503  0.711000
0.158229  -0.032457  0.710000
0.159131  -0.032366  0.708000
0.160480  -0.032366  0.708000
0.171994  -0.032503  0.711000
0.173349  -0.032503  0.711000
0.174703  -0.032503  0.711000
0.176057  -0.032503  0.711000
0.177411  -0.032503  0.711000
0.178766  -0.032503  0.711000
0.180627  -0.032594  0.713000
0.181985  -0.032594  0.713000
0.183343  -0.032594  0.713000
0.184701  -0.032594  0.713000
0.186059  -0.032594  0.713000
0.187417  -0.032594  0.713000
0.188775  -0.032594  0.713000
0.190400  -0.032640  0.714000
0.192566  -0.032777  0.717000
0.193931  -0.032777  0.717000
0.195297  -0.032777  0.717000
0.195840  -0.032640  0.714000
0.196924  -0.032594  0.713000
0.197726  -0.032503  0.711000
0.199080  -0.032503  0.711000
0.200998  -0.032594  0.713000
0.202356  -0.032594  0.713000
0.220493  -0.032869  0.719000
0.221246  -0.032777  0.717000
0.222611  -0.032777  0.717000
0.224602  -0.032869  0.719000
0.226286  -0.032914  0.720000
0.228290  -0.033006  0.722000
0.229983  -0.033051  0.723000
0.231360  -0.033051  0.723000
0.232737  -0.033051  0.723000
0.234762  -0.033143  0.725000
0.236143  -0.033143  0.725000
0.237524  -0.033143  0.725000
0.234333  -0.032137  0.703000
0.235672  -0.032137  0.703000
-0.411371  -0.032857  0.690000
-0.405897  -0.032524  0.683000
-0.404004  -0.032476  0.682000
-0.397981  -0.032095  0.674000
-0.396697  -0.032095  0.674000
-0.396000  -0.032143  0.675000
-0.394714  -0.032143  0.675000
-0.393429  -0.032143  0.675000
-0.392143  -0.032143  0.675000
-0.390857  -0.032143  0.675000
-0.389571  -0.032143  0.675000
-0.398640  -0.033000  0.693000
-0.397320  -0.033000  0.693000
-0.396000  -0.033000  0.693000
-0.392971  -0.032857  0.690000
-0.391657  -0.032857  0.690000
-0.390343  -0.032857  0.690000
-0.389592  -0.032905  0.691000
-0.389400  -0.033000  0.693000
-0.388080  -0.033000  0.693000
-0.387318  -0.033048  0.694000
-0.386552  -0.033095  0.695000
-0.350810  -0.033095  0.695000
-0.348983  -0.033048  0.694000
-0.347160  -0.033000  0.693000
-0.345840  -0.033000  0.693000
-0.345017  -0.033048  0.694000
-0.345676  -0.033238  0.698000
-0.327192  -0.033524  0.704000
-0.325851  -0.033524  0.704000
-0.259290  -0.032905  0.691000
-0.257973  -0.032905  0.691000
-0.256286  -0.032857  0.690000
-0.253863  -0.032714  0.687000
-0.252187  -0.032667  0.686000
-0.250149  -0.032571  0.684000
-0.248846  -0.032571  0.684000
-0.246819  -0.032476  0.682000
-0.244800  -0.032381  0.680000
-0.243505  -0.032381  0.680000
-0.242210  -0.032381  0.680000
-0.240206  -0.032286  0.678000
-0.238210  -0.032190  0.676000
-0.236221  -0.032095  0.674000
-0.234937  -0.032095  0.674000
-0.232613  -0.031952  0.671000
-0.230990  -0.031905  0.670000
-0.229371  -0.031857  0.669000
-0.228097  -0.031857  0.669000
-0.226823  -0.031857  0.669000
-0.225549  -0.031857  0.669000
-0.223604  -0.031762  0.667000
-0.222333  -0.031762  0.667000
-0.221063  -0.031762  0.667000
-0.220451  -0.031857  0.669000
-0.219177  -0.031857  0.669000
-0.217903  -0.031857  0.669000
-0.215981  -0.031762  0.667000
-0.214710  -0.031762  0.667000
-0.213440  -0.031762  0.667000
-0.212806  -0.031857  0.669000
-0.210899  -0.031762  0.667000
-0.209629  -0.031762  0.667000
-0.208358  -0.031762  0.667000
-0.207088  -0.031762  0.667000
-0.205509  -0.031714  0.666000
-0.204240  -0.031714  0.666000
-0.203276  -0.031762  0.667000
-0.201703  -0.031714  0.666000
-0.200434  -0.031714  0.666000
-0.199465  -0.031762  0.667000
-0.198194  -0.031762  0.667000
-0.196924  -0.031762  0.667000
-0.195653  -0.031762  0.667000
-0.194966  -0.031857  0.669000
-0.193691  -0.031857  0.669000
-0.192417  -0.031857  0.669000
-0.191143  -0.031857  0.669000
-0.189869  -0.031857  0.669000
-0.188594  -0.031857  0.669000
-0.187600  -0.031905  0.670000
-0.186324  -0.031905  0.670000
-0.185324  -0.031952  0.671000
-0.184320  -0.032000  0.672000
-0.183040  -0.032000  0.672000
-0.182301  -0.032095  0.674000
-0.181017  -0.032095  0.674000
-0.180000  -0.032143  0.675000
-0.178714  -0.032143  0.675000
-0.177691  -0.032190  0.676000
-0.176926  -0.032286  0.678000
-0.175893  -0.032333  0.679000
-0.174600  -0.032333  0.679000
-0.173562  -0.032381  0.680000
-0.172773  -0.032476  0.682000
-0.171726  -0.032524  0.683000
-0.170674  -0.032571  0.684000
-0.169371  -0.032571  0.684000
-0.168806  -0.032714  0.687000
-0.167497  -0.032714  0.687000
-0.166672  -0.032810  0.689000
-0.165600  -0.032857  0.690000
-0.164286  -0.032857  0.690000
-0.163208  -0.032905  0.691000
-0.162360  -0.033000  0.693000
-0.161040  -0.033000  0.693000
-0.159950  -0.033048  0.694000
-0.158629  -0.033048  0.694000
-0.117333  -0.033333  0.700000
-0.116000  -0.033333  0.700000
-0.114667  -0.033333  0.700000
-0.113010  -0.033238  0.698000
-0.111680  -0.033238  0.698000
-0.110350  -0.033238  0.698000
-0.108396  -0.033048  0.694000
-0.107074  -0.033048  0.694000
-0.107276  -0.033524  0.704000
-0.106086  -0.033571  0.705000
-0.105040  -0.033667  0.707000
-0.103693  -0.033667  0.707000
-0.101044  -0.033238  0.698000
-0.099714  -0.033238  0.698000
-0.099653  -0.033667  0.707000
0.025474  -0.035381  0.743000
0.026853  -0.035333  0.742000
0.028267  -0.035333  0.742000
0.029720  -0.035381  0.743000
0.131474  -0.034238  0.719000
0.131920  -0.034000  0.714000
0.133280  -0.034000  0.714000
0.134640  -0.034000  0.714000
0.136000  -0.034000  0.714000
0.137360  -0.034000  0.714000
0.138720  -0.034000  0.714000
0.138707  -0.033667  0.707000
0.140053  -0.033667  0.707000
0.141400  -0.033667  0.707000
0.142747  -0.033667  0.707000
0.143482  -0.033524  0.704000
0.144823  -0.033524  0.704000
0.146994  -0.033714  0.708000
0.148762  -0.033810  0.710000
0.150326  -0.033857  0.711000
0.150827  -0.033667  0.707000
0.152173  -0.033667  0.707000
0.153737  -0.033714  0.708000
0.155086  -0.033714  0.708000
0.156434  -0.033714  0.708000
0.157560  -0.033667  0.707000
0.158907  -0.033667  0.707000
0.160253  -0.033667  0.707000
0.161600  -0.033667  0.707000
0.168333  -0.033667  0.707000
0.169680  -0.033667  0.707000
0.171752  -0.033810  0.710000
0.173105  -0.033810  0.710000
0.174457  -0.033810  0.710000
0.175810  -0.033810  0.710000
0.177411  -0.033857  0.711000
0.178766  -0.033857  0.711000
0.180120  -0.033857  0.711000
0.181474  -0.033857  0.711000
0.182829  -0.033857  0.711000
0.184183  -0.033857  0.711000
0.185276  -0.033810  0.710000
0.186629  -0.033810  0.710000
0.188246  -0.033857  0.711000
0.190133  -0.033952  0.713000
0.191491  -0.033952  0.713000
0.192850  -0.033952  0.713000
0.191756  -0.033524  0.704000
0.194743  -0.033810  0.710000
0.196095  -0.033810  0.710000
0.196891  -0.033714  0.708000
0.198240  -0.033714  0.708000
0.199589  -0.033714  0.708000
0.200937  -0.033714  0.708000
0.202000  -0.033667  0.707000
0.203347  -0.033667  0.707000
0.217120  -0.033714  0.708000
0.218469  -0.033714  0.708000
0.222301  -0.034095  0.716000
0.224602  -0.034238  0.719000
0.226286  -0.034286  0.720000
0.227657  -0.034286  0.720000
0.229983  -0.034429  0.723000
0.231360  -0.034429  0.723000
0.232737  -0.034429  0.723000
0.234114  -0.034429  0.723000
0.235491  -0.034429  0.723000
0.236869  -0.034429  0.723000
0.233326  -0.033524  0.704000
0.234333  -0.033476  0.703000
0.235672  -0.033476  0.703000
0.237011  -0.033476  0.703000
0.238350  -0.033476  0.703000
0.241371  -0.033524  0.704000
-0.401737  -0.033478  0.676000
-0.399857  -0.033429  0.675000
-0.397981  -0.033379  0.674000
-0.396697  -0.033379  0.674000
-0.395413  -0.033379  0.674000
-0.394130  -0.033379  0.674000
-0.392846  -0.033379  0.674000
-0.392143  -0.033429  0.675000
-0.390857  -0.033429  0.675000
-0.389571  -0.033429  0.675000
-0.386560  -0.033280  0.672000
-0.395027  -0.034122  0.689000
-0.393714  -0.034122  0.689000
-0.392402  -0.034122  0.689000
-0.391657  -0.034171  0.690000
-0.390343  -0.034171  0.690000
-0.389592  -0.034221  0.691000
-0.389400  -0.034320  0.693000
-0.388080  -0.034320  0.693000
-0.387318  -0.034370  0.694000
-0.352503  -0.034716  0.701000
-0.347160  -0.034320  0.693000
-0.345840  -0.034320  0.693000
-0.345017  -0.034370  0.694000
-0.327192  -0.034865  0.704000
-0.325851  -0.034865  0.704000
-0.259290  -0.034221  0.691000
-0.257973  -0.034221  0.691000
-0.256286  -0.034171  0.690000
-0.253863  -0.034023  0.687000
-0.252187  -0.033973  0.686000
-0.250149  -0.033874  0.684000
-0.248482  -0.033825  0.683000
-0.246095  -0.033676  0.680000
-0.244800  -0.033676  0.680000
-0.243147  -0.033627  0.679000
-0.241853  -0.033627  0.679000
-0.240560  -0.033627  0.679000
-0.238210  -0.033478  0.676000
-0.236221  -0.033379  0.674000
-0.234937  -0.033379  0.674000
-0.232960  -0.033280  0.672000
-0.230990  -0.033181  0.670000
-0.229714  -0.033181  0.670000
-0.228438  -0.033181  0.670000
-0.226823  -0.033131  0.669000
-0.225549  -0.033131  0.669000
-0.224274  -0.033131  0.669000
-0.223000  -0.033131  0.669000
-0.221726  -0.033131  0.669000
-0.220451  -0.033131  0.669000
-0.219177  -0.033131  0.669000
-0.217903  -0.033131  0.669000
-0.216629  -0.033131  0.669000
-0.214710  -0.033032  0.667000
-0.213440  -0.033032  0.667000
-0.212170  -0.033032  0.667000
-0.210899  -0.033032  0.667000
-0.209629  -0.033032  0.667000
-0.208358  -0.033032  0.667000
-0.207088  -0.033032  0.667000
-0.205817  -0.033032  0.667000
-0.204547  -0.033032  0.667000
-0.203276  -0.033032  0.667000
-0.202006  -0.033032  0.667000
-0.200735  -0.033032  0.667000
-0.199465  -0.033032  0.667000
-0.198194  -0.033032  0.667000
-0.196924  -0.033032  0.667000
-0.195653  -0.033032  0.667000
-0.194383  -0.033032  0.667000
-0.193691  -0.033131  0.669000
-0.192705  -0.033181  0.670000
-0.191143  -0.033131  0.669000
-0.189869  -0.033131  0.669000
-0.188594  -0.033131  0.669000
-0.187600  -0.033181  0.670000
-0.186602  -0.033230  0.671000
-0.185600  -0.033280  0.672000
-0.184320  -0.033280  0.672000
-0.183040  -0.033280  0.672000
-0.182301  -0.033379  0.674000
-0.181017  -0.033379  0.674000
-0.180000  -0.033429  0.675000
-0.178714  -0.033429  0.675000
-0.177691  -0.033478  0.676000
-0.176926  -0.033577  0.678000
-0.175893  -0.033627  0.679000
-0.174600  -0.033627  0.679000
-0.173562  -0.033676  0.680000
-0.172773  -0.033775  0.682000
-0.171726  -0.033825  0.683000
-0.170674  -0.033874  0.684000
-0.169371  -0.033874  0.684000
-0.168069  -0.033874  0.684000
-0.167253  -0.033973  0.686000
-0.166672  -0.034122  0.689000
-0.165360  -0.034122  0.689000
-0.164286  -0.034171  0.690000
-0.162971  -0.034171  0.690000
-0.162360  -0.034320  0.693000
-0.161040  -0.034320  0.693000
-0.159720  -0.034320  0.693000
-0.158400  -0.034320  0.693000
-0.157080  -0.034320  0.693000
-0.117333  -0.034667  0.700000
-0.116000  -0.034667  0.700000
-0.114667  -0.034667  0.700000
-0.113010  -0.034568  0.698000
-0.111680  -0.034568  0.698000
-0.110350  -0.034568  0.698000
-0.107928  -0.034221  0.691000
-0.106611  -0.034221  0.691000
-0.105143  -0.034171  0.690000
-0.103829  -0.034171  0.690000
-0.102514  -0.034171  0.690000
-0.103693  -0.035013  0.707000
-0.102057  -0.034914  0.705000
-0.100714  -0.034914  0.705000
-0.099653  -0.035013  0.707000
0.026853  -0.036747  0.742000
0.028267  -0.036747  0.742000
0.131920  -0.035360  0.714000
0.133280  -0.035360  0.714000
0.134640  -0.035360  0.714000
0.136000  -0.035360  0.714000
0.137360  -0.035360  0.714000
0.138720  -0.035360  0.714000
0.138707  -0.035013  0.707000
0.140053  -0.035013  0.707000
0.141400  -0.035013  0.707000
0.141939  -0.034815  0.703000
0.143278  -0.034815  0.703000
0.144617  -0.034815  0.703000
0.146787  -0.035013  0.707000
0.148343  -0.035063  0.708000
0.149057  -0.034914  0.705000
0.150400  -0.034914  0.705000
0.152173  -0.035013  0.707000
0.153520  -0.035013  0.707000
0.155086  -0.035063  0.708000
0.156434  -0.035063  0.708000
0.157560  -0.035013  0.707000
0.158907  -0.035013  0.707000
0.160253  -0.035013  0.707000
0.160914  -0.034865  0.704000
0.162255  -0.034865  0.704000
0.168333  -0.035013  0.707000
0.169680  -0.035013  0.707000
0.171027  -0.035013  0.707000
0.172373  -0.035013  0.707000
0.174457  -0.035162  0.710000
0.175810  -0.035162  0.710000
0.177162  -0.035162  0.710000
0.178514  -0.035162  0.710000
0.180120  -0.035211  0.711000
0.181474  -0.035211  0.711000
0.182829  -0.035211  0.711000
0.184183  -0.035211  0.711000
0.184754  -0.035063  0.708000
0.186103  -0.035063  0.708000
0.187451  -0.035063  0.708000
0.189600  -0.035211  0.711000
0.190954  -0.035211  0.711000
0.190145  -0.034815  0.703000
0.191756  -0.034865  0.704000
0.193097  -0.034865  0.704000
0.194438  -0.034865  0.704000
0.196057  -0.034914  0.705000
0.197400  -0.034914  0.705000
0.199307  -0.035013  0.707000
0.200653  -0.035013  0.707000
0.202000  -0.035013  0.707000
0.203347  -0.035013  0.707000
0.204983  -0.035063  0.708000
0.214552  -0.034865  0.704000
0.215893  -0.034865  0.704000
0.217543  -0.034914  0.705000
0.218886  -0.034914  0.705000
0.224602  -0.035608  0.719000
0.226286  -0.035657  0.720000
0.227657  -0.035657  0.720000
0.229983  -0.035806  0.723000
0.231360  -0.035806  0.723000
0.226299  -0.034815  0.703000
0.227638  -0.034815  0.703000
0.228977  -0.034815  0.703000
0.230316  -0.034815  0.703000
0.231985  -0.034865  0.704000
0.233326  -0.034865  0.704000
0.234667  -0.034865  0.704000
0.235672  -0.034815  0.703000
0.237011  -0.034815  0.703000
0.238690  -0.034865  0.704000
0.240030  -0.034865  0.704000
0.241371  -0.034865  0.704000
0.243057  -0.034914  0.705000
0.244400  -0.034914  0.705000
-0.401737  -0.034766  0.676000
-0.399857  -0.034714  0.675000
-0.398571  -0.034714  0.675000
-0.396697  -0.034663  0.674000
-0.394240  -0.034560  0.672000
-0.392960  -0.034560  0.672000
-0.391680  -0.034560  0.672000
-0.390400  -0.034560  0.672000
-0.389120  -0.034560  0.672000
-0.387840  -0.034560  0.672000
-0.386560  -0.034560  0.672000
-0.395027  -0.035434  0.689000
-0.393714  -0.035434  0.689000
-0.392402  -0.035434  0.689000
-0.391090  -0.035434  0.689000
-0.389777  -0.035434  0.689000
-0.370987  -0.033840  0.658000
-0.369733  -0.033840  0.658000
-0.353509  -0.036154  0.703000
-0.352170  -0.036154  0.703000
-0.327192  -0.036206  0.704000
-0.325851  -0.036206  0.704000
-0.257600  -0.035486  0.690000
-0.256286  -0.035486  0.690000
-0.254602  -0.035434  0.689000
-0.252554  -0.035331  0.687000
-0.248320  -0.034920  0.679000
-0.247027  -0.034920  0.679000
-0.245733  -0.034920  0.679000
-0.244440  -0.034920  0.679000
-0.243147  -0.034920  0.679000
-0.241853  -0.034920  0.679000
-0.240560  -0.034920  0.679000
-0.239267  -0.034920  0.679000
-0.236221  -0.034663  0.674000
-0.234937  -0.034663  0.674000
-0.233653  -0.034663  0.674000
-0.230990  -0.034457  0.670000
-0.229714  -0.034457  0.670000
-0.228438  -0.034457  0.670000
-0.227162  -0.034457  0.670000
-0.225886  -0.034457  0.670000
-0.224274  -0.034406  0.669000
-0.223000  -0.034406  0.669000
-0.221726  -0.034406  0.669000
-0.220451  -0.034406  0.669000
-0.219177  -0.034406  0.669000
-0.217251  -0.034303  0.667000
-0.215981  -0.034303  0.667000
-0.214710  -0.034303  0.667000
-0.213120  -0.034251  0.666000
-0.211851  -0.034251  0.666000
-0.210267  -0.034200  0.665000
-0.209000  -0.034200  0.665000
-0.207733  -0.034200  0.665000
-0.207088  -0.034303  0.667000
-0.205817  -0.034303  0.667000
-0.203933  -0.034200  0.665000
-0.202667  -0.034200  0.665000
-0.201703  -0.034251  0.666000
-0.200434  -0.034251  0.666000
-0.199465  -0.034303  0.667000
-0.198194  -0.034303  0.667000
-0.196924  -0.034303  0.667000
-0.195653  -0.034303  0.667000
-0.194383  -0.034303  0.667000
-0.193691  -0.034406  0.669000
-0.192705  -0.034457  0.670000
-0.191143  -0.034406  0.669000
-0.189869  -0.034406  0.669000
-0.188876  -0.034457  0.670000
-0.187600  -0.034457  0.670000
-0.186602  -0.034509  0.671000
-0.185600  -0.034560  0.672000
-0.184320  -0.034560  0.672000
-0.183040  -0.034560  0.672000
-0.182301  -0.034663  0.674000
-0.181017  -0.034663  0.674000
-0.180000  -0.034714  0.675000
-0.178714  -0.034714  0.675000
-0.177691  -0.034766  0.676000
-0.176926  -0.034869  0.678000
-0.175634  -0.034869  0.678000
-0.174600  -0.034920  0.679000
-0.173307  -0.034920  0.679000
-0.172267  -0.034971  0.680000
-0.171474  -0.035074  0.682000
-0.170425  -0.035126  0.683000
-0.169124  -0.035126  0.683000
-0.168069  -0.035177  0.684000
-0.166766  -0.035177  0.684000
-0.165947  -0.035280  0.686000
-0.164880  -0.035331  0.687000
-0.163571  -0.035331  0.687000
-0.162735  -0.035434  0.689000
-0.161657  -0.035486  0.690000
-0.160343  -0.035486  0.690000
-0.159029  -0.035486  0.690000
-0.158400  -0.035640  0.693000
-0.157080  -0.035640  0.693000
-0.110240  -0.035434  0.689000
-0.108611  -0.035331  0.687000
-0.107303  -0.035331  0.687000
-0.106303  -0.035434  0.689000
-0.104990  -0.035434  0.689000
-0.103377  -0.035331  0.687000
-0.102069  -0.035331  0.687000
0.134640  -0.036720  0.714000
0.136000  -0.036720  0.714000
0.137745  -0.036823  0.716000
0.139261  -0.036154  0.703000
0.140600  -0.036154  0.703000
0.141535  -0.036051  0.701000
0.142870  -0.036051  0.701000
0.144617  -0.036154  0.703000
0.146371  -0.036257  0.705000
0.148133  -0.036360  0.707000
0.149057  -0.036257  0.705000
0.150400  -0.036257  0.705000
0.152173  -0.036360  0.707000
0.153520  -0.036360  0.707000
0.155086  -0.036411  0.708000
0.156434  -0.036411  0.708000
0.157560  -0.036360  0.707000
0.158907  -0.036360  0.707000
0.159800  -0.036257  0.705000
0.160686  -0.036154  0.703000
0.162025  -0.036154  0.703000
0.168333  -0.036360  0.707000
0.169680  -0.036360  0.707000
0.171027  -0.036360  0.707000
0.172373  -0.036360  0.707000
0.174457  -0.036514  0.710000
0.175810  -0.036514  0.710000
0.176663  -0.036411  0.708000
0.178011  -0.036411  0.708000
0.179360  -0.036411  0.708000
0.180709  -0.036411  0.708000
0.182057  -0.036411  0.708000
0.183406  -0.036411  0.708000
0.184754  -0.036411  0.708000
0.186103  -0.036411  0.708000
0.187451  -0.036411  0.708000
0.189600  -0.036566  0.711000
0.190954  -0.036566  0.711000
0.190145  -0.036154  0.703000
0.191484  -0.036154  0.703000
0.192823  -0.036154  0.703000
0.194162  -0.036154  0.703000
0.194945  -0.036051  0.701000
0.196280  -0.036051  0.701000
0.198743  -0.036257  0.705000
0.200086  -0.036257  0.705000
0.202000  -0.036360  0.707000
0.203347  -0.036360  0.707000
0.204983  -0.036411  0.708000
0.212909  -0.036154  0.703000
0.214248  -0.036154  0.703000
0.215587  -0.036154  0.703000
0.216926  -0.036154  0.703000
0.216712  -0.035897  0.698000
0.218042  -0.035897  0.698000
0.219371  -0.035897  0.698000
0.220701  -0.035897  0.698000
0.222030  -0.035897  0.698000
0.223360  -0.035897  0.698000
0.225655  -0.036051  0.701000
0.226990  -0.036051  0.701000
0.228326  -0.036051  0.701000
0.230316  -0.036154  0.703000
0.231655  -0.036154  0.703000
0.232994  -0.036154  0.703000
0.234333  -0.036154  0.703000
0.235672  -0.036154  0.703000
0.237011  -0.036154  0.703000
0.238350  -0.036154  0.703000
0.239690  -0.036154  0.703000
0.241029  -0.036154  0.703000
0.241678  -0.036051  0.701000
0.242667  -0.036000  0.700000
0.244000  -0.036000  0.700000
0.245333  -0.036000  0.700000
0.245610  -0.035846  0.697000
0.246937  -0.035846  0.697000
-0.399360  -0.035840  0.672000
-0.398080  -0.035840  0.672000
-0.397981  -0.035947  0.674000
-0.395520  -0.035840  0.672000
-0.394240  -0.035840  0.672000
-0.392960  -0.035840  0.672000
-0.391097  -0.035787  0.671000
-0.389819  -0.035787  0.671000
-0.388541  -0.035787  0.671000
-0.387263  -0.035787  0.671000
-0.385985  -0.035787  0.671000
-0.382413  -0.035573  0.667000
-0.378286  -0.035307  0.662000
-0.377025  -0.035307  0.662000
-0.376331  -0.035360  0.663000
-0.375069  -0.035360  0.663000
-0.370987  -0.035093  0.658000
-0.369733  -0.035093  0.658000
-0.257227  -0.036747  0.689000
-0.255914  -0.036747  0.689000
-0.254971  -0.036800  0.690000
-0.253657  -0.036800  0.690000
-0.247954  -0.036160  0.678000
-0.246663  -0.036160  0.678000
-0.245371  -0.036160  0.678000
-0.244080  -0.036160  0.678000
-0.242789  -0.036160  0.678000
-0.241853  -0.036213  0.679000
-0.240560  -0.036213  0.679000
-0.236221  -0.035947  0.674000
-0.234937  -0.035947  0.674000
-0.233653  -0.035947  0.674000
-0.231335  -0.035787  0.671000
-0.229714  -0.035733  0.670000
-0.228438  -0.035733  0.670000
-0.227162  -0.035733  0.670000
-0.225886  -0.035733  0.670000
-0.224610  -0.035733  0.670000
-0.223333  -0.035733  0.670000
-0.222057  -0.035733  0.670000
-0.220781  -0.035733  0.670000
-0.219505  -0.035733  0.670000
-0.217251  -0.035573  0.667000
-0.215981  -0.035573  0.667000
-0.214710  -0.035573  0.667000
-0.213120  -0.035520  0.666000
-0.211851  -0.035520  0.666000
-0.210267  -0.035467  0.665000
-0.209000  -0.035467  0.665000
-0.207733  -0.035467  0.665000
-0.206777  -0.035520  0.666000
-0.205509  -0.035520  0.666000
-0.203933  -0.035467  0.665000
-0.202667  -0.035467  0.665000
-0.201703  -0.035520  0.666000
-0.200434  -0.035520  0.666000
-0.199465  -0.035573  0.667000
-0.198194  -0.035573  0.667000
-0.196629  -0.035520  0.666000
-0.195360  -0.035520  0.666000
-0.194383  -0.035573  0.667000
-0.193112  -0.035573  0.667000
-0.192417  -0.035680  0.669000
-0.191143  -0.035680  0.669000
-0.189869  -0.035680  0.669000
-0.188876  -0.035733  0.670000
-0.187600  -0.035733  0.670000
-0.186602  -0.035787  0.671000
-0.185600  -0.035840  0.672000
-0.184320  -0.035840  0.672000
-0.183040  -0.035840  0.672000
-0.181760  -0.035840  0.672000
-0.181017  -0.035947  0.674000
-0.179733  -0.035947  0.674000
-0.178714  -0.036000  0.675000
-0.177429  -0.036000  0.675000
-0.176404  -0.036053  0.676000
-0.175634  -0.036160  0.678000
-0.174343  -0.036160  0.678000
-0.173051  -0.036160  0.678000
-0.172013  -0.036213  0.679000
-0.170971  -0.036267  0.680000
-0.170175  -0.036373  0.682000
-0.168876  -0.036373  0.682000
-0.167577  -0.036373  0.682000
-0.166766  -0.036480  0.684000
-0.165947  -0.036587  0.686000
-0.164880  -0.036640  0.687000
-0.163571  -0.036640  0.687000
-0.162735  -0.036747  0.689000
-0.161423  -0.036747  0.689000
-0.160110  -0.036747  0.689000
-0.159029  -0.036800  0.690000
-0.158400  -0.036960  0.693000
-0.110240  -0.036747  0.689000
-0.108611  -0.036640  0.687000
-0.107303  -0.036640  0.687000
-0.105531  -0.036480  0.684000
-0.104229  -0.036480  0.684000
-0.103377  -0.036640  0.687000
-0.102069  -0.036640  0.687000
0.139261  -0.037493  0.703000
0.140600  -0.037493  0.703000
0.141535  -0.037387  0.701000
0.142870  -0.037387  0.701000
0.144617  -0.037493  0.703000
0.146371  -0.037600  0.705000
0.148133  -0.037707  0.707000
0.149057  -0.037600  0.705000
0.150400  -0.037600  0.705000
0.152173  -0.037707  0.707000
0.153520  -0.037707  0.707000
0.154867  -0.037707  0.707000
0.156213  -0.037707  0.707000
0.157560  -0.037707  0.707000
0.158907  -0.037707  0.707000
0.159800  -0.037600  0.705000
0.160686  -0.037493  0.703000
0.162025  -0.037493  0.703000
0.176057  -0.037920  0.711000
0.176663  -0.037760  0.708000
0.178011  -0.037760  0.708000
0.179360  -0.037760  0.708000
0.180709  -0.037760  0.708000
0.182057  -0.037760  0.708000
0.183406  -0.037760  0.708000
0.184754  -0.037760  0.708000
0.186103  -0.037760  0.708000
0.187451  -0.037760  0.708000
0.186933  -0.037387  0.701000
0.188269  -0.037387  0.701000
0.189604  -0.037387  0.701000
0.190939  -0.037387  0.701000
0.192274  -0.037387  0.701000
0.194162  -0.037493  0.703000
0.194945  -0.037387  0.701000
0.196280  -0.037387  0.701000
0.198179  -0.037493  0.703000
0.199802  -0.037547  0.704000
0.201429  -0.037600  0.705000
0.202771  -0.037600  0.705000
0.204693  -0.037707  0.707000
0.212303  -0.037387  0.701000
0.213638  -0.037387  0.701000
0.214667  -0.037333  0.700000
0.215074  -0.037173  0.697000
0.216402  -0.037173  0.697000
0.217730  -0.037173  0.697000
0.219057  -0.037173  0.697000
0.220385  -0.037173  0.697000
0.221712  -0.037173  0.697000
0.223040  -0.037173  0.697000
0.224368  -0.037173  0.697000
0.226990  -0.037387  0.701000
0.228326  -0.037387  0.701000
0.229661  -0.037387  0.701000
0.230996  -0.037387  0.701000
0.232994  -0.037493  0.703000
0.234333  -0.037493  0.703000
0.235672  -0.037493  0.703000
0.237011  -0.037493  0.703000
0.238350  -0.037493  0.703000
0.239690  -0.037493  0.703000
0.241029  -0.037493  0.703000
0.241678  -0.037387  0.701000
0.242667  -0.037333  0.700000
0.244000  -0.037333  0.700000
0.244282  -0.037173  0.697000
0.245610  -0.037173  0.697000
0.246937  -0.037173  0.697000
0.248265  -0.037173  0.697000
0.249592  -0.037173  0.697000
-0.399360  -0.037120  0.672000
-0.394526  -0.036789  0.666000
-0.393257  -0.036789  0.666000
-0.394931  -0.037065  0.671000
-0.393653  -0.037065  0.671000
-0.392375  -0.037065  0.671000
-0.391097  -0.037065  0.671000
-0.389819  -0.037065  0.671000
-0.387962  -0.037010  0.670000
-0.386686  -0.037010  0.670000
-0.384834  -0.036954  0.669000
-0.382413  -0.036844  0.667000
-0.378286  -0.036568  0.662000
-0.377025  -0.036568  0.662000
-0.376331  -0.036623  0.663000
-0.375069  -0.036623  0.663000
-0.370987  -0.036347  0.658000
-0.369733  -0.036347  0.658000
-0.368480  -0.036347  0.658000
-0.367227  -0.036347  0.658000
-0.365973  -0.036347  0.658000
-0.257227  -0.038059  0.689000
-0.255914  -0.038059  0.689000
-0.254602  -0.038059  0.689000
-0.253290  -0.038059  0.689000
-0.247954  -0.037451  0.678000
-0.246663  -0.037451  0.678000
-0.245371  -0.037451  0.678000
-0.244080  -0.037451  0.678000
-0.242789  -0.037451  0.678000
-0.241853  -0.037507  0.679000
-0.240560  -0.037507  0.679000
-0.239267  -0.037507  0.679000
-0.231680  -0.037120  0.672000
-0.230057  -0.037065  0.671000
-0.228779  -0.037065  0.671000
-0.227501  -0.037065  0.671000
-0.226223  -0.037065  0.671000
-0.224945  -0.037065  0.671000
-0.223667  -0.037065  0.671000
-0.222057  -0.037010  0.670000
-0.220781  -0.037010  0.670000
-0.219177  -0.036954  0.669000
-0.217251  -0.036844  0.667000
-0.215981  -0.036844  0.667000
-0.214710  -0.036844  0.667000
-0.213120  -0.036789  0.666000
-0.211851  -0.036789  0.666000
-0.210583  -0.036789  0.666000
-0.209000  -0.036733  0.665000
-0.207733  -0.036733  0.665000
-0.206777  -0.036789  0.666000
-0.205509  -0.036789  0.666000
-0.203933  -0.036733  0.665000
-0.202667  -0.036733  0.665000
-0.201703  -0.036789  0.666000
-0.200434  -0.036789  0.666000
-0.199465  -0.036844  0.667000
-0.198194  -0.036844  0.667000
-0.196629  -0.036789  0.666000
-0.195360  -0.036789  0.666000
-0.194091  -0.036789  0.666000
-0.193112  -0.036844  0.667000
-0.192417  -0.036954  0.669000
-0.191143  -0.036954  0.669000
-0.190152  -0.037010  0.670000
-0.188876  -0.037010  0.670000
-0.187880  -0.037065  0.671000
-0.186602  -0.037065  0.671000
-0.185600  -0.037120  0.672000
-0.184320  -0.037120  0.672000
-0.183040  -0.037120  0.672000
-0.181760  -0.037120  0.672000
-0.181017  -0.037230  0.674000
-0.179733  -0.037230  0.674000
-0.178450  -0.037230  0.674000
-0.177166  -0.037230  0.674000
-0.176143  -0.037286  0.675000
-0.175634  -0.037451  0.678000
-0.173829  -0.037341  0.676000
-0.172541  -0.037341  0.676000
-0.171760  -0.037451  0.678000
-0.170720  -0.037507  0.679000
-0.169177  -0.037451  0.678000
-0.167886  -0.037451  0.678000
-0.166594  -0.037451  0.678000
-0.166522  -0.037728  0.683000
-0.165947  -0.037893  0.686000
-0.164880  -0.037949  0.687000
-0.164048  -0.038059  0.689000
-0.162735  -0.038059  0.689000
-0.160720  -0.037893  0.686000
-0.159413  -0.037893  0.686000
-0.159029  -0.038114  0.690000
-0.107615  -0.038059  0.689000
-0.105531  -0.037783  0.684000
-0.104229  -0.037783  0.684000
-0.103227  -0.037893  0.686000
-0.102069  -0.037949  0.687000
0.143482  -0.038888  0.704000
0.144823  -0.038888  0.704000
0.154867  -0.039053  0.707000
0.156213  -0.039053  0.707000
0.157114  -0.038943  0.705000
0.158457  -0.038943  0.705000
0.160253  -0.039053  0.707000
0.179360  -0.039109  0.708000
0.180709  -0.039109  0.708000
0.182057  -0.039109  0.708000
0.183406  -0.039109  0.708000
0.186933  -0.038722  0.701000
0.188269  -0.038722  0.701000
0.190667  -0.038667  0.700000
0.192000  -0.038667  0.700000
0.193333  -0.038667  0.700000
0.194945  -0.038722  0.701000
0.196280  -0.038722  0.701000
0.197615  -0.038722  0.701000
0.199518  -0.038832  0.703000
0.201143  -0.038888  0.704000
0.202771  -0.038943  0.705000
0.204693  -0.039053  0.707000
0.211394  -0.038556  0.698000
0.212724  -0.038556  0.698000
0.213133  -0.038390  0.695000
0.214457  -0.038390  0.695000
0.215781  -0.038390  0.695000
0.217730  -0.038501  0.697000
0.219057  -0.038501  0.697000
0.219752  -0.038390  0.695000
0.221076  -0.038390  0.695000
0.222400  -0.038390  0.695000
0.223724  -0.038390  0.695000
0.225695  -0.038501  0.697000
0.228326  -0.038722  0.701000
0.229661  -0.038722  0.701000
0.230996  -0.038722  0.701000
0.232331  -0.038722  0.701000
0.233667  -0.038722  0.701000
0.235002  -0.038722  0.701000
0.236337  -0.038722  0.701000
0.237672  -0.038722  0.701000
0.239008  -0.038722  0.701000
0.240343  -0.038722  0.701000
0.243747  -0.039053  0.707000
0.245093  -0.039053  0.707000
0.242954  -0.038501  0.697000
0.244282  -0.038501  0.697000
0.244905  -0.038390  0.695000
0.246229  -0.038390  0.695000
0.247552  -0.038390  0.695000
0.249592  -0.038501  0.697000
0.249573  -0.037893  0.686000
0.250880  -0.037893  0.686000
0.262680  -0.038280  0.693000
0.264000  -0.038280  0.693000
0.265703  -0.038335  0.694000
-0.397063  -0.038057  0.666000
-0.395200  -0.038000  0.665000
-0.393933  -0.038000  0.665000
-0.393257  -0.038057  0.666000
-0.394343  -0.038286  0.670000
-0.393067  -0.038286  0.670000
-0.392375  -0.038343  0.671000
-0.390514  -0.038286  0.670000
-0.389238  -0.038286  0.670000
-0.387962  -0.038286  0.670000
-0.386686  -0.038286  0.670000
-0.384834  -0.038229  0.669000
-0.382413  -0.038114  0.667000
-0.378286  -0.037829  0.662000
-0.377025  -0.037829  0.662000
-0.376331  -0.037886  0.663000
-0.375069  -0.037886  0.663000
-0.370423  -0.037543  0.657000
-0.369171  -0.037543  0.657000
-0.368480  -0.037600  0.658000
-0.367227  -0.037600  0.658000
-0.365417  -0.037543  0.657000
-0.364166  -0.037543  0.657000
-0.362914  -0.037543  0.657000
-0.361663  -0.037543  0.657000
-0.257227  -0.039371  0.689000
-0.255914  -0.039371  0.689000
-0.254602  -0.039371  0.689000
-0.253290  -0.039371  0.689000
-0.251977  -0.039371  0.689000
-0.250665  -0.039371  0.689000
-0.249352  -0.039371  0.689000
-0.248040  -0.039371  0.689000
-0.243147  -0.038800  0.679000
-0.241853  -0.038800  0.679000
-0.231335  -0.038343  0.671000
-0.230057  -0.038343  0.671000
-0.228779  -0.038343  0.671000
-0.227501  -0.038343  0.671000
-0.226223  -0.038343  0.671000
-0.224945  -0.038343  0.671000
-0.223667  -0.038343  0.671000
-0.221726  -0.038229  0.669000
-0.220451  -0.038229  0.669000
-0.218522  -0.038114  0.667000
-0.217251  -0.038114  0.667000
-0.215981  -0.038114  0.667000
-0.214710  -0.038114  0.667000
-0.213120  -0.038057  0.666000
-0.211851  -0.038057  0.666000
-0.210583  -0.038057  0.666000
-0.209314  -0.038057  0.666000
-0.208046  -0.038057  0.666000
-0.206777  -0.038057  0.666000
-0.205509  -0.038057  0.666000
-0.204240  -0.038057  0.666000
-0.200735  -0.038114  0.667000
-0.199465  -0.038114  0.667000
-0.198194  -0.038114  0.667000
-0.195743  -0.037886  0.663000
-0.194480  -0.037886  0.663000
-0.194091  -0.038057  0.666000
-0.193112  -0.038114  0.667000
-0.192417  -0.038229  0.669000
-0.191143  -0.038229  0.669000
-0.189869  -0.038229  0.669000
-0.188876  -0.038286  0.670000
-0.187880  -0.038343  0.671000
-0.186602  -0.038343  0.671000
-0.185600  -0.038400  0.672000
-0.184320  -0.038400  0.672000
-0.183040  -0.038400  0.672000
-0.181760  -0.038400  0.672000
-0.180480  -0.038400  0.672000
-0.179200  -0.038400  0.672000
-0.177920  -0.038400  0.672000
-0.176640  -0.038400  0.672000
-0.175360  -0.038400  0.672000
-0.174080  -0.038400  0.672000
-0.173314  -0.038514  0.674000
-0.172030  -0.038514  0.674000
-0.170240  -0.038400  0.672000
-0.168960  -0.038400  0.672000
-0.168678  -0.038629  0.676000
-0.167143  -0.038571  0.675000
-0.165857  -0.038571  0.675000
-0.165547  -0.038800  0.679000
-0.165947  -0.039200  0.686000
-0.164880  -0.039257  0.687000
-0.164048  -0.039371  0.689000
-0.162735  -0.039371  0.689000
-0.160720  -0.039200  0.686000
-0.159413  -0.039200  0.686000
-0.105531  -0.039086  0.684000
-0.104229  -0.039086  0.684000
-0.103227  -0.039200  0.686000
0.154867  -0.040400  0.707000
0.156213  -0.040400  0.707000
0.157114  -0.040286  0.705000
0.158457  -0.040286  0.705000
0.179360  -0.040457  0.708000
0.180709  -0.040457  0.708000
0.189850  -0.039829  0.697000
0.191177  -0.039829  0.697000
0.192781  -0.039886  0.698000
0.194667  -0.040000  0.700000
0.196000  -0.040000  0.700000
0.197615  -0.040057  0.701000
0.198950  -0.040057  0.701000
0.200857  -0.040171  0.703000
0.202771  -0.040286  0.705000
0.204693  -0.040400  0.707000
0.201227  -0.039200  0.686000
0.202533  -0.039200  0.686000
0.203840  -0.039200  0.686000
0.205446  -0.039257  0.687000
0.206754  -0.039257  0.687000
0.209880  -0.039600  0.693000
0.211200  -0.039600  0.693000
0.212520  -0.039600  0.693000
0.213840  -0.039600  0.693000
0.215470  -0.039657  0.694000
0.217105  -0.039714  0.695000
0.219057  -0.039829  0.697000
0.219436  -0.039657  0.694000
0.220440  -0.039600  0.693000
0.221760  -0.039600  0.693000
0.223402  -0.039657  0.694000
0.224400  -0.039600  0.693000
0.225720  -0.039600  0.693000
0.227368  -0.039657  0.694000
0.229019  -0.039714  0.695000
0.232000  -0.040000  0.700000
0.233333  -0.040000  0.700000
0.233996  -0.039886  0.698000
0.235326  -0.039886  0.698000
0.236316  -0.039829  0.697000
0.237644  -0.039829  0.697000
0.236571  -0.039429  0.690000
0.237541  -0.039371  0.689000
0.238160  -0.039257  0.687000
0.239469  -0.039257  0.687000
0.240427  -0.039200  0.686000
0.241733  -0.039200  0.686000
0.243394  -0.039257  0.687000
0.244703  -0.039257  0.687000
0.245653  -0.039200  0.686000
0.246960  -0.039200  0.686000
0.248267  -0.039200  0.686000
0.249573  -0.039200  0.686000
0.250880  -0.039200  0.686000
0.252187  -0.039200  0.686000
0.253493  -0.039200  0.686000
0.261922  -0.039486  0.691000
0.263238  -0.039486  0.691000
0.264554  -0.039486  0.691000
0.265870  -0.039486  0.691000
-0.397063  -0.039326  0.666000
-0.395200  -0.039267  0.665000
-0.393933  -0.039267  0.665000
-0.393257  -0.039326  0.666000
-0.394343  -0.039562  0.670000
-0.393067  -0.039562  0.670000
-0.391790  -0.039562  0.670000
-0.390514  -0.039562  0.670000
-0.389238  -0.039562  0.670000
-0.387962  -0.039562  0.670000
-0.386686  -0.039562  0.670000
-0.384834  -0.039503  0.669000
-0.383560  -0.039503  0.669000
-0.380000  -0.039267  0.665000
-0.377594  -0.039149  0.663000
-0.376331  -0.039149  0.663000
-0.375069  -0.039149  0.663000
-0.370423  -0.038794  0.657000
-0.369171  -0.038794  0.657000
-0.367920  -0.038794  0.657000
-0.367227  -0.038853  0.658000
-0.365417  -0.038794  0.657000
-0.364166  -0.038794  0.657000
-0.362914  -0.038794  0.657000
-0.361663  -0.038794  0.657000
-0.363154  -0.039090  0.662000
-0.361893  -0.039090  0.662000
-0.361177  -0.039149  0.663000
-0.361000  -0.039267  0.665000
-0.359733  -0.039267  0.665000
-0.359006  -0.039326  0.666000
-0.255914  -0.040684  0.689000
-0.254602  -0.040684  0.689000
-0.253657  -0.040743  0.690000
-0.252343  -0.040743  0.690000
-0.251029  -0.040743  0.690000
-0.249714  -0.040743  0.690000
-0.249480  -0.040920  0.693000
-0.231335  -0.039621  0.671000
-0.230057  -0.039621  0.671000
-0.228779  -0.039621  0.671000
-0.227840  -0.039680  0.672000
-0.226560  -0.039680  0.672000
-0.225280  -0.039680  0.672000
-0.223333  -0.039562  0.670000
-0.221063  -0.039385  0.667000
-0.219792  -0.039385  0.667000
-0.218522  -0.039385  0.667000
-0.216926  -0.039326  0.666000
-0.215657  -0.039326  0.666000
-0.214389  -0.039326  0.666000
-0.212800  -0.039267  0.665000
-0.211533  -0.039267  0.665000
-0.210583  -0.039326  0.666000
-0.209000  -0.039267  0.665000
-0.207733  -0.039267  0.665000
-0.206467  -0.039267  0.665000
-0.205509  -0.039326  0.666000
-0.204240  -0.039326  0.666000
-0.197897  -0.039326  0.666000
-0.195743  -0.039149  0.663000
-0.194187  -0.039090  0.662000
-0.192926  -0.039090  0.662000
-0.193112  -0.039385  0.667000
-0.192417  -0.039503  0.669000
-0.191143  -0.039503  0.669000
-0.189869  -0.039503  0.669000
-0.188876  -0.039562  0.670000
-0.187880  -0.039621  0.671000
-0.186602  -0.039621  0.671000
-0.185600  -0.039680  0.672000
-0.184046  -0.039621  0.671000
-0.182768  -0.039621  0.671000
-0.181760  -0.039680  0.672000
-0.180480  -0.039680  0.672000
-0.179200  -0.039680  0.672000
-0.177655  -0.039621  0.671000
-0.176377  -0.039621  0.671000
-0.175099  -0.039621  0.671000
-0.173821  -0.039621  0.671000
-0.172800  -0.039680  0.672000
-0.171520  -0.039680  0.672000
-0.170240  -0.039680  0.672000
-0.168960  -0.039680  0.672000
-0.168179  -0.039798  0.674000
-0.166895  -0.039798  0.674000
-0.165611  -0.039798  0.674000
-0.163840  -0.039680  0.672000
-0.162560  -0.039680  0.672000
-0.160800  -0.039562  0.670000
-0.159524  -0.039562  0.670000
-0.158720  -0.039680  0.672000
-0.157440  -0.039680  0.672000
0.189305  -0.041038  0.695000
0.190629  -0.041038  0.695000
0.192505  -0.041156  0.697000
0.194110  -0.041215  0.698000
0.196000  -0.041333  0.700000
0.197333  -0.041333  0.700000
0.198667  -0.041333  0.700000
0.200857  -0.041510  0.703000
0.202771  -0.041629  0.705000
0.204693  -0.041747  0.707000
0.206040  -0.041747  0.707000
0.200053  -0.040270  0.682000
0.201352  -0.040270  0.682000
0.203246  -0.040389  0.684000
0.205147  -0.040507  0.686000
0.206453  -0.040507  0.686000
0.207760  -0.040507  0.686000
0.209067  -0.040507  0.686000
0.210373  -0.040507  0.686000
0.212606  -0.040684  0.689000
0.213918  -0.040684  0.689000
0.214293  -0.040507  0.686000
0.215600  -0.040507  0.686000
0.217223  -0.040566  0.687000
0.219804  -0.040802  0.691000
0.221120  -0.040802  0.691000
0.223080  -0.040920  0.693000
0.223752  -0.040802  0.691000
0.225069  -0.040802  0.691000
0.226385  -0.040802  0.691000
0.228690  -0.040979  0.694000
0.231337  -0.041215  0.698000
0.232333  -0.041156  0.697000
0.232990  -0.041038  0.695000
0.234314  -0.041038  0.695000
0.235638  -0.041038  0.695000
0.236280  -0.040920  0.693000
0.236571  -0.040743  0.690000
0.236851  -0.040566  0.687000
0.237813  -0.040507  0.686000
0.239120  -0.040507  0.686000
0.240427  -0.040507  0.686000
0.241733  -0.040507  0.686000
0.243394  -0.040566  0.687000
0.244703  -0.040566  0.687000
0.245653  -0.040507  0.686000
0.246960  -0.040507  0.686000
0.248267  -0.040507  0.686000
0.248846  -0.040389  0.684000
0.250149  -0.040389  0.684000
0.251451  -0.040389  0.684000
0.252754  -0.040389  0.684000
0.261922  -0.040802  0.691000
0.262857  -0.040743  0.690000
0.264171  -0.040743  0.690000
0.261638  -0.040152  0.680000
0.262933  -0.040152  0.680000
0.265006  -0.040270  0.682000
-0.393067  -0.040838  0.670000
-0.391790  -0.040838  0.670000
-0.390514  -0.040838  0.670000
-0.389238  -0.040838  0.670000
-0.387962  -0.040838  0.670000
-0.386686  -0.040838  0.670000
-0.385410  -0.040838  0.670000
-0.383560  -0.040777  0.669000
-0.382286  -0.040777  0.669000
-0.371674  -0.040046  0.657000
-0.370423  -0.040046  0.657000
-0.369171  -0.040046  0.657000
-0.367920  -0.040046  0.657000
-0.367227  -0.040107  0.658000
-0.365417  -0.040046  0.657000
-0.364166  -0.040046  0.657000
-0.362914  -0.040046  0.657000
-0.361663  -0.040046  0.657000
-0.362606  -0.040290  0.661000
-0.361347  -0.040290  0.661000
-0.360632  -0.040350  0.662000
-0.359371  -0.040350  0.662000
-0.358110  -0.040350  0.662000
-0.358467  -0.040533  0.665000
-0.254971  -0.042057  0.690000
-0.253657  -0.042057  0.690000
-0.253440  -0.042240  0.693000
-0.252120  -0.042240  0.693000
-0.250800  -0.042240  0.693000
-0.249480  -0.042240  0.693000
-0.248160  -0.042240  0.693000
-0.229120  -0.040960  0.672000
-0.227840  -0.040960  0.672000
-0.226560  -0.040960  0.672000
-0.225280  -0.040960  0.672000
-0.223333  -0.040838  0.670000
-0.219737  -0.040411  0.663000
-0.218474  -0.040411  0.663000
-0.217211  -0.040411  0.663000
-0.215949  -0.040411  0.663000
-0.214362  -0.040350  0.662000
-0.213101  -0.040350  0.662000
-0.211840  -0.040350  0.662000
-0.210579  -0.040350  0.662000
-0.209318  -0.040350  0.662000
-0.208057  -0.040350  0.662000
-0.206796  -0.040350  0.662000
-0.206467  -0.040533  0.665000
-0.197897  -0.040594  0.666000
-0.195743  -0.040411  0.663000
-0.194187  -0.040350  0.662000
-0.192926  -0.040350  0.662000
-0.191665  -0.040350  0.662000
-0.191554  -0.040594  0.666000
-0.190286  -0.040594  0.666000
-0.189301  -0.040655  0.667000
-0.188876  -0.040838  0.670000
-0.188160  -0.040960  0.672000
-0.186880  -0.040960  0.672000
