# .PCD v.5 - Point Cloud Data file format
FIELDS x y z 
SIZE 4 4 4
TYPE F F F
COUNT 1 1 1
WIDTH 1624
HEIGHT 1
POINTS 1624
DATA ascii
0.095421  0.313966  0.808000
0.097200  0.314743  0.810000
0.098987  0.315520  0.812000
0.100533  0.315520  0.812000
0.102080  0.315520  0.812000
0.103627  0.315520  0.812000
0.105173  0.315520  0.812000
0.106720  0.315520  0.812000
0.108267  0.315520  0.812000
0.110219  0.316686  0.815000
0.111771  0.316686  0.815000
0.113324  0.316686  0.815000
0.114876  0.316686  0.815000
0.116714  0.317463  0.817000
0.115810  0.310857  0.800000
0.117333  0.310857  0.800000
0.118857  0.310857  0.800000
0.120381  0.310857  0.800000
0.121905  0.310857  0.800000
0.123737  0.311634  0.802000
0.125265  0.311634  0.802000
0.126792  0.311634  0.802000
0.128320  0.311634  0.802000
0.129848  0.311634  0.802000
0.131375  0.311634  0.802000
0.131743  0.308914  0.795000
0.133257  0.308914  0.795000
0.135110  0.309691  0.797000
0.136800  0.310080  0.798000
0.139013  0.311634  0.802000
0.139840  0.310080  0.798000
0.141183  0.309691  0.797000
0.142701  0.309691  0.797000
0.144762  0.310857  0.800000
0.146651  0.311634  0.802000
0.148179  0.311634  0.802000
0.149707  0.311634  0.802000
0.151611  0.312411  0.804000
0.152381  0.310857  0.800000
0.153905  0.310857  0.800000
0.155817  0.311634  0.802000
0.159307  0.315520  0.812000
0.160457  0.314743  0.810000
0.161200  0.313189  0.806000
0.162331  0.312411  0.804000
0.163863  0.312411  0.804000
0.165394  0.312411  0.804000
0.166926  0.312411  0.804000
0.168457  0.312411  0.804000
0.169989  0.312411  0.804000
0.171520  0.312411  0.804000
0.173051  0.312411  0.804000
0.174583  0.312411  0.804000
0.176114  0.312411  0.804000
0.177646  0.312411  0.804000
0.179177  0.312411  0.804000
0.181158  0.313189  0.806000
0.182693  0.313189  0.806000
0.184229  0.313189  0.806000
0.185764  0.313189  0.806000
0.187764  0.313966  0.808000
0.190240  0.315520  0.812000
0.191787  0.315520  0.812000
0.193333  0.315520  0.812000
0.195360  0.316297  0.814000
0.195943  0.314743  0.810000
0.197486  0.314743  0.810000
0.199520  0.315520  0.812000
0.201562  0.316297  0.814000
0.203362  0.316686  0.815000
0.204663  0.316297  0.814000
0.206213  0.316297  0.814000
0.207764  0.316297  0.814000
0.209314  0.316297  0.814000
0.211124  0.316686  0.815000
0.212676  0.316686  0.815000
0.214229  0.316686  0.815000
0.215781  0.316686  0.815000
0.211467  0.308137  0.793000
0.212977  0.308137  0.793000
0.214488  0.308137  0.793000
0.215998  0.308137  0.793000
0.217509  0.308137  0.793000
0.219019  0.308137  0.793000
0.220530  0.308137  0.793000
0.221480  0.307360  0.791000
0.222987  0.307360  0.791000
0.225629  0.308914  0.795000
0.232571  0.316297  0.814000
0.234122  0.316297  0.814000
0.235672  0.316297  0.814000
0.236640  0.315520  0.812000
0.238187  0.315520  0.812000
0.239733  0.315520  0.812000
0.241874  0.316297  0.814000
0.243425  0.316297  0.814000
0.244975  0.316297  0.814000
0.246526  0.316297  0.814000
0.248076  0.316297  0.814000
0.249627  0.316297  0.814000
0.251177  0.316297  0.814000
0.248381  0.310857  0.800000
0.249905  0.310857  0.800000
0.251429  0.310857  0.800000
0.252952  0.310857  0.800000
0.254476  0.310857  0.800000
0.256640  0.311634  0.802000
0.258168  0.311634  0.802000
0.259695  0.311634  0.802000
0.261223  0.311634  0.802000
0.262750  0.311634  0.802000
0.273257  0.309691  0.797000
0.274775  0.309691  0.797000
0.277333  0.310857  0.800000
0.278857  0.310857  0.800000
0.280381  0.310857  0.800000
0.282610  0.311634  0.802000
0.284137  0.311634  0.802000
0.286377  0.312411  0.804000
0.273943  0.297257  0.765000
0.275400  0.297257  0.765000
0.292419  0.313966  0.808000
0.293958  0.313966  0.808000
0.295497  0.313966  0.808000
0.297771  0.314743  0.810000
0.299314  0.314743  0.810000
0.300857  0.314743  0.810000
0.302400  0.314743  0.810000
0.303943  0.314743  0.810000
0.305486  0.314743  0.810000
0.307029  0.314743  0.810000
0.308571  0.314743  0.810000
0.310114  0.314743  0.810000
0.311657  0.314743  0.810000
0.312427  0.313966  0.808000
0.313189  0.313189  0.806000
0.314724  0.313189  0.806000
0.316259  0.313189  0.806000
0.316217  0.311634  0.802000
0.316952  0.310857  0.800000
0.318476  0.310857  0.800000
0.321600  0.312411  0.804000
0.323131  0.312411  0.804000
0.323855  0.311634  0.802000
0.325383  0.311634  0.802000
0.327726  0.312411  0.804000
0.329257  0.312411  0.804000
0.331611  0.313189  0.806000
0.333147  0.313189  0.806000
0.335512  0.313966  0.808000
0.337051  0.313966  0.808000
0.338590  0.313966  0.808000
0.340971  0.314743  0.810000
0.342514  0.314743  0.810000
0.344907  0.315520  0.812000
0.346453  0.315520  0.812000
0.340714  0.308914  0.795000
0.342229  0.308914  0.795000
0.343743  0.308914  0.795000
0.345257  0.308914  0.795000
0.346771  0.308914  0.795000
0.348286  0.308914  0.795000
0.350680  0.309691  0.797000
0.353524  0.310857  0.800000
0.355048  0.310857  0.800000
0.356571  0.310857  0.800000
0.358095  0.310857  0.800000
-0.470394  0.308086  0.789000
-0.468891  0.308086  0.789000
-0.466796  0.307695  0.788000
-0.465295  0.307695  0.788000
-0.464383  0.308086  0.789000
-0.462880  0.308086  0.789000
-0.461377  0.308086  0.789000
-0.459291  0.307695  0.788000
-0.456629  0.306914  0.786000
-0.452815  0.305352  0.782000
-0.451326  0.305352  0.782000
-0.430278  0.292076  0.748000
-0.428853  0.292076  0.748000
-0.427429  0.292076  0.748000
-0.444229  0.304571  0.780000
-0.443878  0.305352  0.782000
-0.442389  0.305352  0.782000
-0.442027  0.306133  0.784000
-0.443343  0.308086  0.789000
-0.444080  0.309648  0.793000
-0.442570  0.309648  0.793000
-0.441059  0.309648  0.793000
-0.439549  0.309648  0.793000
-0.440248  0.311210  0.797000
-0.438730  0.311210  0.797000
-0.437211  0.311210  0.797000
-0.435693  0.311210  0.797000
-0.434175  0.311210  0.797000
-0.419086  0.301448  0.772000
-0.417615  0.301448  0.772000
-0.430160  0.311600  0.798000
-0.428640  0.311600  0.798000
-0.427120  0.311600  0.798000
-0.425600  0.311600  0.798000
-0.425143  0.312381  0.800000
-0.410381  0.302619  0.775000
-0.408905  0.302619  0.775000
-0.408480  0.303400  0.777000
-0.407000  0.303400  0.777000
-0.403432  0.301838  0.773000
-0.401960  0.301838  0.773000
-0.400488  0.301838  0.773000
-0.400048  0.302619  0.775000
-0.398571  0.302619  0.775000
-0.398120  0.303400  0.777000
-0.396640  0.303400  0.777000
-0.395160  0.303400  0.777000
-0.394693  0.304181  0.779000
-0.394724  0.305352  0.782000
-0.397760  0.308867  0.791000
-0.396253  0.308867  0.791000
-0.394747  0.308867  0.791000
-0.393240  0.308867  0.791000
-0.391733  0.308867  0.791000
-0.390227  0.308867  0.791000
-0.385280  0.306133  0.784000
-0.383787  0.306133  0.784000
-0.382293  0.306133  0.784000
-0.380800  0.306133  0.784000
-0.381242  0.307695  0.788000
-0.379741  0.307695  0.788000
-0.378720  0.308086  0.789000
-0.375783  0.306914  0.786000
-0.374286  0.306914  0.786000
-0.372789  0.306914  0.786000
-0.371291  0.306914  0.786000
-0.369794  0.306914  0.786000
-0.367360  0.306133  0.784000
-0.365867  0.306133  0.784000
-0.361954  0.305352  0.782000
-0.352549  0.299886  0.768000
-0.351086  0.299886  0.768000
-0.351899  0.301838  0.773000
-0.350427  0.301838  0.773000
-0.348954  0.301838  0.773000
-0.347482  0.301838  0.773000
-0.346010  0.301838  0.773000
-0.344537  0.301838  0.773000
-0.344840  0.303400  0.777000
-0.344244  0.304181  0.779000
-0.343200  0.304571  0.780000
-0.341714  0.304571  0.780000
-0.340229  0.304571  0.780000
-0.338743  0.304571  0.780000
-0.337257  0.304571  0.780000
-0.336632  0.305352  0.782000
-0.334286  0.304571  0.780000
-0.332800  0.304571  0.780000
-0.331314  0.304571  0.780000
-0.329829  0.304571  0.780000
-0.326238  0.302619  0.775000
-0.324762  0.302619  0.775000
-0.325371  0.304571  0.780000
-0.323886  0.304571  0.780000
-0.322400  0.304571  0.780000
-0.321737  0.305352  0.782000
-0.321067  0.306133  0.784000
-0.320389  0.306914  0.786000
-0.318891  0.306914  0.786000
-0.318202  0.307695  0.788000
-0.316701  0.307695  0.788000
-0.315200  0.307695  0.788000
-0.311310  0.305352  0.782000
-0.309821  0.305352  0.782000
-0.309120  0.306133  0.784000
-0.317829  0.316286  0.810000
-0.316286  0.316286  0.810000
-0.314743  0.316286  0.810000
-0.311653  0.314724  0.806000
-0.309349  0.313943  0.804000
-0.307817  0.313943  0.804000
-0.297691  0.317848  0.814000
-0.296141  0.317848  0.814000
-0.294590  0.317848  0.814000
-0.297720  0.322924  0.827000
-0.296145  0.322924  0.827000
-0.294570  0.322924  0.827000
-0.292994  0.322924  0.827000
-0.291419  0.322924  0.827000
-0.290545  0.323705  0.829000
-0.288966  0.323705  0.829000
-0.148918  0.314724  0.806000
-0.147383  0.314724  0.806000
-0.145486  0.313943  0.804000
-0.143954  0.313943  0.804000
-0.142423  0.313943  0.804000
-0.140190  0.312381  0.800000
-0.138320  0.311600  0.798000
-0.136629  0.311210  0.797000
-0.134771  0.310429  0.795000
-0.133257  0.310429  0.795000
-0.131743  0.310429  0.795000
-0.129901  0.309648  0.793000
-0.128067  0.308867  0.791000
-0.126560  0.308867  0.791000
-0.125053  0.308867  0.791000
-0.123547  0.308867  0.791000
-0.122040  0.308867  0.791000
-0.121448  0.311210  0.797000
-0.120080  0.311600  0.798000
-0.118560  0.311600  0.798000
-0.117333  0.312381  0.800000
-0.115810  0.312381  0.800000
-0.114286  0.312381  0.800000
-0.113044  0.313162  0.802000
-0.111794  0.313943  0.804000
-0.109989  0.313162  0.802000
-0.108461  0.313162  0.802000
-0.106933  0.313162  0.802000
-0.105406  0.313162  0.802000
-0.103878  0.313162  0.802000
-0.102350  0.313162  0.802000
-0.101074  0.313943  0.804000
-0.097562  0.307695  0.788000
-0.096061  0.307695  0.788000
-0.094680  0.308086  0.789000
-0.093177  0.308086  0.789000
-0.090629  0.304571  0.780000
-0.089143  0.304571  0.780000
-0.087882  0.305352  0.782000
-0.082084  0.290124  0.743000
-0.080669  0.290124  0.743000
-0.079147  0.289733  0.742000
-0.077733  0.289733  0.742000
-0.076114  0.288952  0.740000
-0.074604  0.288562  0.739000
-0.072998  0.287781  0.737000
-0.071303  0.286610  0.734000
-0.069619  0.285438  0.731000
-0.068227  0.285438  0.731000
-0.066651  0.284657  0.729000
-0.065263  0.284657  0.729000
-0.063787  0.284267  0.728000
-0.062400  0.284267  0.728000
-0.061013  0.284267  0.728000
-0.059463  0.283486  0.726000
-0.058000  0.283095  0.725000
-0.056619  0.283095  0.725000
-0.055238  0.283095  0.725000
-0.053857  0.283095  0.725000
-0.052331  0.282314  0.723000
-0.050954  0.282314  0.723000
-0.049577  0.282314  0.723000
-0.048200  0.282314  0.723000
-0.046823  0.282314  0.723000
-0.045383  0.281924  0.722000
-0.044008  0.281924  0.722000
-0.042632  0.281924  0.722000
-0.041143  0.281143  0.720000
-0.039771  0.281143  0.720000
-0.038400  0.281143  0.720000
-0.036977  0.280752  0.719000
-0.035608  0.280752  0.719000
-0.034238  0.280752  0.719000
-0.032869  0.280752  0.719000
-0.031543  0.281143  0.720000
-0.030255  0.281924  0.722000
-0.028880  0.281924  0.722000
-0.027505  0.281924  0.722000
-0.026166  0.282314  0.723000
-0.024789  0.282314  0.723000
-0.023411  0.282314  0.723000
-0.022034  0.282314  0.723000
-0.020657  0.282314  0.723000
-0.019280  0.282314  0.723000
-0.017903  0.282314  0.723000
-0.016526  0.282314  0.723000
-0.015149  0.282314  0.723000
-0.013810  0.283095  0.725000
-0.012429  0.283095  0.725000
-0.011063  0.283486  0.726000
-0.009680  0.283486  0.726000
-0.008320  0.284267  0.728000
-0.006933  0.284267  0.728000
-0.005554  0.284657  0.729000
-0.004177  0.285438  0.731000
-0.002789  0.285829  0.732000
-0.001402  0.287390  0.736000
0.000000  0.287781  0.737000
0.001408  0.288562  0.739000
0.002819  0.288952  0.740000
0.004240  0.289733  0.742000
0.005661  0.290124  0.743000
0.007076  0.290124  0.743000
0.008514  0.290905  0.745000
0.009933  0.290905  0.745000
0.011352  0.290905  0.745000
0.015010  0.307695  0.788000
0.018034  0.308086  0.789000
0.019537  0.308086  0.789000
0.021013  0.307695  0.788000
0.022514  0.307695  0.788000
0.024015  0.307695  0.788000
0.026034  0.313943  0.804000
0.027497  0.313162  0.802000
0.029025  0.313162  0.802000
0.030552  0.313162  0.802000
0.031720  0.309648  0.793000
0.033230  0.309648  0.793000
0.034653  0.308867  0.791000
0.036069  0.308086  0.789000
0.037524  0.307695  0.788000
0.038926  0.306914  0.786000
0.040423  0.306914  0.786000
0.043413  0.317848  0.814000
0.044190  0.312381  0.800000
0.045714  0.312381  0.800000
0.047474  0.313943  0.804000
0.049006  0.313943  0.804000
0.050537  0.313943  0.804000
0.052069  0.313943  0.804000
0.053600  0.313943  0.804000
0.055131  0.313943  0.804000
0.056522  0.313162  0.802000
0.058050  0.313162  0.802000
0.060543  0.318238  0.815000
0.062095  0.318238  0.815000
0.063648  0.318238  0.815000
0.064000  0.312381  0.800000
0.065524  0.312381  0.800000
0.067048  0.312381  0.800000
0.068743  0.313162  0.802000
0.070095  0.312381  0.800000
0.071619  0.312381  0.800000
0.073143  0.312381  0.800000
0.074853  0.313162  0.802000
0.076571  0.313943  0.804000
0.078297  0.314724  0.806000
0.079634  0.313943  0.804000
0.081166  0.313943  0.804000
0.082286  0.312381  0.800000
0.083810  0.312381  0.800000
0.085120  0.311600  0.798000
0.086640  0.311600  0.798000
0.088381  0.312381  0.800000
0.089905  0.312381  0.800000
0.092114  0.314724  0.806000
0.093650  0.314724  0.806000
0.095421  0.315505  0.808000
0.096960  0.315505  0.808000
0.098987  0.317067  0.812000
0.100286  0.316286  0.810000
0.101829  0.316286  0.810000
0.103627  0.317067  0.812000
0.105173  0.317067  0.812000
0.106720  0.317067  0.812000
0.108267  0.317067  0.812000
0.107244  0.309648  0.793000
0.108754  0.309648  0.793000
0.110821  0.311210  0.797000
0.112339  0.311210  0.797000
0.113857  0.311210  0.797000
0.115375  0.311210  0.797000
0.117040  0.311600  0.798000
0.118560  0.311600  0.798000
0.120381  0.312381  0.800000
0.121905  0.312381  0.800000
0.123429  0.312381  0.800000
0.124952  0.312381  0.800000
0.126476  0.312381  0.800000
0.128320  0.313162  0.802000
0.129848  0.313162  0.802000
0.129573  0.308867  0.791000
0.131080  0.308867  0.791000
0.132922  0.309648  0.793000
0.134771  0.310429  0.795000
0.136286  0.310429  0.795000
0.139013  0.313162  0.802000
0.139314  0.310429  0.795000
0.140829  0.310429  0.795000
0.142343  0.310429  0.795000
0.144762  0.312381  0.800000
0.146651  0.313162  0.802000
0.148179  0.313162  0.802000
0.149707  0.313162  0.802000
0.151611  0.313943  0.804000
0.152381  0.312381  0.800000
0.153905  0.312381  0.800000
0.155817  0.313162  0.802000
0.159307  0.317067  0.812000
0.158872  0.313162  0.802000
0.160400  0.313162  0.802000
0.161928  0.313162  0.802000
0.163455  0.313162  0.802000
0.165394  0.313943  0.804000
0.166926  0.313943  0.804000
0.168457  0.313943  0.804000
0.169989  0.313943  0.804000
0.171520  0.313943  0.804000
0.172190  0.312381  0.800000
0.173714  0.312381  0.800000
0.175676  0.313162  0.802000
0.177204  0.313162  0.802000
0.179177  0.313943  0.804000
0.179360  0.311600  0.798000
0.180880  0.311600  0.798000
0.182400  0.311600  0.798000
0.184842  0.313162  0.802000
0.186834  0.313943  0.804000
0.190240  0.317067  0.812000
0.191787  0.317067  0.812000
0.193333  0.317067  0.812000
0.195360  0.317848  0.814000
0.195459  0.315505  0.808000
0.196998  0.315505  0.808000
0.199029  0.316286  0.810000
0.201562  0.317848  0.814000
0.203112  0.317848  0.814000
0.204663  0.317848  0.814000
0.206213  0.317848  0.814000
0.207764  0.317848  0.814000
0.209314  0.317848  0.814000
0.210865  0.317848  0.814000
0.212415  0.317848  0.814000
0.214229  0.318238  0.815000
0.215781  0.318238  0.815000
0.211467  0.309648  0.793000
0.212977  0.309648  0.793000
0.214488  0.309648  0.793000
0.215453  0.308867  0.791000
0.216960  0.308867  0.791000
0.218467  0.308867  0.791000
0.219973  0.308867  0.791000
0.221480  0.308867  0.791000
0.222987  0.308867  0.791000
0.225061  0.309648  0.793000
0.226571  0.309648  0.793000
0.233547  0.317067  0.812000
0.235093  0.317067  0.812000
0.236057  0.316286  0.810000
0.237600  0.316286  0.810000
0.239733  0.317067  0.812000
0.241280  0.317067  0.812000
0.242827  0.317067  0.812000
0.244373  0.317067  0.812000
0.246526  0.317848  0.814000
0.248381  0.318238  0.815000
0.249627  0.317848  0.814000
0.251177  0.317848  0.814000
0.247760  0.311600  0.798000
0.249280  0.311600  0.798000
0.249857  0.310429  0.795000
0.251371  0.310429  0.795000
0.253840  0.311600  0.798000
0.255040  0.311210  0.797000
0.256558  0.311210  0.797000
0.258400  0.311600  0.798000
0.259920  0.311600  0.798000
0.272571  0.310429  0.795000
0.274086  0.310429  0.795000
0.276640  0.311600  0.798000
0.278160  0.311600  0.798000
0.280381  0.312381  0.800000
0.282610  0.313162  0.802000
0.284137  0.313162  0.802000
0.273198  0.299495  0.767000
0.273943  0.298714  0.765000
0.275400  0.298714  0.765000
0.290971  0.313943  0.804000
0.293958  0.315505  0.808000
0.295497  0.315505  0.808000
0.297036  0.315505  0.808000
0.299314  0.316286  0.810000
0.300857  0.316286  0.810000
0.302400  0.316286  0.810000
0.303943  0.316286  0.810000
0.305486  0.316286  0.810000
0.307029  0.316286  0.810000
0.308571  0.316286  0.810000
0.309349  0.315505  0.808000
0.310888  0.315505  0.808000
0.312427  0.315505  0.808000
0.313189  0.314724  0.806000
0.310429  0.310429  0.795000
0.311943  0.310429  0.795000
0.314640  0.311600  0.798000
0.316160  0.311600  0.798000
0.317680  0.311600  0.798000
0.319200  0.311600  0.798000
0.320720  0.311600  0.798000
0.322240  0.311600  0.798000
0.323760  0.311600  0.798000
0.326910  0.313162  0.802000
0.329257  0.313943  0.804000
0.331611  0.314724  0.806000
0.333147  0.314724  0.806000
0.335512  0.315505  0.808000
0.337051  0.315505  0.808000
0.338590  0.315505  0.808000
0.340971  0.316286  0.810000
0.342514  0.316286  0.810000
0.337686  0.310429  0.795000
0.337493  0.308867  0.791000
0.339000  0.308867  0.791000
0.341368  0.309648  0.793000
0.342878  0.309648  0.793000
0.344389  0.309648  0.793000
0.345899  0.309648  0.793000
0.348286  0.310429  0.795000
0.350680  0.311210  0.797000
0.353524  0.312381  0.800000
0.354160  0.311600  0.798000
0.355680  0.311600  0.798000
0.357200  0.311600  0.798000
0.358720  0.311600  0.798000
-0.469798  0.309196  0.788000
-0.468297  0.309196  0.788000
-0.467389  0.309589  0.789000
-0.465886  0.309589  0.789000
-0.464383  0.309589  0.789000
-0.462880  0.309589  0.789000
-0.460792  0.309196  0.788000
-0.458126  0.308411  0.786000
-0.453143  0.306057  0.780000
-0.451078  0.305665  0.779000
-0.449594  0.305665  0.779000
-0.430278  0.293501  0.748000
-0.428853  0.293501  0.748000
-0.427429  0.293501  0.748000
-0.443659  0.305665  0.779000
-0.442743  0.306057  0.780000
-0.441257  0.306057  0.780000
-0.440899  0.306842  0.782000
-0.441657  0.308411  0.786000
-0.440160  0.308411  0.786000
-0.438663  0.308411  0.786000
-0.437166  0.308411  0.786000
-0.435669  0.308411  0.786000
-0.440248  0.312728  0.797000
-0.438730  0.312728  0.797000
-0.437211  0.312728  0.797000
-0.412733  0.296248  0.755000
-0.419086  0.302918  0.772000
-0.417615  0.302918  0.772000
-0.416145  0.302918  0.772000
-0.415211  0.303310  0.773000
-0.413739  0.303310  0.773000
-0.412267  0.303310  0.773000
-0.410794  0.303310  0.773000
-0.409322  0.303310  0.773000
-0.407850  0.303310  0.773000
-0.407429  0.304095  0.775000
-0.405952  0.304095  0.775000
-0.403432  0.303310  0.773000
-0.401960  0.303310  0.773000
-0.400488  0.303310  0.773000
-0.400048  0.304095  0.775000
-0.398571  0.304095  0.775000
-0.397095  0.304095  0.775000
-0.395619  0.304095  0.775000
-0.394143  0.304095  0.775000
-0.393680  0.304880  0.777000
-0.394724  0.306842  0.782000
-0.393234  0.306842  0.782000
-0.392747  0.307627  0.784000
-0.393250  0.309196  0.788000
-0.392246  0.309589  0.789000
-0.390743  0.309589  0.789000
-0.389240  0.309589  0.789000
-0.386263  0.308411  0.786000
-0.384766  0.308411  0.786000
-0.384244  0.309196  0.788000
-0.382743  0.309196  0.788000
-0.381726  0.309589  0.789000
-0.380223  0.309589  0.789000
-0.378720  0.309589  0.789000
-0.374827  0.307627  0.784000
-0.373333  0.307627  0.784000
-0.372789  0.308411  0.786000
-0.371291  0.308411  0.786000
-0.369794  0.308411  0.786000
-0.367360  0.307627  0.784000
-0.364933  0.306842  0.782000
-0.363444  0.306842  0.782000
-0.359543  0.306057  0.780000
-0.352549  0.301349  0.768000
-0.351086  0.301349  0.768000
-0.349623  0.301349  0.768000
-0.350427  0.303310  0.773000
-0.348954  0.303310  0.773000
-0.347482  0.303310  0.773000
-0.346010  0.303310  0.773000
-0.344537  0.303310  0.773000
-0.343952  0.304095  0.775000
-0.344244  0.305665  0.779000
-0.342760  0.305665  0.779000
-0.341276  0.305665  0.779000
-0.340229  0.306057  0.780000
-0.338309  0.305665  0.779000
-0.336825  0.305665  0.779000
-0.335771  0.306057  0.780000
-0.334286  0.306057  0.780000
-0.330667  0.304095  0.775000
-0.329190  0.304095  0.775000
-0.327714  0.304095  0.775000
-0.325396  0.303310  0.773000
-0.323924  0.303310  0.773000
-0.326206  0.306842  0.782000
-0.323470  0.305665  0.779000
-0.321987  0.305665  0.779000
-0.321737  0.306842  0.782000
-0.321067  0.307627  0.784000
-0.319573  0.307627  0.784000
-0.318080  0.307627  0.784000
-0.313760  0.304880  0.777000
-0.312280  0.304880  0.777000
-0.310800  0.304880  0.777000
-0.309320  0.304880  0.777000
-0.307840  0.304880  0.777000
-0.307149  0.305665  0.779000
-0.304880  0.304880  0.777000
-0.303400  0.304880  0.777000
-0.301143  0.304095  0.775000
-0.299667  0.304095  0.775000
-0.297720  0.324499  0.827000
-0.296145  0.324499  0.827000
-0.294570  0.324499  0.827000
-0.292994  0.324499  0.827000
-0.291419  0.324499  0.827000
-0.290545  0.325284  0.829000
-0.288966  0.325284  0.829000
-0.148918  0.316259  0.806000
-0.147383  0.316259  0.806000
-0.145486  0.315474  0.804000
-0.143954  0.315474  0.804000
-0.142423  0.315474  0.804000
-0.140190  0.313905  0.800000
-0.138320  0.313120  0.798000
-0.136629  0.312728  0.797000
-0.134771  0.311943  0.795000
-0.133257  0.311943  0.795000
-0.131743  0.311943  0.795000
-0.129901  0.311158  0.793000
-0.127743  0.309589  0.789000
-0.126240  0.309589  0.789000
-0.125053  0.310373  0.791000
-0.123547  0.310373  0.791000
-0.122040  0.310373  0.791000
-0.121448  0.312728  0.797000
-0.120080  0.313120  0.798000
-0.118560  0.313120  0.798000
-0.117333  0.313905  0.800000
-0.115810  0.313905  0.800000
-0.114286  0.313905  0.800000
-0.112762  0.313905  0.800000
-0.111516  0.314690  0.802000
-0.109989  0.314690  0.802000
-0.108461  0.314690  0.802000
-0.106933  0.314690  0.802000
-0.105406  0.314690  0.802000
-0.103878  0.314690  0.802000
-0.102350  0.314690  0.802000
-0.101326  0.316259  0.806000
-0.097067  0.307627  0.784000
-0.095573  0.307627  0.784000
-0.095160  0.311158  0.793000
-0.091760  0.304880  0.777000
-0.090280  0.304880  0.777000
-0.089029  0.305665  0.779000
-0.087545  0.305665  0.779000
-0.081973  0.291147  0.742000
-0.080560  0.291147  0.742000
-0.079147  0.291147  0.742000
-0.077733  0.291147  0.742000
-0.076114  0.290362  0.740000
-0.074604  0.289970  0.739000
-0.072998  0.289185  0.737000
-0.071303  0.288008  0.734000
-0.069619  0.286830  0.731000
-0.068227  0.286830  0.731000
-0.066651  0.286046  0.729000
-0.065263  0.286046  0.729000
-0.063787  0.285653  0.728000
-0.062400  0.285653  0.728000
-0.061013  0.285653  0.728000
-0.059463  0.284869  0.726000
-0.058000  0.284476  0.725000
-0.056619  0.284476  0.725000
-0.055238  0.284476  0.725000
-0.053857  0.284476  0.725000
-0.052331  0.283691  0.723000
-0.050954  0.283691  0.723000
-0.049577  0.283691  0.723000
-0.048200  0.283691  0.723000
-0.046823  0.283691  0.723000
-0.045383  0.283299  0.722000
-0.044008  0.283299  0.722000
-0.042632  0.283299  0.722000
-0.041143  0.282514  0.720000
-0.039771  0.282514  0.720000
-0.038400  0.282514  0.720000
-0.037029  0.282514  0.720000
-0.035608  0.282122  0.719000
-0.034238  0.282122  0.719000
-0.032914  0.282514  0.720000
-0.031543  0.282514  0.720000
-0.030255  0.283299  0.722000
-0.028880  0.283299  0.722000
-0.027505  0.283299  0.722000
-0.026166  0.283691  0.723000
-0.024789  0.283691  0.723000
-0.023411  0.283691  0.723000
-0.022034  0.283691  0.723000
-0.020657  0.283691  0.723000
-0.019280  0.283691  0.723000
-0.017903  0.283691  0.723000
-0.016526  0.283691  0.723000
-0.015149  0.283691  0.723000
-0.013810  0.284476  0.725000
-0.012429  0.284476  0.725000
-0.011063  0.284869  0.726000
-0.009680  0.284869  0.726000
-0.008320  0.285653  0.728000
-0.006933  0.285653  0.728000
-0.005554  0.286046  0.729000
-0.004177  0.286830  0.731000
-0.002785  0.286830  0.731000
-0.001398  0.288008  0.734000
0.000000  0.288792  0.736000
0.001408  0.289970  0.739000
0.002819  0.290362  0.740000
0.004240  0.291147  0.742000
0.005661  0.291539  0.743000
0.007076  0.291539  0.743000
0.008514  0.292324  0.745000
0.009933  0.292324  0.745000
0.011352  0.292324  0.745000
0.012771  0.292324  0.745000
0.015010  0.309196  0.788000
0.016510  0.309196  0.788000
0.018011  0.309196  0.788000
0.019463  0.308411  0.786000
0.020960  0.308411  0.786000
0.022457  0.308411  0.786000
0.023954  0.308411  0.786000
0.025451  0.308411  0.786000
0.027360  0.313120  0.798000
0.028880  0.313120  0.798000
0.030210  0.311158  0.793000
0.031720  0.311158  0.793000
0.033230  0.311158  0.793000
0.034522  0.309196  0.788000
0.036023  0.309196  0.788000
0.037524  0.309196  0.788000
0.038926  0.308411  0.786000
0.040423  0.308411  0.786000
0.041920  0.308411  0.786000
0.043417  0.308411  0.786000
0.046057  0.316259  0.806000
0.047592  0.316259  0.806000
0.049006  0.315474  0.804000
0.050537  0.315474  0.804000
0.052069  0.315474  0.804000
0.053600  0.315474  0.804000
0.059314  0.339410  0.865000
0.060962  0.339410  0.865000
0.056891  0.308411  0.786000
0.058389  0.308411  0.786000
0.059886  0.308411  0.786000
0.061383  0.308411  0.786000
0.062880  0.308411  0.786000
0.064377  0.308411  0.786000
0.067215  0.314690  0.802000
0.068743  0.314690  0.802000
0.070095  0.313905  0.800000
0.071619  0.313905  0.800000
0.073326  0.314690  0.802000
0.075040  0.315474  0.804000
0.076571  0.315474  0.804000
0.078297  0.316259  0.806000
0.079832  0.316259  0.806000
0.081166  0.315474  0.804000
0.081771  0.311943  0.795000
0.083286  0.311943  0.795000
0.084800  0.311943  0.795000
0.086314  0.311943  0.795000
0.087829  0.311943  0.795000
0.089343  0.311943  0.795000
0.090857  0.311943  0.795000
0.092952  0.313905  0.800000
0.095185  0.316259  0.806000
0.096720  0.316259  0.806000
0.095573  0.307627  0.784000
0.097067  0.307627  0.784000
0.098811  0.308411  0.786000
0.101457  0.311943  0.795000
0.102712  0.311158  0.793000
0.104223  0.311158  0.793000
0.105733  0.311158  0.793000
0.107244  0.311158  0.793000
0.108754  0.311158  0.793000
0.110543  0.311943  0.795000
0.112057  0.311943  0.795000
0.113571  0.311943  0.795000
0.115375  0.312728  0.797000
0.117040  0.313120  0.798000
0.118560  0.313120  0.798000
0.120381  0.313905  0.800000
0.121905  0.313905  0.800000
0.123429  0.313905  0.800000
0.124952  0.313905  0.800000
0.126476  0.313905  0.800000
0.125760  0.308411  0.786000
0.127257  0.308411  0.786000
0.128754  0.308411  0.786000
0.130583  0.309196  0.788000
0.132084  0.309196  0.788000
0.133754  0.309589  0.789000
0.135600  0.310373  0.791000
0.139360  0.315474  0.804000
0.139314  0.311943  0.795000
0.140829  0.311943  0.795000
0.142343  0.311943  0.795000
0.144400  0.313120  0.798000
0.147017  0.315474  0.804000
0.148918  0.316259  0.806000
0.150827  0.317044  0.808000
0.151611  0.315474  0.804000
0.151429  0.311943  0.795000
0.152943  0.311943  0.795000
0.152709  0.308411  0.786000
0.154206  0.308411  0.786000
0.155703  0.308411  0.786000
0.157800  0.309589  0.789000
0.160918  0.312728  0.797000
0.163048  0.313905  0.800000
0.165394  0.315474  0.804000
0.166510  0.314690  0.802000
0.168038  0.314690  0.802000
0.169143  0.313905  0.800000
0.170667  0.313905  0.800000
0.171760  0.313120  0.798000
0.173063  0.312728  0.797000
0.174143  0.311943  0.795000
0.175657  0.311943  0.795000
0.177171  0.311943  0.795000
0.179135  0.312728  0.797000
0.180653  0.312728  0.797000
0.182171  0.312728  0.797000
0.183229  0.311943  0.795000
0.184743  0.311943  0.795000
0.186257  0.311943  0.795000
0.186827  0.310373  0.791000
0.188333  0.310373  0.791000
0.189840  0.310373  0.791000
0.190137  0.308411  0.786000
0.191634  0.308411  0.786000
0.199029  0.317829  0.810000
0.194133  0.307627  0.784000
0.195627  0.307627  0.784000
0.197120  0.307627  0.784000
0.198107  0.306842  0.782000
0.199596  0.306842  0.782000
0.200571  0.306057  0.780000
0.201798  0.305665  0.779000
0.203282  0.305665  0.779000
0.204766  0.305665  0.779000
0.206250  0.305665  0.779000
0.210933  0.310373  0.791000
0.212440  0.310373  0.791000
0.213947  0.310373  0.791000
0.215453  0.310373  0.791000
0.216960  0.310373  0.791000
0.218467  0.310373  0.791000
0.219973  0.310373  0.791000
0.221480  0.310373  0.791000
0.222987  0.310373  0.791000
0.225061  0.311158  0.793000
0.226571  0.311158  0.793000
0.232971  0.317829  0.810000
0.234514  0.317829  0.810000
0.235474  0.317044  0.808000
0.237013  0.317044  0.808000
0.238552  0.317044  0.808000
0.233554  0.308411  0.786000
0.235051  0.308411  0.786000
0.238053  0.310373  0.791000
0.239560  0.310373  0.791000
0.241067  0.310373  0.791000
0.243187  0.311158  0.793000
0.244697  0.311158  0.793000
0.246208  0.311158  0.793000
0.248343  0.311943  0.795000
0.249229  0.311158  0.793000
0.250739  0.311158  0.793000
0.252250  0.311158  0.793000
0.253760  0.311158  0.793000
0.255270  0.311158  0.793000
0.258076  0.312728  0.797000
0.259594  0.312728  0.797000
0.267989  0.308411  0.786000
0.269486  0.308411  0.786000
0.272707  0.310373  0.791000
0.275600  0.311943  0.795000
0.278160  0.313120  0.798000
0.280381  0.313905  0.800000
0.281905  0.313905  0.800000
0.272800  0.302133  0.770000
0.273198  0.300956  0.767000
0.274659  0.300956  0.767000
0.276120  0.300956  0.767000
0.290248  0.314690  0.802000
0.292503  0.315474  0.804000
0.294766  0.316259  0.806000
0.296301  0.316259  0.806000
0.299314  0.317829  0.810000
0.300857  0.317829  0.810000
0.287467  0.302133  0.770000
0.288933  0.302133  0.770000
0.304731  0.317044  0.808000
0.291867  0.302133  0.770000
0.293333  0.302133  0.770000
0.295566  0.302918  0.772000
0.310118  0.316259  0.806000
0.311653  0.316259  0.806000
0.306194  0.309196  0.788000
0.307695  0.309196  0.788000
0.309589  0.309589  0.789000
0.312669  0.311158  0.793000
0.314179  0.311158  0.793000
0.317282  0.312728  0.797000
0.318800  0.312728  0.797000
0.320318  0.312728  0.797000
0.322240  0.313120  0.798000
0.323760  0.313120  0.798000
0.326910  0.314690  0.802000
0.329257  0.315474  0.804000
0.332434  0.317044  0.808000
0.333973  0.317044  0.808000
0.335512  0.317044  0.808000
0.337051  0.317044  0.808000
0.334400  0.313120  0.798000
0.335920  0.313120  0.798000
0.336171  0.311943  0.795000
0.337686  0.311943  0.795000
0.336640  0.309589  0.789000
0.338143  0.309589  0.789000
0.340507  0.310373  0.791000
0.342878  0.311158  0.793000
0.344389  0.311158  0.793000
0.345899  0.311158  0.793000
0.347410  0.311158  0.793000
0.349800  0.311943  0.795000
0.352640  0.313120  0.798000
0.353716  0.312728  0.797000
0.355234  0.312728  0.797000
0.354067  0.310373  0.791000
0.354225  0.309196  0.788000
0.354823  0.308411  0.786000
0.356320  0.308411  0.786000
0.357817  0.308411  0.786000
-0.469798  0.310697  0.788000
-0.464731  0.308331  0.782000
-0.463242  0.308331  0.782000
-0.465295  0.310697  0.788000
-0.463794  0.310697  0.788000
-0.462293  0.310697  0.788000
-0.459623  0.309909  0.786000
-0.452880  0.306360  0.777000
-0.451400  0.306360  0.777000
-0.449920  0.306360  0.777000
-0.448440  0.306360  0.777000
-0.430278  0.294926  0.748000
-0.428853  0.294926  0.748000
-0.427429  0.294926  0.748000
-0.442520  0.306360  0.777000
-0.442743  0.307543  0.780000
-0.441257  0.307543  0.780000
-0.440899  0.308331  0.782000
-0.441657  0.309909  0.786000
-0.440160  0.309909  0.786000
-0.438663  0.309909  0.786000
-0.437166  0.309909  0.786000
-0.435669  0.309909  0.786000
-0.434171  0.309909  0.786000
-0.415610  0.297686  0.755000
-0.414171  0.297686  0.755000
-0.412733  0.297686  0.755000
-0.419467  0.303600  0.770000
-0.419086  0.304389  0.772000
-0.417615  0.304389  0.772000
-0.416145  0.304389  0.772000
-0.415211  0.304783  0.773000
-0.413204  0.304389  0.772000
-0.411733  0.304389  0.772000
-0.410263  0.304389  0.772000
-0.408792  0.304389  0.772000
-0.407850  0.304783  0.773000
-0.406377  0.304783  0.773000
-0.405952  0.305571  0.775000
-0.403432  0.304783  0.773000
-0.401960  0.304783  0.773000
-0.400488  0.304783  0.773000
-0.400048  0.305571  0.775000
-0.398571  0.305571  0.775000
-0.397095  0.305571  0.775000
-0.395619  0.305571  0.775000
-0.394143  0.305571  0.775000
-0.393680  0.306360  0.777000
-0.393714  0.307543  0.780000
-0.393234  0.308331  0.782000
-0.391745  0.308331  0.782000
-0.391253  0.309120  0.784000
-0.390754  0.309909  0.786000
-0.389257  0.309909  0.786000
-0.389240  0.311091  0.789000
-0.387737  0.311091  0.789000
-0.385745  0.310697  0.788000
-0.384244  0.310697  0.788000
-0.383229  0.311091  0.789000
-0.382693  0.311880  0.791000
-0.381187  0.311880  0.791000
-0.380640  0.312669  0.793000
-0.374827  0.309120  0.784000
-0.373333  0.309120  0.784000
-0.372789  0.309909  0.786000
-0.371291  0.309909  0.786000
-0.370735  0.310697  0.788000
-0.367360  0.309120  0.784000
-0.364000  0.307543  0.780000
-0.362514  0.307543  0.780000
-0.361029  0.307543  0.780000
-0.359543  0.307543  0.780000
-0.352549  0.302811  0.768000
-0.351086  0.302811  0.768000
-0.349623  0.302811  0.768000
-0.349067  0.303600  0.770000
-0.347600  0.303600  0.770000
-0.347482  0.304783  0.773000
-0.346010  0.304783  0.773000
-0.344537  0.304783  0.773000
-0.343952  0.305571  0.775000
-0.344244  0.307149  0.779000
-0.342760  0.307149  0.779000
-0.341276  0.307149  0.779000
-0.340229  0.307543  0.780000
-0.338309  0.307149  0.779000
-0.336825  0.307149  0.779000
-0.335341  0.307149  0.779000
-0.333857  0.307149  0.779000
-0.329387  0.304389  0.772000
-0.327916  0.304389  0.772000
-0.326869  0.304783  0.773000
-0.324975  0.304389  0.772000
-0.323505  0.304389  0.772000
-0.323286  0.305571  0.775000
-0.321810  0.305571  0.775000
-0.321160  0.306360  0.777000
-0.321737  0.308331  0.782000
-0.321067  0.309120  0.784000
-0.317943  0.307543  0.780000
-0.314429  0.305571  0.775000
-0.312952  0.305571  0.775000
-0.312280  0.306360  0.777000
-0.310800  0.306360  0.777000
-0.309320  0.306360  0.777000
-0.307840  0.306360  0.777000
-0.306360  0.306360  0.777000
-0.304880  0.306360  0.777000
-0.303400  0.306360  0.777000
-0.301143  0.305571  0.775000
-0.299667  0.305571  0.775000
-0.297000  0.325286  0.825000
-0.295429  0.325286  0.825000
-0.294570  0.326074  0.827000
-0.292994  0.326074  0.827000
-0.292124  0.326863  0.829000
-0.290545  0.326863  0.829000
-0.288966  0.326863  0.829000
-0.145486  0.317006  0.804000
-0.143954  0.317006  0.804000
-0.142423  0.317006  0.804000
-0.140891  0.317006  0.804000
-0.138320  0.314640  0.798000
-0.136629  0.314246  0.797000
-0.134771  0.313457  0.795000
-0.133257  0.313457  0.795000
-0.127600  0.303600  0.770000
-0.126133  0.303600  0.770000
-0.124990  0.304389  0.772000
-0.125120  0.308331  0.782000
-0.123156  0.307149  0.779000
-0.121672  0.307149  0.779000
-0.120189  0.307149  0.779000
-0.118400  0.306360  0.777000
-0.116920  0.306360  0.777000
-0.115737  0.307149  0.779000
-0.114253  0.307149  0.779000
-0.112770  0.307149  0.779000
-0.111286  0.307149  0.779000
-0.109802  0.307149  0.779000
-0.108318  0.307149  0.779000
-0.106834  0.307149  0.779000
-0.105350  0.307149  0.779000
-0.104000  0.307543  0.780000
-0.101200  0.303600  0.770000
-0.100899  0.307149  0.779000
-0.099415  0.307149  0.779000
-0.097931  0.307149  0.779000
-0.096448  0.307149  0.779000
-0.094720  0.306360  0.777000
-0.093000  0.305571  0.775000
-0.091524  0.305571  0.775000
-0.090048  0.305571  0.775000
-0.088800  0.306360  0.777000
-0.087320  0.306360  0.777000
-0.081973  0.292560  0.742000
-0.080560  0.292560  0.742000
-0.079147  0.292560  0.742000
-0.077733  0.292560  0.742000
-0.076114  0.291771  0.740000
-0.074604  0.291377  0.739000
-0.072899  0.290194  0.736000
-0.071109  0.288617  0.732000
-0.069619  0.288223  0.731000
-0.068040  0.287434  0.729000
-0.066651  0.287434  0.729000
-0.065263  0.287434  0.729000
-0.063787  0.287040  0.728000
-0.062400  0.287040  0.728000
-0.061013  0.287040  0.728000
-0.059463  0.286251  0.726000
-0.058000  0.285857  0.725000
-0.056619  0.285857  0.725000
-0.055238  0.285857  0.725000
-0.053857  0.285857  0.725000
-0.052331  0.285069  0.723000
-0.050954  0.285069  0.723000
-0.049577  0.285069  0.723000
-0.048200  0.285069  0.723000
-0.046823  0.285069  0.723000
-0.045383  0.284674  0.722000
-0.044008  0.284674  0.722000
-0.042632  0.284674  0.722000
-0.041257  0.284674  0.722000
-0.039771  0.283886  0.720000
-0.038400  0.283886  0.720000
-0.037029  0.283886  0.720000
-0.035657  0.283886  0.720000
-0.034286  0.283886  0.720000
-0.032914  0.283886  0.720000
-0.031543  0.283886  0.720000
-0.030255  0.284674  0.722000
-0.028880  0.284674  0.722000
-0.027505  0.284674  0.722000
-0.026166  0.285069  0.723000
-0.024789  0.285069  0.723000
-0.023411  0.285069  0.723000
-0.022034  0.285069  0.723000
-0.020657  0.285069  0.723000
-0.019280  0.285069  0.723000
-0.017903  0.285069  0.723000
-0.016526  0.285069  0.723000
-0.015149  0.285069  0.723000
-0.013810  0.285857  0.725000
-0.012429  0.285857  0.725000
-0.011063  0.286251  0.726000
-0.009680  0.286251  0.726000
-0.008320  0.287040  0.728000
-0.006933  0.287040  0.728000
-0.005554  0.287434  0.729000
-0.004177  0.288223  0.731000
-0.002785  0.288223  0.731000
-0.001398  0.289406  0.734000
0.000000  0.290194  0.736000
0.001408  0.291377  0.739000
0.002819  0.291771  0.740000
0.004229  0.291771  0.740000
0.005653  0.292560  0.742000
0.007076  0.292954  0.743000
0.008514  0.293743  0.745000
0.009933  0.293743  0.745000
0.011352  0.293743  0.745000
0.013629  0.313457  0.795000
0.015067  0.311880  0.791000
0.016510  0.310697  0.788000
0.018011  0.310697  0.788000
0.019463  0.309909  0.786000
0.020960  0.309909  0.786000
0.022457  0.309909  0.786000
0.023954  0.309909  0.786000
0.025451  0.309909  0.786000
0.027360  0.314640  0.798000
0.028880  0.314640  0.798000
0.030210  0.312669  0.793000
0.031720  0.312669  0.793000
0.033230  0.312669  0.793000
0.034522  0.310697  0.788000
0.036023  0.310697  0.788000
0.037524  0.310697  0.788000
0.038926  0.309909  0.786000
0.040423  0.309909  0.786000
0.041920  0.309909  0.786000
0.043417  0.309909  0.786000
0.045029  0.310697  0.788000
0.047238  0.315429  0.800000
0.048762  0.315429  0.800000
0.049280  0.309120  0.784000
0.050773  0.309120  0.784000
0.052600  0.311091  0.789000
0.054103  0.311091  0.789000
0.055606  0.311091  0.789000
0.056891  0.309909  0.786000
0.058389  0.309909  0.786000
0.059886  0.309909  0.786000
0.061539  0.310697  0.788000
0.062880  0.309909  0.786000
0.064377  0.309909  0.786000
0.065288  0.307149  0.779000
0.066771  0.307149  0.779000
0.070095  0.315429  0.800000
0.071619  0.315429  0.800000
0.073143  0.315429  0.800000
0.074853  0.316217  0.802000
0.076571  0.317006  0.804000
0.078297  0.317794  0.806000
0.079832  0.317794  0.806000
0.079853  0.311880  0.791000
0.081360  0.311880  0.791000
0.082867  0.311880  0.791000
0.084373  0.311880  0.791000
0.085880  0.311880  0.791000
0.087387  0.311880  0.791000
0.088669  0.311091  0.789000
0.090057  0.310697  0.788000
0.091326  0.309909  0.786000
0.092823  0.309909  0.786000
0.094320  0.309909  0.786000
0.095330  0.308331  0.782000
0.096819  0.308331  0.782000
0.098811  0.309909  0.786000
0.101202  0.312669  0.793000
0.102712  0.312669  0.793000
0.104223  0.312669  0.793000
0.105733  0.312669  0.793000
0.107244  0.312669  0.793000
0.108754  0.312669  0.793000
0.110265  0.312669  0.793000
0.111775  0.312669  0.793000
0.113286  0.312669  0.793000
0.114796  0.312669  0.793000
0.116013  0.311880  0.791000
0.117520  0.311880  0.791000
0.120381  0.315429  0.800000
0.118705  0.307149  0.779000
0.120189  0.307149  0.779000
0.121672  0.307149  0.779000
0.123314  0.307543  0.780000
0.124800  0.307543  0.780000
0.126610  0.308331  0.782000
0.128099  0.308331  0.782000
0.129920  0.309120  0.784000
0.131749  0.309909  0.786000
0.133585  0.310697  0.788000
0.135257  0.311091  0.789000
0.138667  0.315429  0.800000
0.138088  0.310697  0.788000
0.139589  0.310697  0.788000
0.141985  0.312669  0.793000
0.144400  0.314640  0.798000
0.147017  0.317006  0.804000
0.148918  0.317794  0.806000
0.145600  0.307543  0.780000
0.147086  0.307543  0.780000
0.151429  0.313457  0.795000
0.149865  0.307149  0.779000
0.151349  0.307149  0.779000
0.153029  0.307543  0.780000
0.155307  0.309120  0.784000
0.157600  0.310697  0.788000
0.159707  0.311880  0.791000
0.161213  0.311880  0.791000
0.164983  0.316217  0.802000
0.165680  0.314640  0.798000
0.167200  0.314640  0.798000
0.168086  0.313457  0.795000
0.169600  0.313457  0.795000
0.171114  0.313457  0.795000
0.172194  0.312669  0.793000
0.173705  0.312669  0.793000
0.175215  0.312669  0.793000
0.170931  0.302417  0.767000
0.171943  0.301629  0.765000
0.173400  0.301629  0.765000
0.182171  0.314246  0.797000
0.183229  0.313457  0.795000
0.184743  0.313457  0.795000
0.186257  0.313457  0.795000
0.187299  0.312669  0.793000
0.188333  0.311880  0.791000
0.189120  0.310697  0.788000
0.190137  0.309909  0.786000
0.191147  0.309120  0.784000
0.192640  0.309120  0.784000
0.194133  0.309120  0.784000
0.195128  0.308331  0.782000
0.196617  0.308331  0.782000
0.197600  0.307543  0.780000
0.199086  0.307543  0.780000
0.200571  0.307543  0.780000
0.201798  0.307149  0.779000
0.203282  0.307149  0.779000
0.204766  0.307149  0.779000
0.206250  0.307149  0.779000
0.210933  0.311880  0.791000
0.212440  0.311880  0.791000
0.213947  0.311880  0.791000
0.214909  0.311091  0.789000
0.215589  0.309909  0.786000
0.217086  0.309909  0.786000
0.218583  0.309909  0.786000
0.220080  0.309909  0.786000
0.221013  0.309120  0.784000
0.221371  0.307543  0.780000
0.222857  0.307543  0.780000
0.224055  0.307149  0.779000
0.225539  0.307149  0.779000
0.227314  0.307543  0.780000
0.229387  0.308331  0.782000
0.230876  0.308331  0.782000
0.232960  0.309120  0.784000
0.235051  0.309909  0.786000
0.237451  0.311091  0.789000
0.238954  0.311091  0.789000
0.240457  0.311091  0.789000
0.241960  0.311091  0.789000
0.244080  0.311880  0.791000
0.245587  0.311880  0.791000
0.247093  0.311880  0.791000
0.247657  0.310697  0.788000
0.249158  0.310697  0.788000
0.250659  0.310697  0.788000
0.251520  0.309909  0.786000
0.253017  0.309909  0.786000
0.256781  0.312669  0.793000
0.258291  0.312669  0.793000
0.262634  0.307149  0.779000
0.264118  0.307149  0.779000
0.265943  0.307543  0.780000
0.268114  0.308331  0.782000
0.270983  0.309909  0.786000
0.273173  0.310697  0.788000
0.276417  0.312669  0.793000
0.280381  0.315429  0.800000
0.281200  0.314640  0.798000
0.272800  0.303600  0.770000
0.273554  0.302811  0.768000
0.275017  0.302811  0.768000
0.277200  0.303600  0.770000
0.279390  0.304389  0.772000
0.282680  0.306360  0.777000
0.284160  0.306360  0.777000
0.286375  0.307149  0.779000
0.299314  0.319371  0.810000
0.286743  0.304389  0.772000
0.287467  0.303600  0.770000
0.288933  0.303600  0.770000
0.289646  0.302811  0.768000
0.291109  0.302811  0.768000
0.293333  0.303600  0.770000
0.294800  0.303600  0.770000
0.298960  0.306360  0.777000
0.301213  0.307149  0.779000
0.303086  0.307543  0.780000
0.306914  0.309909  0.786000
0.309196  0.310697  0.788000
0.311880  0.311880  0.791000
0.313387  0.311880  0.791000
0.316486  0.313457  0.795000
0.317200  0.312669  0.793000
0.318710  0.312669  0.793000
0.321029  0.313457  0.795000
0.323760  0.314640  0.798000
0.325280  0.314640  0.798000
0.331714  0.319371  0.810000
0.333257  0.319371  0.810000
0.334800  0.319371  0.810000
0.324716  0.308331  0.782000
0.326206  0.308331  0.782000
0.327695  0.308331  0.782000
0.334657  0.313457  0.795000
0.335326  0.312669  0.793000
0.336836  0.312669  0.793000
0.336213  0.310697  0.788000
0.337714  0.310697  0.788000
0.340507  0.311880  0.791000
0.342013  0.311880  0.791000
0.343520  0.311880  0.791000
0.345027  0.311880  0.791000
0.347410  0.312669  0.793000
0.349800  0.313457  0.795000
0.352198  0.314246  0.797000
0.352829  0.313457  0.795000
0.351669  0.311091  0.789000
0.353171  0.311091  0.789000
0.353326  0.309909  0.786000
0.354823  0.309909  0.786000
0.356320  0.309909  0.786000
0.357817  0.309909  0.786000
0.359314  0.309909  0.786000
-0.464731  0.309821  0.782000
-0.463242  0.309821  0.782000
-0.465295  0.312198  0.788000
-0.463794  0.312198  0.788000
-0.462293  0.312198  0.788000
-0.453190  0.307048  0.775000
-0.435977  0.296350  0.748000
-0.434552  0.296350  0.748000
-0.448762  0.307048  0.775000
-0.432857  0.297143  0.750000
-0.430278  0.296350  0.748000
-0.428853  0.296350  0.748000
-0.442857  0.307048  0.775000
-0.442520  0.307840  0.777000
-0.442743  0.309029  0.780000
-0.441257  0.309029  0.780000
-0.440899  0.309821  0.782000
-0.439410  0.309821  0.782000
-0.421680  0.298331  0.753000
-0.420246  0.298331  0.753000
-0.418811  0.298331  0.753000
-0.418486  0.299124  0.755000
-0.417048  0.299124  0.755000
-0.415610  0.299124  0.755000
-0.414171  0.299124  0.755000
-0.412733  0.299124  0.755000
-0.419467  0.305067  0.770000
-0.418000  0.305067  0.770000
-0.416533  0.305067  0.770000
-0.416145  0.305859  0.772000
-0.414674  0.305859  0.772000
-0.413204  0.305859  0.772000
-0.410667  0.305067  0.770000
-0.409200  0.305067  0.770000
-0.407733  0.305067  0.770000
-0.407322  0.305859  0.772000
-0.406377  0.306255  0.773000
-0.404905  0.306255  0.773000
-0.402910  0.305859  0.772000
-0.401440  0.305859  0.772000
-0.399970  0.305859  0.772000
-0.396434  0.304274  0.768000
-0.394971  0.304274  0.768000
-0.389922  0.301501  0.761000
-0.388472  0.301501  0.761000
-0.393126  0.306255  0.773000
-0.391653  0.306255  0.773000
-0.393714  0.309029  0.780000
-0.393234  0.309821  0.782000
-0.391745  0.309821  0.782000
-0.376781  0.299124  0.755000
-0.375343  0.299124  0.755000
-0.373905  0.299124  0.755000
-0.372467  0.299124  0.755000
-0.371029  0.299124  0.755000
-0.394556  0.319330  0.806000
-0.393996  0.320122  0.808000
-0.393429  0.320914  0.810000
-0.392853  0.321707  0.812000
-0.391307  0.321707  0.812000
-0.390720  0.322499  0.814000
-0.392516  0.325272  0.821000
-0.390000  0.324480  0.819000
-0.388440  0.324480  0.819000
-0.386880  0.324480  0.819000
-0.385320  0.324480  0.819000
-0.365486  0.309029  0.780000
-0.364000  0.309029  0.780000
-0.362514  0.309029  0.780000
-0.361029  0.309029  0.780000
-0.359543  0.309029  0.780000
-0.352549  0.304274  0.768000
-0.351086  0.304274  0.768000
-0.349623  0.304274  0.768000
-0.349067  0.305067  0.770000
-0.347600  0.305067  0.770000
-0.347032  0.305859  0.772000
-0.346010  0.306255  0.773000
-0.344537  0.306255  0.773000
-0.343952  0.307048  0.775000
-0.344686  0.309029  0.780000
-0.343200  0.309029  0.780000
-0.341276  0.308632  0.779000
-0.339792  0.308632  0.779000
-0.338309  0.308632  0.779000
-0.335095  0.307048  0.775000
-0.332758  0.306255  0.773000
-0.330857  0.305859  0.772000
-0.329387  0.305859  0.772000
-0.327916  0.305859  0.772000
-0.326446  0.305859  0.772000
-0.324133  0.305067  0.770000
-0.322667  0.305067  0.770000
-0.321200  0.305067  0.770000
-0.320564  0.305859  0.772000
-0.319507  0.306255  0.773000
-0.320503  0.308632  0.779000
-0.319429  0.309029  0.780000
-0.313867  0.305067  0.770000
-0.312400  0.305067  0.770000
-0.312952  0.307048  0.775000
-0.312280  0.307840  0.777000
-0.310800  0.307840  0.777000
-0.309320  0.307840  0.777000
-0.307840  0.307840  0.777000
-0.305571  0.307048  0.775000
-0.304095  0.307048  0.775000
-0.302619  0.307048  0.775000
-0.301920  0.307840  0.777000
-0.297000  0.326857  0.825000
-0.295429  0.326857  0.825000
-0.293857  0.326857  0.825000
-0.292994  0.327650  0.827000
-0.291419  0.327650  0.827000
-0.289844  0.327650  0.827000
-0.288269  0.327650  0.827000
-0.145486  0.318537  0.804000
