# .PCD v.5 - Point Cloud Data file format
FIELDS x y z 
SIZE 4 4 4
TYPE F F F
COUNT 1 1 1
WIDTH 1620
HEIGHT 1
POINTS 1620
DATA ascii
0.209543  0.237114  0.579000
0.210646  0.237114  0.579000
0.211017  0.236295  0.577000
0.212116  0.236295  0.577000
0.212846  0.235886  0.576000
0.213943  0.235886  0.576000
0.215040  0.235886  0.576000
0.216512  0.236295  0.577000
0.217989  0.236705  0.578000
0.219469  0.237114  0.579000
0.220571  0.237114  0.579000
0.222057  0.237524  0.580000
0.223162  0.237524  0.580000
0.224653  0.237933  0.581000
0.225760  0.237933  0.581000
0.226867  0.237933  0.581000
0.227973  0.237933  0.581000
0.227109  0.235886  0.576000
0.228206  0.235886  0.576000
0.230497  0.237114  0.579000
0.231600  0.237114  0.579000
0.233507  0.237933  0.581000
0.235017  0.238343  0.582000
0.236126  0.238343  0.582000
0.237234  0.238343  0.582000
0.238343  0.238343  0.582000
0.239451  0.238343  0.582000
0.240560  0.238343  0.582000
0.241669  0.238343  0.582000
0.242777  0.238343  0.582000
0.243467  0.237933  0.581000
0.244573  0.237933  0.581000
0.245680  0.237933  0.581000
0.246787  0.237933  0.581000
0.247893  0.237933  0.581000
0.249000  0.237933  0.581000
0.250968  0.238752  0.583000
0.251646  0.238343  0.582000
0.252754  0.238343  0.582000
0.254299  0.238752  0.583000
0.254095  0.237524  0.580000
0.253880  0.236295  0.577000
0.254537  0.235886  0.576000
0.255634  0.235886  0.576000
0.256731  0.235886  0.576000
0.257829  0.235886  0.576000
0.258926  0.235886  0.576000
0.264989  0.240390  0.587000
0.266107  0.240390  0.587000
0.265404  0.238752  0.583000
0.266514  0.238752  0.583000
0.268084  0.239162  0.584000
0.268735  0.238752  0.583000
0.269383  0.238343  0.582000
0.269562  0.237524  0.580000
0.270667  0.237524  0.580000
0.271771  0.237524  0.580000
0.273347  0.237933  0.581000
0.274926  0.238343  0.582000
0.276034  0.238343  0.582000
0.278095  0.239162  0.584000
0.279208  0.239162  0.584000
0.280320  0.239162  0.584000
0.281432  0.239162  0.584000
0.282545  0.239162  0.584000
0.283657  0.239162  0.584000
0.284282  0.238752  0.583000
0.285392  0.238752  0.583000
0.286011  0.238343  0.582000
0.286627  0.237933  0.581000
0.287733  0.237933  0.581000
0.289337  0.238343  0.582000
0.290446  0.238343  0.582000
0.291554  0.238343  0.582000
0.292663  0.238343  0.582000
0.294276  0.238752  0.583000
0.295387  0.238752  0.583000
0.297006  0.239162  0.584000
0.298629  0.239571  0.585000
0.299743  0.239571  0.585000
0.300857  0.239571  0.585000
0.301971  0.239571  0.585000
0.303604  0.239981  0.586000
0.304720  0.239981  0.586000
0.305314  0.239571  0.585000
0.305905  0.239162  0.584000
0.307017  0.239162  0.584000
0.308130  0.239162  0.584000
0.309242  0.239162  0.584000
0.310354  0.239162  0.584000
0.310933  0.238752  0.583000
0.312044  0.238752  0.583000
0.313154  0.238752  0.583000
0.314265  0.238752  0.583000
0.315375  0.238752  0.583000
0.317571  0.239571  0.585000
0.319230  0.239981  0.586000
0.320347  0.239981  0.586000
0.321463  0.239981  0.586000
0.322029  0.239571  0.585000
0.322590  0.239162  0.584000
0.323703  0.239162  0.584000
0.324815  0.239162  0.584000
0.325928  0.239162  0.584000
0.327040  0.239162  0.584000
0.328152  0.239162  0.584000
0.329265  0.239162  0.584000
0.330377  0.239162  0.584000
0.331490  0.239162  0.584000
0.332602  0.239162  0.584000
0.332000  0.237933  0.581000
0.332533  0.237524  0.580000
0.333638  0.237524  0.580000
0.334743  0.237524  0.580000
0.335848  0.237524  0.580000
0.337533  0.237933  0.581000
0.338640  0.237933  0.581000
0.339747  0.237933  0.581000
0.340853  0.237933  0.581000
0.341960  0.237933  0.581000
0.343067  0.237933  0.581000
0.344173  0.237933  0.581000
0.345874  0.238343  0.582000
0.346983  0.238343  0.582000
0.348690  0.238752  0.583000
0.349800  0.238752  0.583000
0.351512  0.239162  0.584000
0.354436  0.240390  0.587000
-0.336848  0.232457  0.565000
-0.335771  0.232457  0.565000
-0.334695  0.232457  0.565000
-0.333619  0.232457  0.565000
-0.333131  0.232869  0.566000
-0.332640  0.233280  0.567000
-0.331560  0.233280  0.567000
-0.330480  0.233280  0.567000
-0.328819  0.232869  0.566000
-0.327162  0.232457  0.565000
-0.326086  0.232457  0.565000
-0.324434  0.232046  0.564000
-0.322787  0.231634  0.563000
-0.321143  0.231223  0.562000
-0.319503  0.230811  0.561000
-0.318434  0.230811  0.561000
-0.318497  0.231634  0.563000
-0.317989  0.232046  0.564000
-0.316914  0.232046  0.564000
-0.315280  0.231634  0.563000
-0.314208  0.231634  0.563000
-0.313135  0.231634  0.563000
-0.312063  0.231634  0.563000
-0.310990  0.231634  0.563000
-0.309368  0.231223  0.562000
-0.308297  0.231223  0.562000
-0.307773  0.231634  0.563000
-0.306701  0.231634  0.563000
-0.305629  0.231634  0.563000
-0.304556  0.231634  0.563000
-0.303484  0.231634  0.563000
-0.302949  0.232046  0.564000
-0.301874  0.232046  0.564000
-0.301333  0.232457  0.565000
-0.300257  0.232457  0.565000
-0.299181  0.232457  0.565000
-0.298105  0.232457  0.565000
-0.297029  0.232457  0.565000
-0.295952  0.232457  0.565000
-0.294354  0.232046  0.564000
-0.292240  0.231223  0.562000
-0.290133  0.230400  0.560000
-0.289067  0.230400  0.560000
-0.288000  0.230400  0.560000
-0.286933  0.230400  0.560000
-0.285867  0.230400  0.560000
-0.284800  0.230400  0.560000
-0.283733  0.230400  0.560000
-0.283171  0.230811  0.561000
-0.282103  0.230811  0.561000
-0.281034  0.230811  0.561000
-0.279966  0.230811  0.561000
-0.278897  0.230811  0.561000
-0.278324  0.231223  0.562000
-0.277747  0.231634  0.563000
-0.276674  0.231634  0.563000
-0.276091  0.232046  0.564000
-0.275017  0.232046  0.564000
-0.273943  0.232046  0.564000
-0.272385  0.231634  0.563000
-0.271312  0.231634  0.563000
-0.269760  0.231223  0.562000
-0.268690  0.231223  0.562000
-0.267619  0.231223  0.562000
-0.266074  0.230811  0.561000
-0.265006  0.230811  0.561000
-0.264408  0.231223  0.562000
-0.263806  0.231634  0.563000
-0.262733  0.231634  0.563000
-0.261661  0.231634  0.563000
-0.261051  0.232046  0.564000
-0.260438  0.232457  0.565000
-0.259362  0.232457  0.565000
-0.258286  0.232457  0.565000
-0.257210  0.232457  0.565000
-0.255227  0.231634  0.563000
-0.254154  0.231634  0.563000
-0.253082  0.231634  0.563000
-0.252010  0.231634  0.563000
-0.250046  0.230811  0.561000
-0.249421  0.231223  0.562000
-0.248350  0.231223  0.562000
-0.247280  0.231223  0.562000
-0.246210  0.231223  0.562000
-0.245139  0.231223  0.562000
-0.244503  0.231634  0.563000
-0.243430  0.231634  0.563000
-0.242358  0.231634  0.563000
-0.241286  0.231634  0.563000
-0.240213  0.231634  0.563000
-0.239566  0.232046  0.564000
-0.238914  0.232457  0.565000
-0.238259  0.232869  0.566000
-0.236762  0.232457  0.565000
-0.235686  0.232457  0.565000
-0.235440  0.233280  0.567000
-0.234360  0.233280  0.567000
-0.233280  0.233280  0.567000
-0.232200  0.233280  0.567000
-0.231120  0.233280  0.567000
-0.229634  0.232869  0.566000
-0.228152  0.232457  0.565000
-0.227076  0.232457  0.565000
-0.226000  0.232457  0.565000
-0.224924  0.232457  0.565000
-0.223055  0.231634  0.563000
-0.221983  0.231634  0.563000
-0.220910  0.231634  0.563000
-0.220229  0.232046  0.564000
-0.219154  0.232046  0.564000
-0.218080  0.232046  0.564000
-0.217006  0.232046  0.564000
-0.215931  0.232046  0.564000
-0.217524  0.234926  0.571000
-0.216436  0.234926  0.571000
-0.215349  0.234926  0.571000
-0.213886  0.234514  0.570000
-0.212800  0.234514  0.570000
-0.209857  0.232457  0.565000
-0.208781  0.232457  0.565000
-0.207705  0.232457  0.565000
-0.206629  0.232457  0.565000
-0.205552  0.232457  0.565000
-0.204476  0.232457  0.565000
-0.203400  0.232457  0.565000
-0.202324  0.232457  0.565000
-0.201248  0.232457  0.565000
-0.200171  0.232457  0.565000
-0.199095  0.232457  0.565000
-0.196617  0.230811  0.561000
-0.195549  0.230811  0.561000
-0.194480  0.230811  0.561000
-0.193411  0.230811  0.561000
-0.192343  0.230811  0.561000
-0.191274  0.230811  0.561000
-0.190206  0.230811  0.561000
-0.189137  0.230811  0.561000
-0.188069  0.230811  0.561000
-0.188333  0.232457  0.565000
-0.187589  0.232869  0.566000
-0.187499  0.234103  0.569000
-0.186743  0.234514  0.570000
-0.185331  0.234103  0.569000
-0.183924  0.233691  0.568000
-0.182842  0.233691  0.568000
-0.182080  0.234103  0.569000
-0.180996  0.234103  0.569000
-0.179280  0.233280  0.567000
-0.178200  0.233280  0.567000
-0.177432  0.233691  0.568000
-0.176971  0.234514  0.570000
-0.175886  0.234514  0.570000
-0.174800  0.234514  0.570000
-0.174019  0.234926  0.571000
-0.172931  0.234926  0.571000
-0.171844  0.234926  0.571000
-0.170756  0.234926  0.571000
-0.169669  0.234926  0.571000
-0.168581  0.234926  0.571000
-0.167493  0.234926  0.571000
-0.166406  0.234926  0.571000
-0.164739  0.234103  0.569000
-0.163655  0.234103  0.569000
-0.162571  0.234103  0.569000
-0.161488  0.234103  0.569000
-0.160404  0.234103  0.569000
-0.159600  0.234514  0.570000
-0.158792  0.234926  0.571000
-0.157705  0.234926  0.571000
-0.155794  0.233691  0.568000
-0.154712  0.233691  0.568000
-0.154712  0.235337  0.572000
-0.151743  0.232457  0.565000
-0.150400  0.232046  0.564000
-0.149326  0.232046  0.564000
-0.148251  0.232046  0.564000
-0.147177  0.232046  0.564000
-0.146103  0.232046  0.564000
-0.145029  0.232046  0.564000
-0.143954  0.232046  0.564000
-0.142880  0.232046  0.564000
-0.142057  0.232457  0.565000
-0.140981  0.232457  0.565000
-0.139905  0.232457  0.565000
-0.138829  0.232457  0.565000
-0.137752  0.232457  0.565000
-0.136676  0.232457  0.565000
-0.135600  0.232457  0.565000
-0.134524  0.232457  0.565000
-0.133684  0.232869  0.566000
-0.132606  0.232869  0.566000
-0.131760  0.233280  0.567000
-0.130680  0.233280  0.567000
-0.130286  0.234514  0.570000
-0.128293  0.232869  0.566000
-0.127215  0.232869  0.566000
-0.126360  0.233280  0.567000
-0.125280  0.233280  0.567000
-0.124200  0.233280  0.567000
-0.123771  0.234514  0.570000
-0.122686  0.234514  0.570000
-0.121600  0.234514  0.570000
-0.120514  0.234514  0.570000
-0.119429  0.234514  0.570000
-0.118343  0.234514  0.570000
-0.117257  0.234514  0.570000
-0.115968  0.234103  0.569000
-0.114682  0.233691  0.568000
-0.113600  0.233691  0.568000
-0.112518  0.233691  0.568000
-0.111632  0.234103  0.569000
-0.109577  0.232046  0.564000
-0.108503  0.232046  0.564000
-0.107619  0.232457  0.565000
-0.106920  0.233280  0.567000
-0.106400  0.234514  0.570000
-0.105314  0.234514  0.570000
-0.104229  0.234514  0.570000
-0.102781  0.233691  0.568000
-0.101699  0.233691  0.568000
-0.100617  0.233691  0.568000
-0.099535  0.233691  0.568000
-0.098453  0.233691  0.568000
-0.097200  0.233280  0.567000
-0.096120  0.233280  0.567000
-0.095040  0.233280  0.567000
-0.094126  0.233691  0.568000
-0.093044  0.233691  0.568000
-0.092124  0.234103  0.569000
-0.090880  0.233691  0.568000
-0.089640  0.233280  0.567000
-0.088560  0.233280  0.567000
-0.087480  0.233280  0.567000
-0.086400  0.233280  0.567000
-0.085320  0.233280  0.567000
-0.084240  0.233280  0.567000
-0.083160  0.233280  0.567000
-0.082225  0.233691  0.568000
-0.081143  0.233691  0.568000
-0.080061  0.233691  0.568000
-0.079118  0.234103  0.569000
-0.078034  0.234103  0.569000
-0.076815  0.233691  0.568000
-0.075733  0.233691  0.568000
-0.074520  0.233280  0.567000
-0.073440  0.233280  0.567000
-0.072232  0.232869  0.566000
-0.071029  0.232457  0.565000
-0.069952  0.232457  0.565000
-0.068876  0.232457  0.565000
-0.067920  0.232869  0.566000
-0.066842  0.232869  0.566000
-0.065764  0.232869  0.566000
-0.064800  0.233280  0.567000
-0.063832  0.233691  0.568000
-0.062861  0.234103  0.569000
-0.061777  0.234103  0.569000
-0.060800  0.234514  0.570000
-0.059819  0.234926  0.571000
-0.058834  0.235337  0.572000
-0.057745  0.235337  0.572000
-0.056754  0.235749  0.573000
-0.055566  0.235337  0.572000
-0.054381  0.234926  0.571000
-0.053200  0.234514  0.570000
-0.052114  0.234514  0.570000
-0.050939  0.234103  0.569000
-0.049855  0.234103  0.569000
-0.048771  0.234103  0.569000
-0.047688  0.234103  0.569000
-0.046686  0.234514  0.570000
-0.045600  0.234514  0.570000
-0.044592  0.234926  0.571000
-0.043505  0.234926  0.571000
-0.042417  0.234926  0.571000
-0.041402  0.235337  0.572000
-0.040524  0.236571  0.575000
-0.039497  0.236983  0.576000
-0.038533  0.237806  0.578000
-0.037432  0.237806  0.578000
-0.036331  0.237806  0.578000
-0.035230  0.237806  0.578000
-0.034070  0.237394  0.577000
-0.032971  0.237394  0.577000
-0.031872  0.237394  0.577000
-0.030773  0.237394  0.577000
-0.029674  0.237394  0.577000
-0.028229  0.234514  0.570000
-0.027143  0.234514  0.570000
-0.026103  0.234926  0.571000
-0.025015  0.234926  0.571000
-0.023844  0.234103  0.569000
-0.022760  0.234103  0.569000
-0.021714  0.234514  0.570000
-0.020665  0.234926  0.571000
-0.019611  0.235337  0.572000
-0.018490  0.234926  0.571000
-0.017402  0.234926  0.571000
-0.016314  0.234926  0.571000
-0.015227  0.234926  0.571000
-0.014139  0.234926  0.571000
-0.013006  0.234103  0.569000
-0.011880  0.233280  0.567000
-0.010800  0.233280  0.567000
-0.009720  0.233280  0.567000
-0.008655  0.233691  0.568000
-0.007587  0.234103  0.569000
-0.006503  0.234103  0.569000
-0.005429  0.234514  0.570000
-0.004350  0.234926  0.571000
-0.003263  0.234926  0.571000
-0.002175  0.234926  0.571000
-0.001088  0.234926  0.571000
0.000000  0.235337  0.572000
0.001090  0.235337  0.572000
0.002183  0.235749  0.573000
0.003280  0.236160  0.574000
0.004335  0.234103  0.569000
0.005419  0.234103  0.569000
0.006514  0.234514  0.570000
0.007653  0.236160  0.574000
0.008762  0.236571  0.575000
0.009874  0.236983  0.576000
0.010971  0.236983  0.576000
0.012069  0.236983  0.576000
0.013189  0.237394  0.577000
0.014312  0.237806  0.578000
0.015440  0.238217  0.579000
0.016543  0.238217  0.579000
0.017646  0.238217  0.579000
0.018522  0.235337  0.572000
0.019611  0.235337  0.572000
0.020701  0.235337  0.572000
0.021790  0.235337  0.572000
0.022880  0.235337  0.572000
0.023970  0.235337  0.572000
0.025103  0.235749  0.573000
0.026194  0.235749  0.573000
0.027286  0.235749  0.573000
0.028377  0.235749  0.573000
0.029469  0.235749  0.573000
0.030560  0.235749  0.573000
0.031651  0.235749  0.573000
0.032686  0.235337  0.572000
0.033775  0.235337  0.572000
0.034865  0.235337  0.572000
0.035954  0.235337  0.572000
0.037044  0.235337  0.572000
0.038133  0.235337  0.572000
0.039223  0.235337  0.572000
0.040242  0.234926  0.571000
0.041330  0.234926  0.571000
0.042417  0.234926  0.571000
0.043505  0.234926  0.571000
0.044670  0.235337  0.572000
0.045760  0.235337  0.572000
0.046768  0.234926  0.571000
0.047688  0.234103  0.569000
0.048686  0.233691  0.568000
0.049768  0.233691  0.568000
0.050850  0.233691  0.568000
0.053394  0.240274  0.584000
0.054413  0.239863  0.583000
0.055524  0.239863  0.583000
0.056634  0.239863  0.583000
0.056952  0.236571  0.575000
0.058048  0.236571  0.575000
0.059246  0.236983  0.576000
0.060343  0.236983  0.576000
0.061440  0.236983  0.576000
0.062537  0.236983  0.576000
0.063524  0.236571  0.575000
0.064619  0.236571  0.575000
0.065829  0.236983  0.576000
0.066926  0.236983  0.576000
0.068141  0.237394  0.577000
0.069480  0.238217  0.579000
0.070583  0.238217  0.579000
0.070448  0.234103  0.569000
0.071531  0.234103  0.569000
0.072488  0.233691  0.568000
0.073570  0.233691  0.568000
0.074783  0.234103  0.569000
0.076000  0.234514  0.570000
0.077221  0.234926  0.571000
0.078309  0.234926  0.571000
0.079396  0.234926  0.571000
0.080625  0.235337  0.572000
0.081714  0.235337  0.572000
0.083093  0.236160  0.574000
0.084333  0.236571  0.575000
0.085577  0.236983  0.576000
0.086524  0.236571  0.575000
0.087619  0.236571  0.575000
0.088714  0.236571  0.575000
0.089810  0.236571  0.575000
0.091063  0.236983  0.576000
0.092160  0.236983  0.576000
0.093257  0.236983  0.576000
0.094354  0.236983  0.576000
0.095451  0.236983  0.576000
0.096549  0.236983  0.576000
0.097646  0.236983  0.576000
0.098743  0.236983  0.576000
0.099840  0.236983  0.576000
0.100762  0.236571  0.575000
0.101680  0.236160  0.574000
0.102773  0.236160  0.574000
0.103867  0.236160  0.574000
0.104777  0.235749  0.573000
0.105869  0.235749  0.573000
0.106960  0.235749  0.573000
0.107863  0.235337  0.572000
0.108952  0.235337  0.572000
0.110042  0.235337  0.572000
0.111326  0.235749  0.573000
0.112417  0.235749  0.573000
0.113310  0.235337  0.572000
0.114400  0.235337  0.572000
0.115490  0.235337  0.572000
0.116783  0.235749  0.573000
0.118080  0.236160  0.574000
0.119173  0.236160  0.574000
0.120476  0.236571  0.575000
0.121571  0.236571  0.575000
0.122667  0.236571  0.575000
0.123762  0.236571  0.575000
0.124857  0.236571  0.575000
0.126171  0.236983  0.576000
0.127269  0.236983  0.576000
0.128589  0.237394  0.577000
0.129688  0.237394  0.577000
0.130787  0.237394  0.577000
0.131886  0.237394  0.577000
0.132985  0.237394  0.577000
0.134084  0.237394  0.577000
0.134949  0.236983  0.576000
0.136046  0.236983  0.576000
0.136905  0.236571  0.575000
0.138000  0.236571  0.575000
0.139095  0.236571  0.575000
0.139947  0.236160  0.574000
0.141040  0.236160  0.574000
0.142133  0.236160  0.574000
0.143227  0.236160  0.574000
0.144320  0.236160  0.574000
0.145413  0.236160  0.574000
0.146762  0.236571  0.575000
0.148114  0.236983  0.576000
0.149470  0.237394  0.577000
0.150830  0.237806  0.578000
0.151669  0.237394  0.577000
0.152768  0.237394  0.577000
0.154133  0.237806  0.578000
0.153623  0.235337  0.572000
0.154442  0.234926  0.571000
0.155530  0.234926  0.571000
0.156617  0.234926  0.571000
0.157981  0.235337  0.572000
0.159070  0.235337  0.572000
0.160160  0.235337  0.572000
0.161250  0.235337  0.572000
0.162623  0.235749  0.573000
0.163714  0.235749  0.573000
0.165093  0.236160  0.574000
0.166187  0.236160  0.574000
0.167571  0.236571  0.575000
0.168960  0.236983  0.576000
0.170057  0.236983  0.576000
0.171154  0.236983  0.576000
0.172251  0.236983  0.576000
0.173349  0.236983  0.576000
0.174446  0.236983  0.576000
0.175848  0.237394  0.577000
0.176640  0.236983  0.576000
0.177737  0.236983  0.576000
0.178834  0.236983  0.576000
0.179931  0.236983  0.576000
0.181343  0.237394  0.577000
0.182126  0.236983  0.576000
0.183223  0.236983  0.576000
0.184320  0.236983  0.576000
0.185417  0.236983  0.576000
0.186838  0.237394  0.577000
0.187937  0.237394  0.577000
0.189036  0.237394  0.577000
0.190135  0.237394  0.577000
0.191234  0.237394  0.577000
0.192333  0.237394  0.577000
0.193432  0.237394  0.577000
0.194531  0.237394  0.577000
0.195630  0.237394  0.577000
0.197070  0.237806  0.578000
0.197829  0.237394  0.577000
0.198928  0.237394  0.577000
0.200027  0.237394  0.577000
0.201126  0.237394  0.577000
0.202225  0.237394  0.577000
0.203676  0.237806  0.578000
0.204777  0.237806  0.578000
0.205878  0.237806  0.578000
0.206979  0.237806  0.578000
0.208080  0.237806  0.578000
0.208819  0.237394  0.577000
0.209918  0.237394  0.577000
0.210651  0.236983  0.576000
0.211749  0.236983  0.576000
0.212476  0.236571  0.575000
0.213571  0.236571  0.575000
0.215040  0.236983  0.576000
0.216137  0.236983  0.576000
0.217234  0.236983  0.576000
0.218331  0.236983  0.576000
0.219429  0.236983  0.576000
0.221291  0.237806  0.578000
0.222392  0.237806  0.578000
0.222720  0.236983  0.576000
0.223817  0.236983  0.576000
0.224914  0.236983  0.576000
0.226011  0.236983  0.576000
0.226714  0.236571  0.575000
0.227810  0.236571  0.575000
0.229303  0.236983  0.576000
0.230800  0.237394  0.577000
0.231899  0.237394  0.577000
0.233402  0.237806  0.578000
0.234503  0.237806  0.578000
0.235604  0.237806  0.578000
0.237114  0.238217  0.579000
0.238629  0.238629  0.580000
0.239320  0.238217  0.579000
0.240423  0.238217  0.579000
0.241943  0.238629  0.580000
0.243048  0.238629  0.580000
0.243731  0.238217  0.579000
0.244834  0.238217  0.579000
0.245937  0.238217  0.579000
0.247040  0.238217  0.579000
0.248143  0.238217  0.579000
0.247954  0.236983  0.576000
0.249051  0.236983  0.576000
0.250583  0.237394  0.577000
0.251246  0.236983  0.576000
0.252343  0.236983  0.576000
0.253440  0.236983  0.576000
0.254537  0.236983  0.576000
0.255190  0.236571  0.575000
0.256286  0.236571  0.575000
0.257381  0.236571  0.575000
0.258476  0.236571  0.575000
0.259571  0.236571  0.575000
0.260667  0.236571  0.575000
0.261762  0.236571  0.575000
0.263314  0.236983  0.576000
0.264411  0.236983  0.576000
0.265970  0.237394  0.577000
0.267531  0.237806  0.578000
0.268632  0.237806  0.578000
0.270200  0.238217  0.579000
0.271303  0.238217  0.579000
0.272876  0.238629  0.580000
0.273981  0.238629  0.580000
0.275560  0.239040  0.581000
0.277619  0.239863  0.583000
0.279208  0.240274  0.584000
0.280320  0.240274  0.584000
0.281432  0.240274  0.584000
0.282545  0.240274  0.584000
0.283171  0.239863  0.583000
0.283794  0.239451  0.582000
0.284903  0.239451  0.582000
0.286011  0.239451  0.582000
0.285147  0.237806  0.578000
0.286248  0.237806  0.578000
0.287846  0.238217  0.579000
0.289448  0.238629  0.580000
0.290552  0.238629  0.580000
0.291657  0.238629  0.580000
0.293771  0.239451  0.582000
0.295387  0.239863  0.583000
0.297006  0.240274  0.584000
0.298118  0.240274  0.584000
0.299743  0.240686  0.585000
0.300343  0.240274  0.584000
0.301455  0.240274  0.584000
0.303086  0.240686  0.585000
0.304200  0.240686  0.585000
0.304270  0.239863  0.583000
0.305381  0.239863  0.583000
0.305966  0.239451  0.582000
0.307074  0.239451  0.582000
0.308712  0.239863  0.583000
0.309823  0.239863  0.583000
0.310933  0.239863  0.583000
0.311509  0.239451  0.582000
0.312617  0.239451  0.582000
0.313726  0.239451  0.582000
0.315375  0.239863  0.583000
0.317029  0.240274  0.584000
0.317596  0.239863  0.583000
0.318707  0.239863  0.583000
0.319817  0.239863  0.583000
0.320928  0.239863  0.583000
0.322038  0.239863  0.583000
0.323149  0.239863  0.583000
0.324259  0.239863  0.583000
0.325370  0.239863  0.583000
0.326480  0.239863  0.583000
0.327590  0.239863  0.583000
0.328701  0.239863  0.583000
0.328680  0.239040  0.581000
0.329787  0.239040  0.581000
0.330324  0.238629  0.580000
0.331429  0.238629  0.580000
0.332533  0.238629  0.580000
0.333638  0.238629  0.580000
0.334743  0.238629  0.580000
0.335848  0.238629  0.580000
0.337533  0.239040  0.581000
0.338640  0.239040  0.581000
0.339747  0.239040  0.581000
0.340853  0.239040  0.581000
0.341960  0.239040  0.581000
0.343067  0.239040  0.581000
0.344173  0.239040  0.581000
0.345280  0.239040  0.581000
0.346983  0.239451  0.582000
0.348091  0.239451  0.582000
0.349200  0.239451  0.582000
0.350309  0.239451  0.582000
0.351417  0.239451  0.582000
-0.336848  0.233533  0.565000
-0.335771  0.233533  0.565000
-0.334695  0.233533  0.565000
-0.333619  0.233533  0.565000
-0.332543  0.233533  0.565000
-0.332053  0.233947  0.566000
-0.330975  0.233947  0.566000
-0.329314  0.233533  0.565000
-0.328238  0.233533  0.565000
-0.326004  0.232707  0.563000
-0.324931  0.232707  0.563000
-0.323859  0.232707  0.563000
-0.322213  0.232293  0.562000
-0.320571  0.231880  0.561000
-0.318933  0.231467  0.560000
-0.317867  0.231467  0.560000
-0.317931  0.232293  0.562000
-0.315733  0.231467  0.560000
-0.314667  0.231467  0.560000
-0.313600  0.231467  0.560000
-0.312533  0.231467  0.560000
-0.312023  0.231880  0.561000
-0.310954  0.231880  0.561000
-0.309333  0.231467  0.560000
-0.308267  0.231467  0.560000
-0.307749  0.231880  0.561000
-0.307227  0.232293  0.562000
-0.306701  0.232707  0.563000
-0.305629  0.232707  0.563000
-0.304556  0.232707  0.563000
-0.303484  0.232707  0.563000
-0.302411  0.232707  0.563000
-0.301339  0.232707  0.563000
-0.300267  0.232707  0.563000
-0.299194  0.232707  0.563000
-0.298122  0.232707  0.563000
-0.297050  0.232707  0.563000
-0.295977  0.232707  0.563000
-0.295952  0.233533  0.565000
-0.290701  0.230227  0.557000
-0.289640  0.230227  0.557000
-0.289097  0.230640  0.558000
-0.288550  0.231053  0.559000
-0.286971  0.230640  0.558000
-0.285909  0.230640  0.558000
-0.285356  0.231053  0.559000
-0.284800  0.231467  0.560000
-0.283733  0.231467  0.560000
-0.282667  0.231467  0.560000
-0.281600  0.231467  0.560000
-0.280533  0.231467  0.560000
-0.279467  0.231467  0.560000
-0.278400  0.231467  0.560000
-0.277333  0.231467  0.560000
-0.274787  0.230227  0.557000
-0.273726  0.230227  0.557000
-0.275602  0.232707  0.563000
-0.271604  0.230227  0.557000
-0.270543  0.230227  0.557000
-0.271901  0.232293  0.562000
-0.269385  0.231053  0.559000
-0.268320  0.231053  0.559000
-0.268211  0.231880  0.561000
-0.267143  0.231880  0.561000
-0.266074  0.231880  0.561000
-0.265006  0.231880  0.561000
-0.264408  0.232293  0.562000
-0.263337  0.232293  0.562000
-0.262267  0.232293  0.562000
-0.261196  0.232293  0.562000
-0.259663  0.231880  0.561000
-0.258594  0.231880  0.561000
-0.258903  0.233120  0.564000
-0.257829  0.233120  0.564000
-0.255389  0.231880  0.561000
-0.253867  0.231467  0.560000
-0.252800  0.231467  0.560000
-0.251733  0.231467  0.560000
-0.250667  0.231467  0.560000
-0.250046  0.231880  0.561000
-0.248533  0.231467  0.560000
-0.248350  0.232293  0.562000
-0.247280  0.232293  0.562000
-0.245771  0.231880  0.561000
-0.244703  0.231880  0.561000
-0.243634  0.231880  0.561000
-0.242133  0.231467  0.560000
-0.240636  0.231053  0.559000
-0.239571  0.231053  0.559000
-0.238933  0.231467  0.560000
-0.238291  0.231880  0.561000
-0.237223  0.231880  0.561000
-0.238259  0.233947  0.566000
-0.236343  0.233120  0.564000
-0.235269  0.233120  0.564000
-0.234610  0.233533  0.565000
-0.233947  0.233947  0.566000
-0.232869  0.233947  0.566000
-0.231790  0.233947  0.566000
-0.230305  0.233533  0.565000
-0.229229  0.233533  0.565000
-0.228152  0.233533  0.565000
-0.227076  0.233533  0.565000
-0.226000  0.233533  0.565000
-0.224128  0.232707  0.563000
-0.223055  0.232707  0.563000
-0.221589  0.232293  0.562000
-0.220518  0.232293  0.562000
-0.219057  0.231880  0.561000
-0.217989  0.231880  0.561000
-0.218080  0.233120  0.564000
-0.217006  0.233120  0.564000
-0.212869  0.229813  0.556000
-0.211810  0.229813  0.556000
-0.210371  0.229400  0.555000
-0.209314  0.229400  0.555000
-0.208257  0.229400  0.555000
-0.210933  0.233533  0.565000
-0.209857  0.233533  0.565000
-0.208781  0.233533  0.565000
-0.206234  0.231880  0.561000
-0.205166  0.231880  0.561000
-0.204825  0.232707  0.563000
-0.204114  0.233120  0.564000
-0.203040  0.233120  0.564000
-0.201608  0.232707  0.563000
-0.200535  0.232707  0.563000
-0.199463  0.232707  0.563000
-0.198390  0.232707  0.563000
-0.196267  0.231467  0.560000
-0.195200  0.231467  0.560000
-0.194133  0.231467  0.560000
-0.193067  0.231467  0.560000
-0.192000  0.231467  0.560000
-0.190933  0.231467  0.560000
-0.190206  0.231880  0.561000
-0.189137  0.231880  0.561000
-0.188069  0.231880  0.561000
-0.187000  0.231880  0.561000
-0.185931  0.231880  0.561000
-0.184533  0.231467  0.560000
-0.183467  0.231467  0.560000
-0.182400  0.231467  0.560000
-0.181333  0.231467  0.560000
-0.180267  0.231467  0.560000
-0.179200  0.231467  0.560000
-0.180360  0.234360  0.567000
-0.179280  0.234360  0.567000
-0.178200  0.234360  0.567000
-0.177120  0.234360  0.567000
-0.176661  0.235187  0.569000
-0.175886  0.235600  0.570000
-0.174800  0.235600  0.570000
-0.169143  0.229400  0.555000
-0.168086  0.229400  0.555000
-0.167029  0.229400  0.555000
-0.165971  0.229400  0.555000
-0.169669  0.236013  0.571000
-0.168581  0.236013  0.571000
-0.167493  0.236013  0.571000
-0.164366  0.233120  0.564000
-0.163291  0.233120  0.564000
-0.162217  0.233120  0.564000
-0.161143  0.233120  0.564000
-0.161488  0.235187  0.569000
-0.160404  0.235187  0.569000
-0.159320  0.235187  0.569000
-0.154899  0.230227  0.557000
-0.156876  0.234773  0.568000
-0.155794  0.234773  0.568000
-0.154712  0.234773  0.568000
-0.152278  0.232707  0.563000
-0.151206  0.232707  0.563000
-0.150133  0.232707  0.563000
-0.149326  0.233120  0.564000
-0.147989  0.232707  0.563000
-0.146916  0.232707  0.563000
-0.145844  0.232707  0.563000
-0.144771  0.232707  0.563000
-0.143699  0.232707  0.563000
-0.142627  0.232707  0.563000
-0.141554  0.232707  0.563000
-0.140482  0.232707  0.563000
-0.139410  0.232707  0.563000
-0.138583  0.233120  0.564000
-0.137509  0.233120  0.564000
-0.136434  0.233120  0.564000
-0.135360  0.233120  0.564000
-0.134286  0.233120  0.564000
-0.132975  0.232707  0.563000
-0.131903  0.232707  0.563000
-0.131063  0.233120  0.564000
-0.129297  0.231880  0.561000
-0.128229  0.231880  0.561000
-0.127160  0.231880  0.561000
-0.126990  0.233533  0.565000
-0.126137  0.233947  0.566000
-0.125280  0.234360  0.567000
-0.124200  0.234360  0.567000
-0.123554  0.235187  0.569000
-0.122470  0.235187  0.569000
-0.121387  0.235187  0.569000
-0.120303  0.235187  0.569000
-0.119219  0.235187  0.569000
-0.118135  0.235187  0.569000
-0.117257  0.235600  0.570000
-0.115152  0.233533  0.565000
-0.114076  0.233533  0.565000
-0.113000  0.233533  0.565000
-0.111924  0.233533  0.565000
-0.110848  0.233533  0.565000
-0.109189  0.232293  0.562000
-0.108118  0.232293  0.562000
-0.107429  0.233120  0.564000
-0.106543  0.233533  0.565000
-0.106027  0.234773  0.568000
-0.104945  0.234773  0.568000
-0.103680  0.234360  0.567000
-0.102600  0.234360  0.567000
-0.101520  0.234360  0.567000
-0.100440  0.234360  0.567000
-0.099360  0.234360  0.567000
-0.098280  0.234360  0.567000
-0.097029  0.233947  0.566000
-0.095781  0.233533  0.565000
-0.094705  0.233533  0.565000
-0.093794  0.233947  0.566000
-0.092716  0.233947  0.566000
-0.091638  0.233947  0.566000
-0.090400  0.233533  0.565000
-0.089324  0.233533  0.565000
-0.088248  0.233533  0.565000
-0.087326  0.233947  0.566000
-0.086248  0.233947  0.566000
-0.085170  0.233947  0.566000
-0.084240  0.234360  0.567000
-0.083160  0.234360  0.567000
-0.082080  0.234360  0.567000
-0.081000  0.234360  0.567000
-0.080061  0.234773  0.568000
-0.078979  0.234773  0.568000
-0.077897  0.234773  0.568000
-0.076680  0.234360  0.567000
-0.075600  0.234360  0.567000
-0.074257  0.233533  0.565000
-0.073181  0.233533  0.565000
-0.072105  0.233533  0.565000
-0.071029  0.233533  0.565000
-0.069952  0.233533  0.565000
-0.068876  0.233533  0.565000
-0.067920  0.233947  0.566000
-0.066842  0.233947  0.566000
-0.065764  0.233947  0.566000
-0.064800  0.234360  0.567000
-0.063720  0.234360  0.567000
-0.062640  0.234360  0.567000
-0.061669  0.234773  0.568000
-0.060587  0.234773  0.568000
-0.059505  0.234773  0.568000
-0.058423  0.234773  0.568000
-0.057341  0.234773  0.568000
-0.056160  0.234360  0.567000
-0.055080  0.234360  0.567000
-0.054095  0.234773  0.568000
-0.053013  0.234773  0.568000
-0.051931  0.234773  0.568000
-0.050939  0.235187  0.569000
-0.049768  0.234773  0.568000
-0.048686  0.234773  0.568000
-0.047604  0.234773  0.568000
-0.046604  0.235187  0.569000
-0.045520  0.235187  0.569000
-0.044514  0.235600  0.570000
-0.043352  0.235187  0.569000
-0.042269  0.235187  0.569000
-0.041185  0.235187  0.569000
-0.040101  0.235187  0.569000
-0.038811  0.233947  0.566000
-0.037533  0.232707  0.563000
-0.036526  0.233120  0.564000
-0.035451  0.233120  0.564000
-0.034377  0.233120  0.564000
-0.033303  0.233120  0.564000
-0.032286  0.233533  0.565000
-0.031210  0.233533  0.565000
-0.030133  0.233533  0.565000
-0.029057  0.233533  0.565000
-0.028030  0.233947  0.566000
-0.027000  0.234360  0.567000
-0.025920  0.234360  0.567000
-0.024840  0.234360  0.567000
-0.023760  0.234360  0.567000
-0.022680  0.234360  0.567000
-0.021638  0.234773  0.568000
-0.020556  0.234773  0.568000
-0.019337  0.233120  0.564000
-0.018263  0.233120  0.564000
-0.017341  0.235187  0.569000
-0.016200  0.234360  0.567000
-0.015120  0.234360  0.567000
-0.013966  0.233120  0.564000
-0.012891  0.233120  0.564000
-0.011859  0.233947  0.566000
-0.010781  0.233947  0.566000
-0.009703  0.233947  0.566000
-0.008640  0.234360  0.567000
-0.007560  0.234360  0.567000
-0.006491  0.234773  0.568000
-0.005410  0.234773  0.568000
-0.004335  0.235187  0.569000
-0.003257  0.235600  0.570000
-0.002171  0.235600  0.570000
-0.001086  0.235600  0.570000
0.000000  0.235187  0.569000
0.001084  0.235187  0.569000
0.002164  0.234773  0.568000
0.003246  0.234773  0.568000
0.004328  0.234773  0.568000
0.005400  0.234360  0.567000
0.006480  0.234360  0.567000
0.007560  0.234360  0.567000
0.008640  0.234360  0.567000
0.009926  0.239320  0.579000
0.011029  0.239320  0.579000
0.012131  0.239320  0.579000
0.013234  0.239320  0.579000
0.014362  0.239733  0.580000
0.015467  0.239733  0.580000
0.016543  0.239320  0.579000
0.017646  0.239320  0.579000
0.018490  0.236013  0.571000
0.019543  0.235600  0.570000
0.020629  0.235600  0.570000
0.021714  0.235600  0.570000
0.022800  0.235600  0.570000
0.023928  0.236013  0.571000
0.025059  0.236427  0.572000
0.026103  0.236013  0.571000
0.027190  0.236013  0.571000
0.028278  0.236013  0.571000
0.029366  0.236013  0.571000
0.030507  0.236427  0.572000
0.031541  0.236013  0.571000
0.032629  0.236013  0.571000
0.033716  0.236013  0.571000
0.034804  0.236013  0.571000
0.035891  0.236013  0.571000
0.036979  0.236013  0.571000
0.038067  0.236013  0.571000
0.039154  0.236013  0.571000
0.040242  0.236013  0.571000
0.041257  0.235600  0.570000
0.042343  0.235600  0.570000
0.043505  0.236013  0.571000
0.044592  0.236013  0.571000
0.045680  0.236013  0.571000
0.046768  0.236013  0.571000
0.047688  0.235187  0.569000
0.048686  0.234773  0.568000
0.049768  0.234773  0.568000
0.050760  0.234360  0.567000
0.051840  0.234360  0.567000
0.053013  0.234773  0.568000
0.054095  0.234773  0.568000
0.055177  0.234773  0.568000
0.056259  0.234773  0.568000
0.057846  0.236840  0.573000
0.059143  0.237667  0.575000
0.060238  0.237667  0.575000
0.061333  0.237667  0.575000
0.062429  0.237667  0.575000
0.063413  0.237253  0.574000
0.064507  0.237253  0.574000
0.064571  0.233533  0.565000
0.065648  0.233533  0.565000
0.066724  0.233533  0.565000
0.068040  0.234360  0.567000
0.069120  0.234360  0.567000
0.070200  0.234360  0.567000
0.071280  0.234360  0.567000
0.072360  0.234360  0.567000
0.073570  0.234773  0.568000
0.074651  0.234773  0.568000
0.075867  0.235187  0.569000
0.076815  0.234773  0.568000
0.077897  0.234773  0.568000
0.079118  0.235187  0.569000
0.080202  0.235187  0.569000
0.081286  0.235187  0.569000
0.082659  0.236013  0.571000
0.084333  0.237667  0.575000
0.085577  0.238080  0.576000
0.086072  0.236427  0.572000
0.087162  0.236427  0.572000
0.088251  0.236427  0.572000
0.089497  0.236840  0.573000
0.090589  0.236840  0.573000
0.091680  0.236840  0.573000
0.092771  0.236840  0.573000
0.094027  0.237253  0.574000
0.095120  0.237253  0.574000
0.096381  0.237667  0.575000
0.097476  0.237667  0.575000
0.098571  0.237667  0.575000
0.099493  0.237253  0.574000
0.099535  0.234773  0.568000
0.100617  0.234773  0.568000
0.101699  0.234773  0.568000
0.102781  0.234773  0.568000
0.104046  0.235187  0.569000
0.105314  0.235600  0.570000
0.106587  0.236013  0.571000
0.107674  0.236013  0.571000
0.108762  0.236013  0.571000
0.110042  0.236427  0.572000
0.111131  0.236427  0.572000
0.112221  0.236427  0.572000
0.113112  0.236013  0.571000
0.114200  0.236013  0.571000
0.115288  0.236013  0.571000
0.116375  0.236013  0.571000
0.117463  0.236013  0.571000
0.118758  0.236427  0.572000
0.119848  0.236427  0.572000
0.120937  0.236427  0.572000
0.122240  0.236840  0.573000
0.123116  0.236427  0.572000
0.124206  0.236427  0.572000
0.125295  0.236427  0.572000
0.127269  0.238080  0.576000
0.128589  0.238493  0.577000
0.129463  0.238080  0.576000
0.130560  0.238080  0.576000
0.131657  0.238080  0.576000
0.132754  0.238080  0.576000
0.133851  0.238080  0.576000
0.134714  0.237667  0.575000
0.135810  0.237667  0.575000
0.136667  0.237253  0.574000
0.137520  0.236840  0.573000
0.138611  0.236840  0.573000
0.139703  0.236840  0.573000
0.140794  0.236840  0.573000
0.141886  0.236840  0.573000
0.142977  0.236840  0.573000
0.143566  0.236013  0.571000
0.144653  0.236013  0.571000
0.146251  0.236840  0.573000
0.147343  0.236840  0.573000
0.148175  0.236427  0.572000
0.149265  0.236427  0.572000
0.150354  0.236427  0.572000
0.151444  0.236427  0.572000
0.152533  0.236427  0.572000
0.152817  0.235187  0.569000
0.153901  0.235187  0.569000
0.154985  0.235187  0.569000
0.156343  0.235600  0.570000
0.157705  0.236013  0.571000
0.158792  0.236013  0.571000
0.159880  0.236013  0.571000
0.161250  0.236427  0.572000
0.162339  0.236427  0.572000
0.163714  0.236840  0.573000
0.164806  0.236840  0.573000
0.165897  0.236840  0.573000
0.167280  0.237253  0.574000
0.168373  0.237253  0.574000
0.169171  0.236840  0.573000
0.170263  0.236840  0.573000
0.171354  0.236840  0.573000
0.172747  0.237253  0.574000
0.173840  0.237253  0.574000
0.174933  0.237253  0.574000
0.175720  0.236840  0.573000
0.176811  0.236840  0.573000
0.178524  0.237667  0.575000
0.179619  0.237667  0.575000
0.180714  0.237667  0.575000
0.181810  0.237667  0.575000
0.182905  0.237667  0.575000
0.184000  0.237667  0.575000
0.185095  0.237667  0.575000
0.186190  0.237667  0.575000
0.187286  0.237667  0.575000
0.188709  0.238080  0.576000
0.189806  0.238080  0.576000
0.190903  0.238080  0.576000
0.192000  0.238080  0.576000
0.192762  0.237667  0.575000
0.193857  0.237667  0.575000
0.195291  0.238080  0.576000
0.196389  0.238080  0.576000
0.197143  0.237667  0.575000
0.197204  0.236427  0.572000
0.198293  0.236427  0.572000
0.199383  0.236427  0.572000
0.200823  0.236840  0.573000
0.201562  0.236427  0.572000
0.202651  0.236427  0.572000
0.203741  0.236427  0.572000
0.204830  0.236427  0.572000
0.206640  0.237253  0.574000
0.208095  0.237667  0.575000
0.209190  0.237667  0.575000
0.210651  0.238080  0.576000
0.211749  0.238080  0.576000
0.212476  0.237667  0.575000
0.213571  0.237667  0.575000
0.215040  0.238080  0.576000
0.215762  0.237667  0.575000
0.216857  0.237667  0.575000
0.217952  0.237667  0.575000
0.217905  0.236427  0.572000
0.218994  0.236427  0.572000
0.220084  0.236427  0.572000
0.221173  0.236427  0.572000
0.222263  0.236427  0.572000
0.223743  0.236840  0.573000
0.224834  0.236840  0.573000
0.225926  0.236840  0.573000
0.227413  0.237253  0.574000
0.228905  0.237667  0.575000
0.230000  0.237667  0.575000
0.231497  0.238080  0.576000
0.232594  0.238080  0.576000
0.233691  0.238080  0.576000
0.234789  0.238080  0.576000
0.235886  0.238080  0.576000
0.236983  0.238080  0.576000
0.236427  0.236427  0.572000
0.237516  0.236427  0.572000
0.239023  0.236840  0.573000
0.241790  0.238493  0.577000
0.242890  0.238493  0.577000
0.243989  0.238493  0.577000
0.245088  0.238493  0.577000
0.246187  0.238493  0.577000
0.247714  0.238907  0.578000
0.247954  0.238080  0.576000
0.249051  0.238080  0.576000
0.250149  0.238080  0.576000
0.251246  0.238080  0.576000
0.252343  0.238080  0.576000
0.253440  0.238080  0.576000
0.254095  0.237667  0.575000
0.255190  0.237667  0.575000
0.256286  0.237667  0.575000
0.256933  0.237253  0.574000
0.257577  0.236840  0.573000
0.258669  0.236840  0.573000
0.259760  0.236840  0.573000
0.260851  0.236840  0.573000
0.261943  0.236840  0.573000
0.263034  0.236840  0.573000
0.265048  0.237667  0.575000
0.266143  0.237667  0.575000
0.267703  0.238080  0.576000
0.269267  0.238493  0.577000
0.270834  0.238907  0.578000
0.272406  0.239320  0.579000
0.273509  0.239320  0.579000
0.274611  0.239320  0.579000
0.276190  0.239733  0.580000
0.279208  0.241387  0.584000
0.280320  0.241387  0.584000
0.281432  0.241387  0.584000
0.282545  0.241387  0.584000
0.283171  0.240973  0.583000
0.280381  0.237667  0.575000
0.281476  0.237667  0.575000
0.282571  0.237667  0.575000
0.283667  0.237667  0.575000
0.285257  0.238080  0.576000
0.285857  0.237667  0.575000
0.286952  0.237667  0.575000
0.289050  0.238493  0.577000
0.290149  0.238493  0.577000
0.291248  0.238493  0.577000
0.294880  0.240560  0.582000
0.295989  0.240560  0.582000
0.297097  0.240560  0.582000
0.297693  0.240147  0.581000
0.298800  0.240147  0.581000
0.299907  0.240147  0.581000
0.301531  0.240560  0.582000
0.302120  0.240147  0.581000
0.302705  0.239733  0.580000
0.303810  0.239733  0.580000
0.304914  0.239733  0.580000
0.306019  0.239733  0.580000
0.308183  0.240560  0.582000
0.309291  0.240560  0.582000
0.310400  0.240560  0.582000
0.310973  0.240147  0.581000
0.312080  0.240147  0.581000
0.313187  0.240147  0.581000
0.314293  0.240147  0.581000
0.315400  0.240147  0.581000
0.316507  0.240147  0.581000
0.318160  0.240560  0.582000
0.319269  0.240560  0.582000
0.320377  0.240560  0.582000
0.321486  0.240560  0.582000
0.322040  0.240147  0.581000
0.323147  0.240147  0.581000
0.324253  0.240147  0.581000
0.325360  0.240147  0.581000
0.326467  0.240147  0.581000
0.327573  0.240147  0.581000
0.327549  0.239320  0.579000
0.328651  0.239320  0.579000
0.329754  0.239320  0.579000
0.330857  0.239320  0.579000
0.331960  0.239320  0.579000
0.333063  0.239320  0.579000
0.334166  0.239320  0.579000
0.335269  0.239320  0.579000
0.336952  0.239733  0.580000
0.338057  0.239733  0.580000
0.339162  0.239733  0.580000
0.340267  0.239733  0.580000
0.341960  0.240147  0.581000
0.343067  0.240147  0.581000
0.344173  0.240147  0.581000
0.345280  0.240147  0.581000
0.346387  0.240147  0.581000
0.347493  0.240147  0.581000
0.348600  0.240147  0.581000
0.350309  0.240560  0.582000
0.351417  0.240560  0.582000
-0.336251  0.234194  0.564000
-0.335177  0.234194  0.564000
-0.334103  0.234194  0.564000
-0.333029  0.234194  0.564000
-0.331954  0.234194  0.564000
-0.330880  0.234194  0.564000
-0.329806  0.234194  0.564000
-0.328149  0.233779  0.563000
-0.327076  0.233779  0.563000
-0.324846  0.232949  0.561000
-0.323777  0.232949  0.561000
-0.323859  0.233779  0.563000
-0.320493  0.232118  0.559000
-0.319429  0.232118  0.559000
-0.318364  0.232118  0.559000
-0.317299  0.232118  0.559000
-0.316234  0.232118  0.559000
-0.315170  0.232118  0.559000
-0.313543  0.231703  0.558000
-0.312480  0.231703  0.558000
-0.311975  0.232118  0.559000
-0.310910  0.232118  0.559000
-0.309846  0.232118  0.559000
-0.308781  0.232118  0.559000
-0.307716  0.232118  0.559000
-0.307200  0.232533  0.560000
-0.307227  0.233364  0.562000
-0.306156  0.233364  0.562000
-0.305086  0.233364  0.562000
-0.304015  0.233364  0.562000
-0.302945  0.233364  0.562000
-0.301874  0.233364  0.562000
-0.300804  0.233364  0.562000
-0.298667  0.232533  0.560000
-0.297600  0.232533  0.560000
-0.298122  0.233779  0.563000
-0.297050  0.233779  0.563000
-0.295977  0.233779  0.563000
-0.291238  0.230872  0.556000
-0.290179  0.230872  0.556000
-0.289120  0.230872  0.556000
-0.288579  0.231288  0.557000
-0.288034  0.231703  0.558000
-0.286457  0.231288  0.557000
-0.285396  0.231288  0.557000
-0.284846  0.231703  0.558000
-0.284291  0.232118  0.559000
-0.283227  0.232118  0.559000
-0.282162  0.232118  0.559000
-0.281097  0.232118  0.559000
-0.279030  0.231288  0.557000
-0.277970  0.231288  0.557000
-0.277903  0.232118  0.559000
-0.275848  0.231288  0.557000
-0.274293  0.230872  0.556000
-0.273234  0.230872  0.556000
-0.272665  0.231288  0.557000
-0.271116  0.230872  0.556000
-0.270057  0.230872  0.556000
-0.269482  0.231288  0.557000
-0.268421  0.231288  0.557000
-0.267840  0.231703  0.558000
-0.266777  0.231703  0.558000
-0.266190  0.232118  0.559000
-0.265126  0.232118  0.559000
-0.264061  0.232118  0.559000
-0.263467  0.232533  0.560000
-0.262869  0.232949  0.561000
-0.262267  0.233364  0.562000
-0.260731  0.232949  0.561000
-0.259200  0.232533  0.560000
-0.258133  0.232533  0.560000
-0.257067  0.232533  0.560000
-0.256457  0.232949  0.561000
-0.254933  0.232533  0.560000
-0.253867  0.232533  0.560000
-0.252349  0.232118  0.559000
-0.251284  0.232118  0.559000
-0.250667  0.232533  0.560000
-0.250046  0.232949  0.561000
-0.248533  0.232533  0.560000
-0.247025  0.232118  0.559000
-0.245960  0.232118  0.559000
-0.245333  0.232533  0.560000
-0.244267  0.232533  0.560000
-0.242766  0.232118  0.559000
-0.241269  0.231703  0.558000
-0.240206  0.231703  0.558000
-0.239143  0.231703  0.558000
-0.238507  0.232118  0.559000
-0.237867  0.232533  0.560000
-0.236377  0.232118  0.559000
-0.234470  0.231288  0.557000
-0.233410  0.231288  0.557000
-0.232766  0.231703  0.558000
-0.232118  0.232118  0.559000
-0.231053  0.232118  0.559000
-0.232869  0.235025  0.566000
-0.231790  0.235025  0.566000
-0.227859  0.232118  0.559000
-0.226794  0.232118  0.559000
-0.226941  0.233364  0.562000
-0.226272  0.233779  0.563000
-0.225200  0.233779  0.563000
-0.223331  0.232949  0.561000
-0.222263  0.232949  0.561000
-0.220800  0.232533  0.560000
-0.219733  0.232533  0.560000
-0.218667  0.232533  0.560000
-0.217600  0.232533  0.560000
-0.214600  0.230457  0.555000
-0.213543  0.230457  0.555000
-0.212869  0.230872  0.556000
-0.211810  0.230872  0.556000
-0.210371  0.230457  0.555000
-0.209314  0.230457  0.555000
-0.208257  0.230457  0.555000
-0.207947  0.231288  0.557000
-0.207629  0.232118  0.559000
-0.206933  0.232533  0.560000
-0.205499  0.232118  0.559000
-0.204434  0.232118  0.559000
-0.204097  0.232949  0.561000
-0.203029  0.232949  0.561000
-0.201960  0.232949  0.561000
-0.200891  0.232949  0.561000
-0.199823  0.232949  0.561000
-0.198754  0.232949  0.561000
-0.197686  0.232949  0.561000
-0.195916  0.232118  0.559000
-0.194851  0.232118  0.559000
-0.194133  0.232533  0.560000
-0.193067  0.232533  0.560000
-0.192000  0.232533  0.560000
-0.190933  0.232533  0.560000
-0.189867  0.232533  0.560000
-0.188800  0.232533  0.560000
-0.188069  0.232949  0.561000
-0.186667  0.232533  0.560000
-0.185600  0.232533  0.560000
-0.184533  0.232533  0.560000
-0.183467  0.232533  0.560000
-0.182400  0.232533  0.560000
-0.181333  0.232533  0.560000
-0.180267  0.232533  0.560000
-0.179200  0.232533  0.560000
-0.178133  0.232533  0.560000
-0.179280  0.235440  0.567000
-0.178200  0.235440  0.567000
-0.177120  0.235440  0.567000
-0.176661  0.236270  0.569000
-0.175886  0.236686  0.570000
-0.170200  0.230457  0.555000
-0.169143  0.230457  0.555000
-0.168086  0.230457  0.555000
-0.167029  0.230457  0.555000
-0.165971  0.230457  0.555000
-0.165509  0.231288  0.557000
-0.164743  0.231703  0.558000
-0.163680  0.231703  0.558000
-0.163783  0.233364  0.562000
-0.162712  0.233364  0.562000
-0.161930  0.233779  0.563000
-0.160857  0.233779  0.563000
-0.159501  0.233364  0.562000
-0.158430  0.233364  0.562000
-0.157080  0.232949  0.561000
-0.154899  0.231288  0.557000
-0.153838  0.231288  0.557000
-0.152777  0.231288  0.557000
-0.151716  0.231288  0.557000
-0.150655  0.231288  0.557000
-0.150937  0.233364  0.562000
-0.149867  0.233364  0.562000
-0.149061  0.233779  0.563000
-0.147989  0.233779  0.563000
-0.146655  0.233364  0.562000
-0.145585  0.233364  0.562000
-0.144514  0.233364  0.562000
-0.143444  0.233364  0.562000
-0.142373  0.233364  0.562000
-0.141303  0.233364  0.562000
-0.140232  0.233364  0.562000
-0.139410  0.233779  0.563000
-0.138337  0.233779  0.563000
-0.137265  0.233779  0.563000
-0.136192  0.233779  0.563000
-0.135120  0.233779  0.563000
-0.134048  0.233779  0.563000
-0.132503  0.232949  0.561000
-0.131200  0.232533  0.560000
-0.130133  0.232533  0.560000
-0.129067  0.232533  0.560000
-0.128000  0.232533  0.560000
-0.126933  0.232533  0.560000
-0.125867  0.232533  0.560000
-0.126137  0.235025  0.566000
-0.125059  0.235025  0.566000
-0.123981  0.235025  0.566000
-0.123120  0.235440  0.567000
-0.122470  0.236270  0.569000
-0.121387  0.236270  0.569000
-0.120303  0.236270  0.569000
-0.119219  0.236270  0.569000
-0.117305  0.234610  0.565000
-0.116023  0.234194  0.564000
-0.114541  0.233364  0.562000
-0.113470  0.233364  0.562000
-0.112400  0.233364  0.562000
-0.111528  0.233779  0.563000
-0.110259  0.233364  0.562000
-0.109189  0.233364  0.562000
-0.108118  0.233364  0.562000
-0.107238  0.233779  0.563000
-0.106166  0.233779  0.563000
-0.105280  0.234194  0.564000
-0.104760  0.235440  0.567000
-0.102949  0.233779  0.563000
-0.101876  0.233779  0.563000
-0.101162  0.234610  0.565000
-0.100263  0.235025  0.566000
-0.099185  0.235025  0.566000
-0.098107  0.235025  0.566000
-0.096857  0.234610  0.565000
-0.095781  0.234610  0.565000
-0.094705  0.234610  0.565000
-0.093629  0.234610  0.565000
-0.092389  0.234194  0.564000
-0.091152  0.233779  0.563000
-0.090080  0.233779  0.563000
