# .PCD v.5 - Point Cloud Data file format
FIELDS x y z 
SIZE 4 4 4
TYPE F F F
COUNT 1 1 1
WIDTH 1556
HEIGHT 1
POINTS 1556
DATA ascii
0.151032  -0.298552  0.922000
0.152789  -0.298552  0.922000
0.154545  -0.298552  0.922000
0.156301  -0.298552  0.922000
0.158057  -0.298552  0.922000
0.159813  -0.298552  0.922000
0.161570  -0.298552  0.922000
0.162971  -0.297905  0.920000
0.164724  -0.297905  0.920000
0.167743  -0.300171  0.927000
0.170423  -0.301790  0.932000
0.172198  -0.301790  0.932000
0.172667  -0.299524  0.925000
0.173863  -0.298552  0.922000
0.175619  -0.298552  0.922000
0.177952  -0.299524  0.925000
0.179714  -0.299524  0.925000
0.181476  -0.299524  0.925000
0.184229  -0.301143  0.930000
0.186000  -0.301143  0.930000
0.187771  -0.301143  0.930000
0.189950  -0.301790  0.932000
0.191726  -0.301790  0.932000
0.193501  -0.301790  0.932000
0.194857  -0.301143  0.930000
0.195994  -0.300171  0.927000
0.197760  -0.300171  0.927000
0.199526  -0.300171  0.927000
0.201291  -0.300171  0.927000
0.203057  -0.300171  0.927000
0.204381  -0.299524  0.925000
0.206143  -0.299524  0.925000
0.208354  -0.300171  0.927000
0.212629  -0.296286  0.915000
0.214371  -0.296286  0.915000
0.216114  -0.296286  0.915000
0.218333  -0.296933  0.917000
0.219600  -0.296286  0.915000
0.221343  -0.296286  0.915000
-0.541341  -0.295749  0.908000
-0.539611  -0.295749  0.908000
-0.539067  -0.296400  0.910000
-0.537333  -0.296400  0.910000
-0.535600  -0.296400  0.910000
-0.533867  -0.296400  0.910000
-0.532133  -0.296400  0.910000
-0.530400  -0.296400  0.910000
-0.527505  -0.295749  0.908000
-0.524038  -0.294771  0.905000
-0.522314  -0.294771  0.905000
-0.519440  -0.294120  0.903000
-0.517720  -0.294120  0.903000
-0.516000  -0.294120  0.903000
-0.514280  -0.294120  0.903000
-0.516533  -0.296400  0.910000
-0.514800  -0.296400  0.910000
-0.510248  -0.294771  0.905000
-0.507400  -0.294120  0.903000
-0.502880  -0.292491  0.898000
-0.501170  -0.292491  0.898000
-0.498347  -0.291840  0.896000
-0.496640  -0.291840  0.896000
-0.494933  -0.291840  0.896000
-0.494328  -0.292491  0.898000
-0.494263  -0.293469  0.901000
-0.494733  -0.294771  0.905000
-0.497368  -0.297377  0.913000
-0.492914  -0.295749  0.908000
-0.489562  -0.294771  0.905000
-0.486760  -0.294120  0.903000
-0.485040  -0.294120  0.903000
-0.483320  -0.294120  0.903000
-0.481600  -0.294120  0.903000
-0.479880  -0.294120  0.903000
-0.478160  -0.294120  0.903000
-0.476440  -0.294120  0.903000
-0.474720  -0.294120  0.903000
-0.475619  -0.295749  0.908000
-0.474933  -0.296400  0.910000
-0.472160  -0.295749  0.908000
-0.470430  -0.295749  0.908000
-0.468701  -0.295749  0.908000
-0.470571  -0.298029  0.915000
-0.469853  -0.298680  0.917000
-0.467086  -0.298029  0.915000
-0.465343  -0.298029  0.915000
-0.464613  -0.298680  0.917000
-0.462867  -0.298680  0.917000
-0.461120  -0.298680  0.917000
-0.455867  -0.296400  0.910000
-0.454133  -0.296400  0.910000
-0.452400  -0.296400  0.910000
-0.452152  -0.297377  0.913000
-0.448933  -0.296400  0.910000
-0.447200  -0.296400  0.910000
-0.445467  -0.296400  0.910000
-0.443733  -0.296400  0.910000
-0.442000  -0.296400  0.910000
-0.441718  -0.297377  0.913000
-0.439979  -0.297377  0.913000
-0.438240  -0.297377  0.913000
-0.437457  -0.298029  0.915000
-0.435714  -0.298029  0.915000
-0.434920  -0.298680  0.917000
-0.433173  -0.298680  0.917000
-0.431427  -0.298680  0.917000
-0.427806  -0.297377  0.913000
-0.426067  -0.297377  0.913000
-0.424328  -0.297377  0.913000
-0.423514  -0.298029  0.915000
-0.421771  -0.298029  0.915000
-0.419110  -0.297377  0.913000
-0.417371  -0.297377  0.913000
-0.416543  -0.298029  0.915000
-0.415707  -0.298680  0.917000
-0.413960  -0.298680  0.917000
-0.412213  -0.298680  0.917000
-0.410467  -0.298680  0.917000
-0.407829  -0.298029  0.915000
-0.406086  -0.298029  0.915000
-0.403459  -0.297377  0.913000
-0.401720  -0.297377  0.913000
-0.399981  -0.297377  0.913000
-0.396933  -0.296400  0.910000
-0.395200  -0.296400  0.910000
-0.393467  -0.296400  0.910000
-0.391733  -0.296400  0.910000
-0.391286  -0.297377  0.913000
-0.389547  -0.297377  0.913000
-0.387808  -0.297377  0.913000
-0.386069  -0.297377  0.913000
-0.384330  -0.297377  0.913000
-0.382590  -0.297377  0.913000
-0.380851  -0.297377  0.913000
-0.379112  -0.297377  0.913000
-0.377373  -0.297377  0.913000
-0.375634  -0.297377  0.913000
-0.371848  -0.295749  0.908000
-0.370118  -0.295749  0.908000
-0.367171  -0.294771  0.905000
-0.365448  -0.294771  0.905000
-0.363724  -0.294771  0.905000
-0.363200  -0.295749  0.908000
-0.362267  -0.296400  0.910000
-0.360533  -0.296400  0.910000
-0.358800  -0.296400  0.910000
-0.357067  -0.296400  0.910000
-0.355333  -0.296400  0.910000
-0.353600  -0.296400  0.910000
-0.351867  -0.296400  0.910000
-0.351288  -0.297377  0.913000
-0.348400  -0.296400  0.910000
-0.346667  -0.296400  0.910000
-0.346070  -0.297377  0.913000
-0.345840  -0.298680  0.917000
-0.344093  -0.298680  0.917000
-0.343467  -0.299657  0.920000
-0.340600  -0.298680  0.917000
-0.338853  -0.298680  0.917000
-0.337107  -0.298680  0.917000
-0.334629  -0.298029  0.915000
-0.332158  -0.297377  0.913000
-0.330419  -0.297377  0.913000
-0.329400  -0.298029  0.915000
-0.327657  -0.298029  0.915000
-0.325914  -0.298029  0.915000
-0.324171  -0.298029  0.915000
-0.322429  -0.298029  0.915000
-0.321387  -0.298680  0.917000
-0.319640  -0.298680  0.917000
-0.317893  -0.298680  0.917000
-0.316147  -0.298680  0.917000
-0.312000  -0.296400  0.910000
-0.310267  -0.296400  0.910000
-0.308533  -0.296400  0.910000
-0.306800  -0.296400  0.910000
-0.305067  -0.296400  0.910000
-0.301667  -0.294771  0.905000
-0.299943  -0.294771  0.905000
-0.299867  -0.296400  0.910000
-0.298133  -0.296400  0.910000
-0.298029  -0.298029  0.915000
-0.296286  -0.298029  0.915000
-0.295187  -0.298680  0.917000
-0.293440  -0.298680  0.917000
-0.291693  -0.298680  0.917000
-0.289947  -0.298680  0.917000
-0.286000  -0.296400  0.910000
-0.284267  -0.296400  0.910000
-0.283465  -0.297377  0.913000
-0.281726  -0.297377  0.913000
-0.282133  -0.299657  0.920000
-0.279467  -0.298680  0.917000
-0.277720  -0.298680  0.917000
-0.275973  -0.298680  0.917000
-0.274227  -0.298680  0.917000
-0.272480  -0.298680  0.917000
-0.273686  -0.301937  0.927000
-0.271333  -0.301286  0.925000
-0.269571  -0.301286  0.925000
-0.266941  -0.300309  0.922000
-0.261158  -0.295749  0.908000
-0.259429  -0.295749  0.908000
-0.259118  -0.297377  0.913000
-0.257943  -0.298029  0.915000
-0.256760  -0.298680  0.917000
-0.255013  -0.298680  0.917000
-0.253267  -0.298680  0.917000
-0.251520  -0.298680  0.917000
-0.249773  -0.298680  0.917000
-0.248027  -0.298680  0.917000
-0.246280  -0.298680  0.917000
-0.244533  -0.298680  0.917000
-0.242787  -0.298680  0.917000
-0.186629  -0.231257  0.710000
-0.184754  -0.230606  0.708000
-0.183406  -0.230606  0.708000
-0.181800  -0.230280  0.707000
-0.179943  -0.229629  0.705000
-0.178600  -0.229629  0.705000
-0.177257  -0.229629  0.705000
-0.175415  -0.228977  0.703000
-0.174076  -0.228977  0.703000
-0.172246  -0.228326  0.701000
-0.170910  -0.228326  0.701000
-0.169575  -0.228326  0.701000
-0.168240  -0.228326  0.701000
-0.166905  -0.228326  0.701000
-0.165333  -0.228000  0.700000
-0.164000  -0.228000  0.700000
-0.162667  -0.228000  0.700000
-0.161333  -0.228000  0.700000
-0.160000  -0.228000  0.700000
-0.158667  -0.228000  0.700000
-0.157333  -0.228000  0.700000
-0.155554  -0.227349  0.698000
-0.154225  -0.227349  0.698000
-0.152895  -0.227349  0.698000
-0.152000  -0.228000  0.700000
-0.150667  -0.228000  0.700000
-0.149333  -0.228000  0.700000
-0.148000  -0.228000  0.700000
-0.146876  -0.228326  0.701000
-0.145541  -0.228326  0.701000
-0.144206  -0.228326  0.701000
-0.142870  -0.228326  0.701000
-0.141535  -0.228326  0.701000
-0.140200  -0.228326  0.701000
-0.138865  -0.228326  0.701000
-0.137922  -0.228977  0.703000
-0.136583  -0.228977  0.703000
-0.135244  -0.228977  0.703000
-0.134286  -0.229629  0.705000
-0.133320  -0.230280  0.707000
-0.131973  -0.230280  0.707000
-0.130811  -0.230606  0.708000
-0.129829  -0.231257  0.710000
-0.128657  -0.231583  0.711000
-0.127661  -0.232234  0.713000
-0.126834  -0.233211  0.716000
-0.125646  -0.233537  0.717000
-0.124627  -0.234189  0.719000
-0.123429  -0.234514  0.720000
-0.122396  -0.235166  0.722000
-0.121021  -0.235166  0.722000
-0.119811  -0.235491  0.723000
-0.118926  -0.236469  0.726000
-0.131086  -0.302914  0.930000
-0.128897  -0.301937  0.927000
-0.126857  -0.301286  0.925000
-0.125095  -0.301286  0.925000
-0.123333  -0.301286  0.925000
-0.121571  -0.301286  0.925000
-0.119162  -0.299657  0.920000
-0.117410  -0.299657  0.920000
-0.116286  -0.301286  0.925000
-0.114524  -0.301286  0.925000
-0.112762  -0.301286  0.925000
-0.110040  -0.298680  0.917000
-0.108293  -0.298680  0.917000
-0.107476  -0.301286  0.925000
-0.105714  -0.301286  0.925000
-0.104514  -0.302914  0.930000
-0.102743  -0.302914  0.930000
-0.098583  -0.295749  0.908000
-0.096533  -0.294771  0.905000
-0.094600  -0.294120  0.903000
-0.092880  -0.294120  0.903000
-0.091160  -0.294120  0.903000
-0.089638  -0.294771  0.905000
-0.087914  -0.294771  0.905000
-0.086476  -0.295749  0.908000
-0.085587  -0.298680  0.917000
-0.083840  -0.298680  0.917000
-0.082093  -0.298680  0.917000
-0.080347  -0.298680  0.917000
-0.078600  -0.298680  0.917000
-0.076853  -0.298680  0.917000
-0.074533  -0.296400  0.910000
-0.072800  -0.296400  0.910000
-0.072394  -0.301937  0.927000
-0.070629  -0.301937  0.927000
-0.068863  -0.301937  0.927000
-0.066952  -0.301286  0.925000
-0.065190  -0.301286  0.925000
-0.063429  -0.301286  0.925000
-0.061667  -0.301286  0.925000
-0.060034  -0.301937  0.927000
-0.057640  -0.298680  0.917000
-0.055893  -0.298680  0.917000
-0.054619  -0.301286  0.925000
-0.052857  -0.301286  0.925000
-0.051206  -0.301937  0.927000
-0.049600  -0.302914  0.930000
-0.047829  -0.302914  0.930000
-0.045909  -0.301937  0.927000
-0.044143  -0.301937  0.927000
-0.042514  -0.302914  0.930000
-0.040743  -0.302914  0.930000
-0.038343  -0.298029  0.915000
-0.036600  -0.298029  0.915000
-0.034933  -0.298680  0.917000
-0.033187  -0.298680  0.917000
-0.031440  -0.298680  0.917000
-0.029790  -0.299657  0.920000
-0.028038  -0.299657  0.920000
-0.026286  -0.299657  0.920000
-0.024533  -0.299657  0.920000
-0.022781  -0.299657  0.920000
-0.021029  -0.299657  0.920000
-0.019276  -0.299657  0.920000
-0.017524  -0.299657  0.920000
-0.011352  -0.242657  0.745000
-0.009933  -0.242657  0.745000
-0.008491  -0.242006  0.743000
-0.007076  -0.242006  0.743000
-0.005661  -0.242006  0.743000
-0.004246  -0.242006  0.743000
-0.002819  -0.241029  0.740000
-0.001402  -0.239726  0.736000
0.000000  -0.238097  0.731000
0.001389  -0.237446  0.729000
0.002777  -0.237446  0.729000
0.004166  -0.237446  0.729000
0.005547  -0.237120  0.728000
0.006933  -0.237120  0.728000
0.008331  -0.237446  0.729000
0.009707  -0.237120  0.728000
0.011063  -0.236469  0.726000
0.012429  -0.236143  0.725000
0.013810  -0.236143  0.725000
0.015149  -0.235491  0.723000
0.016526  -0.235491  0.723000
0.017903  -0.235491  0.723000
0.019253  -0.235166  0.722000
0.020629  -0.235166  0.722000
0.021943  -0.234514  0.720000
0.023314  -0.234514  0.720000
0.024686  -0.234514  0.720000
0.026057  -0.234514  0.720000
0.027390  -0.234189  0.719000
0.028760  -0.234189  0.719000
0.030130  -0.234189  0.719000
0.031499  -0.234189  0.719000
0.032869  -0.234189  0.719000
0.034238  -0.234189  0.719000
0.035608  -0.234189  0.719000
0.036977  -0.234189  0.719000
0.038347  -0.234189  0.719000
0.039716  -0.234189  0.719000
0.041143  -0.234514  0.720000
0.042514  -0.234514  0.720000
0.043886  -0.234514  0.720000
0.045257  -0.234514  0.720000
0.046629  -0.234514  0.720000
0.048133  -0.235166  0.722000
0.049509  -0.235166  0.722000
0.050884  -0.235166  0.722000
0.052331  -0.235491  0.723000
0.053709  -0.235491  0.723000
0.055086  -0.235491  0.723000
0.056619  -0.236143  0.725000
0.058000  -0.236143  0.725000
0.059381  -0.236143  0.725000
0.060846  -0.236469  0.726000
0.062400  -0.237120  0.728000
0.063874  -0.237446  0.729000
0.065442  -0.238097  0.731000
0.066834  -0.238097  0.731000
0.068320  -0.238423  0.732000
0.069905  -0.239074  0.734000
0.071497  -0.239726  0.736000
0.072998  -0.240051  0.737000
0.074402  -0.240051  0.737000
0.124419  -0.299657  0.920000
0.126171  -0.299657  0.920000
0.127924  -0.299657  0.920000
0.129676  -0.299657  0.920000
0.131714  -0.300309  0.922000
0.133905  -0.301286  0.925000
0.135227  -0.300309  0.922000
0.136983  -0.300309  0.922000
0.138739  -0.300309  0.922000
0.140495  -0.300309  0.922000
0.142251  -0.300309  0.922000
0.143695  -0.299657  0.920000
0.144973  -0.298680  0.917000
0.146720  -0.298680  0.917000
0.148467  -0.298680  0.917000
0.150213  -0.298680  0.917000
0.151960  -0.298680  0.917000
0.153707  -0.298680  0.917000
0.155453  -0.298680  0.917000
0.157200  -0.298680  0.917000
0.158947  -0.298680  0.917000
0.160693  -0.298680  0.917000
0.160846  -0.295749  0.908000
0.162575  -0.295749  0.908000
0.166476  -0.299657  0.920000
0.169143  -0.301286  0.925000
0.169427  -0.298680  0.917000
0.171173  -0.298680  0.917000
0.172920  -0.298680  0.917000
0.174667  -0.298680  0.917000
0.176413  -0.298680  0.917000
0.178160  -0.298680  0.917000
0.180495  -0.299657  0.920000
0.181653  -0.298680  0.917000
0.183400  -0.298680  0.917000
0.187166  -0.301937  0.927000
0.189543  -0.302914  0.930000
0.191726  -0.303566  0.932000
0.193501  -0.303566  0.932000
0.194857  -0.302914  0.930000
0.195994  -0.301937  0.927000
0.197760  -0.301937  0.927000
0.199526  -0.301937  0.927000
0.200857  -0.301286  0.925000
0.202619  -0.301286  0.925000
0.204381  -0.301286  0.925000
0.206143  -0.301286  0.925000
0.208354  -0.301937  0.927000
0.208533  -0.299657  0.920000
0.209600  -0.298680  0.917000
0.210425  -0.297377  0.913000
0.212164  -0.297377  0.913000
0.214371  -0.298029  0.915000
0.216114  -0.298029  0.915000
0.218333  -0.298680  0.917000
0.219600  -0.298029  0.915000
0.220859  -0.297377  0.913000
0.222598  -0.297377  0.913000
-0.539552  -0.296495  0.905000
-0.537829  -0.296495  0.905000
-0.536105  -0.296495  0.905000
-0.536152  -0.297478  0.908000
-0.535600  -0.298133  0.910000
-0.532693  -0.297478  0.908000
-0.530964  -0.297478  0.908000
-0.529234  -0.297478  0.908000
-0.527505  -0.297478  0.908000
-0.521722  -0.295185  0.901000
-0.518274  -0.294202  0.898000
-0.516564  -0.294202  0.898000
-0.514853  -0.294202  0.898000
-0.513143  -0.294202  0.898000
-0.513141  -0.295185  0.901000
-0.511425  -0.295185  0.901000
-0.510840  -0.295840  0.903000
-0.509120  -0.295840  0.903000
-0.504590  -0.294202  0.898000
-0.501760  -0.293547  0.896000
-0.500053  -0.293547  0.896000
-0.498347  -0.293547  0.896000
-0.496640  -0.293547  0.896000
-0.494933  -0.293547  0.896000
-0.493227  -0.293547  0.896000
-0.491520  -0.293547  0.896000
-0.492547  -0.295185  0.901000
-0.490830  -0.295185  0.901000
-0.490200  -0.295840  0.903000
-0.487398  -0.295185  0.901000
-0.485682  -0.295185  0.901000
-0.485040  -0.295840  0.903000
-0.483320  -0.295840  0.903000
-0.481600  -0.295840  0.903000
-0.479880  -0.295840  0.903000
-0.477101  -0.295185  0.901000
-0.475385  -0.295185  0.901000
-0.473669  -0.295185  0.901000
-0.473000  -0.295840  0.903000
-0.473890  -0.297478  0.908000
-0.469560  -0.295840  0.903000
-0.467840  -0.295840  0.903000
-0.466120  -0.295840  0.903000
-0.466971  -0.297478  0.908000
-0.466267  -0.298133  0.910000
-0.463512  -0.297478  0.908000
-0.460257  -0.296495  0.905000
-0.458533  -0.296495  0.905000
-0.458324  -0.297478  0.908000
-0.456594  -0.297478  0.908000
-0.452360  -0.295840  0.903000
-0.450640  -0.295840  0.903000
-0.448920  -0.295840  0.903000
-0.448190  -0.296495  0.905000
-0.446467  -0.296495  0.905000
-0.444743  -0.296495  0.905000
-0.443019  -0.296495  0.905000
-0.442758  -0.297478  0.908000
-0.441029  -0.297478  0.908000
-0.440267  -0.298133  0.910000
-0.438533  -0.298133  0.910000
-0.436800  -0.298133  0.910000
-0.436501  -0.299116  0.913000
-0.434762  -0.299116  0.913000
-0.433023  -0.299116  0.913000
-0.431284  -0.299116  0.913000
-0.428133  -0.298133  0.910000
-0.425463  -0.297478  0.908000
-0.423733  -0.297478  0.908000
-0.420610  -0.296495  0.905000
-0.418886  -0.296495  0.905000
-0.417162  -0.296495  0.905000
-0.415438  -0.296495  0.905000
-0.413714  -0.296495  0.905000
-0.414267  -0.298133  0.910000
-0.412533  -0.298133  0.910000
-0.410800  -0.298133  0.910000
-0.410415  -0.299116  0.913000
-0.408676  -0.299116  0.913000
-0.405600  -0.298133  0.910000
-0.401648  -0.296495  0.905000
-0.399040  -0.295840  0.903000
-0.397320  -0.295840  0.903000
-0.395600  -0.295840  0.903000
-0.393008  -0.295185  0.901000
-0.391291  -0.295185  0.901000
-0.391305  -0.296495  0.905000
-0.389581  -0.296495  0.905000
-0.389143  -0.297478  0.908000
-0.387413  -0.297478  0.908000
-0.386533  -0.298133  0.910000
-0.384800  -0.298133  0.910000
-0.383067  -0.298133  0.910000
-0.381333  -0.298133  0.910000
-0.379600  -0.298133  0.910000
-0.377867  -0.298133  0.910000
-0.376133  -0.298133  0.910000
-0.373577  -0.297478  0.908000
-0.370619  -0.296495  0.905000
-0.368080  -0.295840  0.903000
-0.366360  -0.295840  0.903000
-0.364640  -0.295840  0.903000
-0.362920  -0.295840  0.903000
-0.362000  -0.296495  0.905000
-0.361470  -0.297478  0.908000
-0.358552  -0.296495  0.905000
-0.356829  -0.296495  0.905000
-0.355105  -0.296495  0.905000
-0.353381  -0.296495  0.905000
-0.351657  -0.296495  0.905000
-0.351093  -0.297478  0.908000
-0.348210  -0.296495  0.905000
-0.345720  -0.295840  0.903000
-0.344000  -0.295840  0.903000
-0.342280  -0.295840  0.903000
-0.342446  -0.297478  0.908000
-0.340716  -0.297478  0.908000
-0.340853  -0.299116  0.913000
-0.339857  -0.299771  0.915000
-0.338114  -0.299771  0.915000
-0.336371  -0.299771  0.915000
-0.333897  -0.299116  0.913000
-0.331067  -0.298133  0.910000
-0.329333  -0.298133  0.910000
-0.327600  -0.298133  0.910000
-0.325867  -0.298133  0.910000
-0.324133  -0.298133  0.910000
-0.322400  -0.298133  0.910000
-0.320667  -0.298133  0.910000
-0.318933  -0.298133  0.910000
-0.317200  -0.298133  0.910000
-0.316507  -0.299116  0.913000
-0.313733  -0.298133  0.910000
-0.309600  -0.295840  0.903000
-0.307880  -0.295840  0.903000
-0.305482  -0.295185  0.901000
-0.303766  -0.295185  0.901000
-0.302050  -0.295185  0.901000
-0.300333  -0.295185  0.901000
-0.299280  -0.295840  0.903000
-0.297560  -0.295840  0.903000
-0.295840  -0.295840  0.903000
-0.294771  -0.296495  0.905000
-0.293048  -0.296495  0.905000
-0.292290  -0.297478  0.908000
-0.291200  -0.298133  0.910000
-0.289467  -0.298133  0.910000
-0.287733  -0.298133  0.910000
-0.285371  -0.297478  0.908000
-0.283642  -0.297478  0.908000
-0.282533  -0.298133  0.910000
-0.280800  -0.298133  0.910000
-0.279067  -0.298133  0.910000
-0.277333  -0.298133  0.910000
-0.275600  -0.298133  0.910000
-0.273867  -0.298133  0.910000
-0.272133  -0.298133  0.910000
-0.264754  -0.291909  0.891000
-0.263057  -0.291909  0.891000
-0.261360  -0.291909  0.891000
-0.260537  -0.292891  0.894000
-0.261440  -0.295840  0.903000
-0.259720  -0.295840  0.903000
-0.258000  -0.295840  0.903000
-0.257699  -0.297478  0.908000
-0.256533  -0.298133  0.910000
-0.254800  -0.298133  0.910000
-0.253901  -0.299116  0.913000
-0.252714  -0.299771  0.915000
-0.250971  -0.299771  0.915000
-0.249229  -0.299771  0.915000
-0.247486  -0.299771  0.915000
-0.245743  -0.299771  0.915000
-0.244000  -0.299771  0.915000
-0.242257  -0.299771  0.915000
-0.186629  -0.232610  0.710000
-0.185276  -0.232610  0.710000
-0.183406  -0.231954  0.708000
-0.181800  -0.231627  0.707000
-0.180453  -0.231627  0.707000
-0.178600  -0.230971  0.705000
-0.177257  -0.230971  0.705000
-0.175415  -0.230316  0.703000
-0.174076  -0.230316  0.703000
-0.172246  -0.229661  0.701000
-0.170910  -0.229661  0.701000
-0.169575  -0.229661  0.701000
-0.168240  -0.229661  0.701000
-0.166905  -0.229661  0.701000
-0.165333  -0.229333  0.700000
-0.164000  -0.229333  0.700000
-0.162667  -0.229333  0.700000
-0.161333  -0.229333  0.700000
-0.160000  -0.229333  0.700000
-0.158667  -0.229333  0.700000
-0.157333  -0.229333  0.700000
-0.155554  -0.228678  0.698000
-0.154225  -0.228678  0.698000
-0.152895  -0.228678  0.698000
-0.152000  -0.229333  0.700000
-0.150667  -0.229333  0.700000
-0.149333  -0.229333  0.700000
-0.148000  -0.229333  0.700000
-0.146876  -0.229661  0.701000
-0.145541  -0.229661  0.701000
-0.144206  -0.229661  0.701000
-0.142870  -0.229661  0.701000
-0.141535  -0.229661  0.701000
-0.140200  -0.229661  0.701000
-0.138865  -0.229661  0.701000
-0.137922  -0.230316  0.703000
-0.136583  -0.230316  0.703000
-0.135244  -0.230316  0.703000
-0.134286  -0.230971  0.705000
-0.132943  -0.230971  0.705000
-0.131973  -0.231627  0.707000
-0.130811  -0.231954  0.708000
-0.129463  -0.231954  0.708000
-0.128476  -0.232610  0.710000
-0.127661  -0.233592  0.713000
-0.126834  -0.234575  0.716000
-0.125996  -0.235558  0.719000
-0.124800  -0.235886  0.720000
-0.123429  -0.235886  0.720000
-0.122057  -0.235886  0.720000
-0.121021  -0.236541  0.722000
-0.119646  -0.236541  0.722000
-0.128897  -0.303703  0.927000
-0.126857  -0.303048  0.925000
-0.125095  -0.303048  0.925000
-0.123333  -0.303048  0.925000
-0.121571  -0.303048  0.925000
-0.118773  -0.300427  0.917000
-0.117027  -0.300427  0.917000
-0.115029  -0.299771  0.915000
-0.113286  -0.299771  0.915000
-0.111543  -0.299771  0.915000
-0.109800  -0.299771  0.915000
-0.108057  -0.299771  0.915000
-0.106314  -0.299771  0.915000
-0.105714  -0.303048  0.925000
-0.102042  -0.297478  0.908000
-0.100312  -0.297478  0.908000
-0.098583  -0.297478  0.908000
-0.096533  -0.296495  0.905000
-0.094600  -0.295840  0.903000
-0.092880  -0.295840  0.903000
-0.091160  -0.295840  0.903000
-0.089638  -0.296495  0.905000
-0.087914  -0.296495  0.905000
-0.086476  -0.297478  0.908000
-0.084933  -0.298133  0.910000
-0.083474  -0.299116  0.913000
-0.081735  -0.299116  0.913000
-0.079733  -0.298133  0.910000
-0.078000  -0.298133  0.910000
-0.076267  -0.298133  0.910000
-0.074533  -0.298133  0.910000
-0.072800  -0.298133  0.910000
-0.069583  -0.291909  0.891000
-0.067886  -0.291909  0.891000
-0.066411  -0.292891  0.894000
-0.064853  -0.293547  0.896000
-0.063147  -0.293547  0.896000
-0.061783  -0.295185  0.901000
-0.060067  -0.295185  0.901000
-0.059387  -0.300427  0.917000
-0.057640  -0.300427  0.917000
-0.055893  -0.300427  0.917000
-0.053733  -0.298133  0.910000
-0.052000  -0.298133  0.910000
-0.050432  -0.299116  0.913000
-0.048693  -0.299116  0.913000
-0.046697  -0.297478  0.908000
-0.044968  -0.297478  0.908000
-0.043333  -0.298133  0.910000
-0.041600  -0.298133  0.910000
-0.039867  -0.298133  0.910000
-0.038133  -0.298133  0.910000
-0.036520  -0.299116  0.913000
-0.034781  -0.299116  0.913000
-0.033042  -0.299116  0.913000
-0.031371  -0.299771  0.915000
-0.029693  -0.300427  0.917000
-0.027947  -0.300427  0.917000
-0.026200  -0.300427  0.917000
-0.024400  -0.299771  0.915000
-0.022657  -0.299771  0.915000
-0.020960  -0.300427  0.917000
-0.019213  -0.300427  0.917000
-0.017467  -0.300427  0.917000
-0.015480  -0.295840  0.903000
-0.011383  -0.244731  0.747000
-0.009960  -0.244731  0.747000
-0.008491  -0.243421  0.743000
-0.007076  -0.243421  0.743000
-0.005676  -0.244076  0.745000
-0.004246  -0.243421  0.743000
-0.002819  -0.242438  0.740000
-0.001402  -0.241128  0.736000
0.000000  -0.239490  0.731000
0.001392  -0.239490  0.731000
0.002777  -0.238834  0.729000
0.004160  -0.238507  0.728000
0.005547  -0.238507  0.728000
0.006933  -0.238507  0.728000
0.008320  -0.238507  0.728000
0.009707  -0.238507  0.728000
0.011063  -0.237851  0.726000
0.012446  -0.237851  0.726000
0.013810  -0.237524  0.725000
0.015149  -0.236869  0.723000
0.016526  -0.236869  0.723000
0.017903  -0.236869  0.723000
0.019253  -0.236541  0.722000
0.020629  -0.236541  0.722000
0.021943  -0.235886  0.720000
0.023314  -0.235886  0.720000
0.024686  -0.235886  0.720000
0.026057  -0.235886  0.720000
0.027390  -0.235558  0.719000
0.028760  -0.235558  0.719000
0.030130  -0.235558  0.719000
0.031499  -0.235558  0.719000
0.032869  -0.235558  0.719000
0.034238  -0.235558  0.719000
0.035608  -0.235558  0.719000
0.036977  -0.235558  0.719000
0.038347  -0.235558  0.719000
0.039716  -0.235558  0.719000
0.041143  -0.235886  0.720000
0.042514  -0.235886  0.720000
0.043886  -0.235886  0.720000
0.045383  -0.236541  0.722000
0.046758  -0.236541  0.722000
0.048133  -0.236541  0.722000
0.049509  -0.236541  0.722000
0.050954  -0.236869  0.723000
0.052331  -0.236869  0.723000
0.053709  -0.236869  0.723000
0.055086  -0.236869  0.723000
0.056619  -0.237524  0.725000
0.058000  -0.237524  0.725000
0.059381  -0.237524  0.725000
0.060846  -0.237851  0.726000
0.062400  -0.238507  0.728000
0.063874  -0.238834  0.729000
0.065442  -0.239490  0.731000
0.066834  -0.239490  0.731000
0.068507  -0.240472  0.734000
0.070095  -0.241128  0.736000
0.071497  -0.241128  0.736000
0.072998  -0.241455  0.737000
0.074402  -0.241455  0.737000
0.124013  -0.300427  0.917000
0.125760  -0.300427  0.917000
0.127507  -0.300427  0.917000
0.129676  -0.301410  0.920000
0.131429  -0.301410  0.920000
0.133470  -0.302065  0.922000
0.135227  -0.302065  0.922000
0.136983  -0.302065  0.922000
0.138739  -0.302065  0.922000
0.140495  -0.302065  0.922000
0.142251  -0.302065  0.922000
0.143695  -0.301410  0.920000
0.144657  -0.299771  0.915000
0.146400  -0.299771  0.915000
0.148143  -0.299771  0.915000
0.149558  -0.299116  0.913000
0.151297  -0.299116  0.913000
0.153036  -0.299116  0.913000
0.153928  -0.297478  0.908000
0.154457  -0.295185  0.901000
0.155653  -0.294202  0.898000
0.157364  -0.294202  0.898000
0.159960  -0.295840  0.903000
0.162038  -0.296495  0.905000
0.163762  -0.296495  0.905000
0.166949  -0.299116  0.913000
0.167764  -0.297478  0.908000
0.169493  -0.297478  0.908000
0.172543  -0.299771  0.915000
0.173905  -0.299116  0.913000
0.175644  -0.299116  0.913000
0.177771  -0.299771  0.915000
0.179122  -0.299116  0.913000
0.180267  -0.298133  0.910000
0.182000  -0.298133  0.910000
0.187166  -0.303703  0.927000
0.189543  -0.304686  0.930000
0.191726  -0.305341  0.932000
0.194124  -0.306324  0.935000
0.194229  -0.303703  0.927000
0.195571  -0.303048  0.925000
0.197333  -0.303048  0.925000
0.199095  -0.303048  0.925000
0.200857  -0.303048  0.925000
0.202619  -0.303048  0.925000
0.204381  -0.303048  0.925000
0.206143  -0.303048  0.925000
0.205657  -0.299771  0.915000
0.207400  -0.299771  0.915000
0.208686  -0.299116  0.913000
0.209733  -0.298133  0.910000
0.211467  -0.298133  0.910000
0.213903  -0.299116  0.913000
0.215642  -0.299116  0.913000
0.217381  -0.299116  0.913000
0.219120  -0.299116  0.913000
0.220859  -0.299116  0.913000
0.222598  -0.299116  0.913000
-0.537168  -0.296901  0.901000
-0.535451  -0.296901  0.901000
-0.533735  -0.296901  0.901000
-0.534381  -0.298219  0.905000
-0.534423  -0.299208  0.908000
-0.532693  -0.299208  0.908000
-0.530964  -0.299208  0.908000
-0.529234  -0.299208  0.908000
-0.527505  -0.299208  0.908000
-0.521722  -0.296901  0.901000
-0.518274  -0.295912  0.898000
-0.516564  -0.295912  0.898000
-0.513707  -0.295253  0.896000
-0.510857  -0.294594  0.894000
-0.507446  -0.293606  0.891000
-0.505749  -0.293606  0.891000
-0.506880  -0.295253  0.896000
-0.502354  -0.293606  0.891000
-0.499533  -0.292947  0.889000
-0.497840  -0.292947  0.889000
-0.497263  -0.293606  0.891000
-0.497234  -0.294594  0.894000
-0.495531  -0.294594  0.894000
-0.493829  -0.294594  0.894000
-0.492126  -0.294594  0.894000
-0.490423  -0.294594  0.894000
-0.489813  -0.295253  0.896000
-0.488107  -0.295253  0.896000
-0.489114  -0.296901  0.901000
-0.485775  -0.295912  0.898000
-0.484065  -0.295912  0.898000
-0.483966  -0.296901  0.901000
-0.482250  -0.296901  0.901000
-0.480533  -0.296901  0.901000
-0.477223  -0.295912  0.898000
-0.474453  -0.295253  0.896000
-0.472747  -0.295253  0.896000
-0.471040  -0.295253  0.896000
-0.473000  -0.297560  0.903000
-0.470236  -0.296901  0.901000
-0.465920  -0.295253  0.896000
-0.464213  -0.295253  0.896000
-0.462507  -0.295253  0.896000
-0.461829  -0.295912  0.898000
-0.462680  -0.297560  0.903000
-0.458408  -0.295912  0.898000
-0.456697  -0.295912  0.898000
-0.456507  -0.296901  0.901000
-0.454790  -0.296901  0.901000
-0.454080  -0.297560  0.903000
-0.449855  -0.295912  0.898000
-0.448145  -0.295912  0.898000
-0.447926  -0.296901  0.901000
-0.447200  -0.297560  0.903000
-0.445480  -0.297560  0.903000
-0.443760  -0.297560  0.903000
-0.442040  -0.297560  0.903000
-0.440320  -0.297560  0.903000
-0.438600  -0.297560  0.903000
-0.437848  -0.298219  0.905000
-0.437570  -0.299208  0.908000
-0.435840  -0.299208  0.908000
-0.432676  -0.298219  0.905000
-0.430952  -0.298219  0.905000
-0.429229  -0.298219  0.905000
-0.426560  -0.297560  0.903000
-0.424840  -0.297560  0.903000
-0.424057  -0.298219  0.905000
-0.422333  -0.298219  0.905000
-0.419680  -0.297560  0.903000
-0.417960  -0.297560  0.903000
-0.413013  -0.295253  0.896000
-0.411307  -0.295253  0.896000
-0.411886  -0.296901  0.901000
-0.411080  -0.297560  0.903000
-0.409360  -0.297560  0.903000
-0.407640  -0.297560  0.903000
-0.405920  -0.297560  0.903000
-0.404200  -0.297560  0.903000
-0.402480  -0.297560  0.903000
-0.399872  -0.296901  0.901000
-0.398156  -0.296901  0.901000
-0.396440  -0.296901  0.901000
-0.393410  -0.295912  0.898000
-0.391699  -0.295912  0.898000
-0.389989  -0.295912  0.898000
-0.389575  -0.296901  0.901000
-0.387859  -0.296901  0.901000
-0.386143  -0.296901  0.901000
-0.385280  -0.297560  0.903000
-0.383560  -0.297560  0.903000
-0.383954  -0.299208  0.908000
-0.382225  -0.299208  0.908000
-0.380495  -0.299208  0.908000
-0.377514  -0.298219  0.905000
-0.375790  -0.298219  0.905000
-0.374067  -0.298219  0.905000
-0.371520  -0.297560  0.903000
-0.368981  -0.296901  0.901000
-0.367265  -0.296901  0.901000
-0.365549  -0.296901  0.901000
-0.363832  -0.296901  0.901000
-0.362116  -0.296901  0.901000
-0.360400  -0.296901  0.901000
-0.358684  -0.296901  0.901000
-0.357760  -0.297560  0.903000
-0.356040  -0.297560  0.903000
-0.354320  -0.297560  0.903000
-0.352600  -0.297560  0.903000
-0.350880  -0.297560  0.903000
-0.349160  -0.297560  0.903000
-0.347440  -0.297560  0.903000
-0.344954  -0.296901  0.901000
-0.342095  -0.295912  0.898000
-0.336215  -0.292288  0.887000
-0.334526  -0.292288  0.887000
-0.335463  -0.294594  0.894000
-0.336373  -0.296901  0.901000
-0.337257  -0.299208  0.908000
-0.336267  -0.299867  0.910000
-0.334533  -0.299867  0.910000
-0.332800  -0.299867  0.910000
-0.330339  -0.299208  0.908000
-0.328610  -0.299208  0.908000
-0.325800  -0.298219  0.905000
-0.319063  -0.293606  0.891000
-0.317366  -0.293606  0.891000
-0.319920  -0.297560  0.903000
-0.318200  -0.297560  0.903000
-0.317181  -0.298219  0.905000
-0.315457  -0.298219  0.905000
-0.316507  -0.300855  0.913000
-0.313733  -0.299867  0.910000
-0.308914  -0.296901  0.901000
-0.307198  -0.296901  0.901000
-0.304465  -0.295912  0.898000
-0.302754  -0.295912  0.898000
-0.301044  -0.295912  0.898000
-0.300333  -0.296901  0.901000
-0.298617  -0.296901  0.901000
-0.296901  -0.296901  0.901000
-0.295185  -0.296901  0.901000
-0.294120  -0.297560  0.903000
-0.292400  -0.297560  0.903000
-0.291324  -0.298219  0.905000
-0.291200  -0.299867  0.910000
-0.289467  -0.299867  0.910000
-0.287733  -0.299867  0.910000
-0.283800  -0.297560  0.903000
-0.282080  -0.297560  0.903000
-0.280981  -0.298219  0.905000
-0.279257  -0.298219  0.905000
-0.277533  -0.298219  0.905000
-0.275810  -0.298219  0.905000
-0.274086  -0.298219  0.905000
-0.272362  -0.298219  0.905000
-0.270638  -0.298219  0.905000
-0.264754  -0.293606  0.891000
-0.263057  -0.293606  0.891000
-0.261360  -0.293606  0.891000
-0.260537  -0.294594  0.894000
-0.258834  -0.294594  0.894000
-0.259720  -0.297560  0.903000
-0.258000  -0.297560  0.903000
-0.257699  -0.299208  0.908000
-0.255970  -0.299208  0.908000
-0.252840  -0.297560  0.903000
-0.251120  -0.297560  0.903000
-0.249400  -0.297560  0.903000
-0.248229  -0.298219  0.905000
-0.246505  -0.298219  0.905000
-0.245592  -0.299208  0.908000
-0.244400  -0.299867  0.910000
-0.243467  -0.300855  0.913000
-0.242257  -0.301514  0.915000
-0.186629  -0.233962  0.710000
-0.185276  -0.233962  0.710000
-0.183924  -0.233962  0.710000
-0.182057  -0.233303  0.708000
-0.180453  -0.232973  0.707000
-0.178600  -0.232314  0.705000
-0.177006  -0.231985  0.704000
-0.175415  -0.231655  0.703000
-0.174076  -0.231655  0.703000
-0.172246  -0.230996  0.701000
-0.170910  -0.230996  0.701000
-0.169575  -0.230996  0.701000
-0.168240  -0.230996  0.701000
-0.166905  -0.230996  0.701000
-0.165333  -0.230667  0.700000
-0.164000  -0.230667  0.700000
-0.162667  -0.230667  0.700000
-0.161333  -0.230667  0.700000
-0.160000  -0.230667  0.700000
-0.158213  -0.230008  0.698000
-0.156884  -0.230008  0.698000
-0.155554  -0.230008  0.698000
-0.154225  -0.230008  0.698000
-0.152895  -0.230008  0.698000
-0.152000  -0.230667  0.700000
-0.150667  -0.230667  0.700000
-0.149333  -0.230667  0.700000
-0.148000  -0.230667  0.700000
-0.146876  -0.230996  0.701000
-0.145541  -0.230996  0.701000
-0.144206  -0.230996  0.701000
-0.142870  -0.230996  0.701000
-0.141535  -0.230996  0.701000
-0.140200  -0.230996  0.701000
-0.138865  -0.230996  0.701000
-0.137922  -0.231655  0.703000
-0.136583  -0.231655  0.703000
-0.135244  -0.231655  0.703000
-0.134286  -0.232314  0.705000
-0.132943  -0.232314  0.705000
-0.131973  -0.232973  0.707000
-0.130811  -0.233303  0.708000
-0.129463  -0.233303  0.708000
-0.128476  -0.233962  0.710000
-0.127661  -0.234950  0.713000
-0.127011  -0.236269  0.717000
-0.125996  -0.236928  0.719000
-0.124800  -0.237257  0.720000
-0.123429  -0.237257  0.720000
-0.122057  -0.237257  0.720000
-0.121021  -0.237916  0.722000
-0.119646  -0.237916  0.722000
-0.122194  -0.293606  0.891000
-0.120497  -0.293606  0.891000
-0.118800  -0.293606  0.891000
-0.117103  -0.293606  0.891000
-0.115794  -0.294594  0.894000
-0.117027  -0.302173  0.917000
-0.113520  -0.297560  0.903000
-0.111800  -0.297560  0.903000
-0.110933  -0.299867  0.910000
-0.109200  -0.299867  0.910000
-0.107467  -0.299867  0.910000
-0.105733  -0.299867  0.910000
-0.104000  -0.299867  0.910000
-0.102042  -0.299208  0.908000
-0.100312  -0.299208  0.908000
-0.098583  -0.299208  0.908000
-0.096533  -0.298219  0.905000
-0.094600  -0.297560  0.903000
-0.092880  -0.297560  0.903000
-0.091160  -0.297560  0.903000
-0.089440  -0.297560  0.903000
-0.087914  -0.298219  0.905000
-0.086190  -0.298219  0.905000
-0.084747  -0.299208  0.908000
-0.083200  -0.299867  0.910000
-0.081467  -0.299867  0.910000
-0.079733  -0.299867  0.910000
-0.077829  -0.299208  0.908000
-0.076099  -0.299208  0.908000
-0.074370  -0.299208  0.908000
-0.071280  -0.293606  0.891000
-0.069583  -0.293606  0.891000
-0.067886  -0.293606  0.891000
-0.066411  -0.294594  0.894000
-0.064853  -0.295253  0.896000
-0.063147  -0.295253  0.896000
-0.061783  -0.296901  0.901000
-0.060067  -0.296901  0.901000
-0.058027  -0.295253  0.896000
-0.056446  -0.295912  0.898000
-0.055467  -0.299867  0.910000
-0.053733  -0.299867  0.910000
-0.052000  -0.299867  0.910000
-0.050432  -0.300855  0.913000
-0.048160  -0.297560  0.903000
-0.046440  -0.297560  0.903000
-0.044720  -0.297560  0.903000
-0.043238  -0.299208  0.908000
-0.041509  -0.299208  0.908000
-0.039779  -0.299208  0.908000
-0.038050  -0.299208  0.908000
-0.036400  -0.299867  0.910000
-0.034667  -0.299867  0.910000
-0.032933  -0.299867  0.910000
-0.031303  -0.300855  0.913000
-0.029467  -0.299867  0.910000
-0.027733  -0.299867  0.910000
-0.025943  -0.299208  0.908000
-0.024213  -0.299208  0.908000
-0.022484  -0.299208  0.908000
-0.020754  -0.299208  0.908000
-0.019025  -0.299208  0.908000
-0.017200  -0.297560  0.903000
-0.015480  -0.297560  0.903000
-0.011398  -0.246484  0.748000
-0.009973  -0.246484  0.748000
-0.008514  -0.245495  0.745000
-0.007095  -0.245495  0.745000
-0.005676  -0.245495  0.745000
-0.004246  -0.244836  0.743000
-0.002827  -0.244507  0.742000
-0.001402  -0.242530  0.736000
0.000000  -0.240882  0.731000
0.001392  -0.240882  0.731000
0.002773  -0.239893  0.728000
0.004160  -0.239893  0.728000
0.005547  -0.239893  0.728000
0.006933  -0.239893  0.728000
0.008320  -0.239893  0.728000
0.009680  -0.239234  0.726000
0.011063  -0.239234  0.726000
0.012429  -0.238905  0.725000
0.013810  -0.238905  0.725000
0.015149  -0.238246  0.723000
0.016526  -0.238246  0.723000
0.017903  -0.238246  0.723000
0.019253  -0.237916  0.722000
0.020629  -0.237916  0.722000
0.021943  -0.237257  0.720000
0.023314  -0.237257  0.720000
0.024686  -0.237257  0.720000
0.026057  -0.237257  0.720000
0.027390  -0.236928  0.719000
0.028760  -0.236928  0.719000
0.030130  -0.236928  0.719000
0.031499  -0.236928  0.719000
0.032869  -0.236928  0.719000
0.034238  -0.236928  0.719000
0.035608  -0.236928  0.719000
0.036977  -0.236928  0.719000
0.038347  -0.236928  0.719000
0.039771  -0.237257  0.720000
0.041143  -0.237257  0.720000
0.042514  -0.237257  0.720000
0.043886  -0.237257  0.720000
0.045383  -0.237916  0.722000
0.046758  -0.237916  0.722000
0.048133  -0.237916  0.722000
0.049509  -0.237916  0.722000
0.050954  -0.238246  0.723000
0.052331  -0.238246  0.723000
0.053709  -0.238246  0.723000
0.055086  -0.238246  0.723000
0.056619  -0.238905  0.725000
0.058000  -0.238905  0.725000
0.059381  -0.238905  0.725000
0.060846  -0.239234  0.726000
0.062400  -0.239893  0.728000
0.063874  -0.240223  0.729000
0.065442  -0.240882  0.731000
0.066926  -0.241211  0.732000
0.068507  -0.241870  0.734000
0.069905  -0.241870  0.734000
0.071497  -0.242530  0.736000
0.072998  -0.242859  0.737000
0.074402  -0.242859  0.737000
0.122796  -0.299208  0.908000
0.124526  -0.299208  0.908000
0.127229  -0.301514  0.915000
0.128971  -0.301514  0.915000
0.131000  -0.302173  0.917000
0.132747  -0.302173  0.917000
0.134493  -0.302173  0.917000
0.136240  -0.302173  0.917000
0.137987  -0.302173  0.917000
0.140495  -0.303821  0.922000
0.142251  -0.303821  0.922000
0.141821  -0.299208  0.908000
0.143550  -0.299208  0.908000
0.145280  -0.299208  0.908000
0.146524  -0.298219  0.905000
0.147920  -0.297560  0.903000
0.148811  -0.295912  0.898000
0.150522  -0.295912  0.898000
0.152741  -0.296901  0.901000
0.154457  -0.296901  0.901000
0.155653  -0.295912  0.898000
0.157364  -0.295912  0.898000
0.159606  -0.296901  0.901000
0.162038  -0.298219  0.905000
0.163762  -0.298219  0.905000
0.165486  -0.298219  0.905000
0.167210  -0.298219  0.905000
0.169493  -0.299208  0.908000
0.172166  -0.300855  0.913000
0.173905  -0.300855  0.913000
0.175644  -0.300855  0.913000
0.177383  -0.300855  0.913000
0.178141  -0.299208  0.908000
0.179870  -0.299208  0.908000
0.181600  -0.299208  0.908000
0.183330  -0.299208  0.908000
0.185059  -0.299208  0.908000
0.184320  -0.295253  0.896000
0.192463  -0.305469  0.927000
0.194229  -0.305469  0.927000
0.195571  -0.304810  0.925000
0.197333  -0.304810  0.925000
0.199095  -0.304810  0.925000
0.200857  -0.304810  0.925000
0.202619  -0.304810  0.925000
0.202171  -0.301514  0.915000
0.203914  -0.301514  0.915000
0.205657  -0.301514  0.915000
0.207400  -0.301514  0.915000
0.208000  -0.299867  0.910000
0.209272  -0.299208  0.908000
0.211002  -0.299208  0.908000
0.213200  -0.299867  0.910000
0.215642  -0.300855  0.913000
0.217381  -0.300855  0.913000
0.218400  -0.299867  0.910000
0.220133  -0.299867  0.910000
0.222598  -0.300855  0.913000
0.224829  -0.301514  0.915000
-0.530013  -0.294640  0.889000
-0.528320  -0.294640  0.889000
-0.526627  -0.294640  0.889000
-0.516667  -0.290000  0.875000
-0.515000  -0.290000  0.875000
-0.513333  -0.290000  0.875000
-0.511667  -0.290000  0.875000
-0.508834  -0.289337  0.873000
-0.507171  -0.289337  0.873000
-0.506667  -0.290000  0.875000
-0.505000  -0.290000  0.875000
-0.505059  -0.290994  0.878000
-0.508547  -0.293977  0.887000
-0.505143  -0.292983  0.884000
-0.503459  -0.292983  0.884000
-0.501775  -0.292983  0.884000
-0.501789  -0.293977  0.887000
-0.498408  -0.292983  0.884000
-0.496724  -0.292983  0.884000
-0.496720  -0.293977  0.887000
-0.495030  -0.293977  0.887000
-0.495566  -0.295303  0.891000
-0.492760  -0.294640  0.889000
-0.491067  -0.294640  0.889000
-0.490474  -0.295303  0.891000
-0.488777  -0.295303  0.891000
-0.487080  -0.295303  0.891000
-0.485383  -0.295303  0.891000
-0.485314  -0.296297  0.894000
-0.483611  -0.296297  0.894000
-0.481909  -0.296297  0.894000
-0.482354  -0.297623  0.898000
-0.480644  -0.297623  0.898000
-0.478933  -0.297623  0.898000
-0.477223  -0.297623  0.898000
-0.473394  -0.296297  0.894000
-0.471691  -0.296297  0.894000
-0.469989  -0.296297  0.894000
-0.468286  -0.296297  0.894000
-0.466583  -0.296297  0.894000
-0.461240  -0.293977  0.887000
-0.459550  -0.293977  0.887000
-0.459926  -0.295303  0.891000
-0.458229  -0.295303  0.891000
-0.452945  -0.292983  0.884000
-0.451261  -0.292983  0.884000
-0.449577  -0.292983  0.884000
-0.447893  -0.292983  0.884000
-0.451257  -0.296297  0.894000
-0.449554  -0.296297  0.894000
-0.448853  -0.296960  0.896000
-0.447147  -0.296960  0.896000
-0.445440  -0.296960  0.896000
-0.446210  -0.298617  0.901000
-0.444493  -0.298617  0.901000
-0.442777  -0.298617  0.901000
-0.441061  -0.298617  0.901000
-0.435931  -0.296297  0.894000
-0.434229  -0.296297  0.894000
-0.432526  -0.296297  0.894000
-0.430823  -0.296297  0.894000
-0.429120  -0.296297  0.894000
-0.428373  -0.296960  0.896000
-0.427619  -0.297623  0.898000
-0.424960  -0.296960  0.896000
-0.423253  -0.296960  0.896000
-0.423899  -0.298617  0.901000
-0.423120  -0.299280  0.903000
-0.420467  -0.298617  0.901000
-0.418750  -0.298617  0.901000
-0.415646  -0.297623  0.898000
-0.412091  -0.296297  0.894000
-0.410389  -0.296297  0.894000
-0.409600  -0.296960  0.896000
-0.407893  -0.296960  0.896000
-0.407093  -0.297623  0.898000
-0.404480  -0.296960  0.896000
-0.402773  -0.296960  0.896000
-0.401962  -0.297623  0.898000
-0.400251  -0.297623  0.898000
-0.398541  -0.297623  0.898000
-0.396830  -0.297623  0.898000
-0.395120  -0.297623  0.898000
-0.393410  -0.297623  0.898000
-0.391699  -0.297623  0.898000
-0.389989  -0.297623  0.898000
-0.388278  -0.297623  0.898000
-0.386568  -0.297623  0.898000
-0.386143  -0.298617  0.901000
-0.384427  -0.298617  0.901000
-0.383560  -0.299280  0.903000
-0.382686  -0.299943  0.905000
-0.380962  -0.299943  0.905000
-0.379238  -0.299943  0.905000
-0.377514  -0.299943  0.905000
-0.375790  -0.299943  0.905000
-0.373240  -0.299280  0.903000
-0.370697  -0.298617  0.901000
-0.368981  -0.298617  0.901000
-0.367265  -0.298617  0.901000
-0.365549  -0.298617  0.901000
-0.363832  -0.298617  0.901000
-0.362116  -0.298617  0.901000
-0.360400  -0.298617  0.901000
-0.358684  -0.298617  0.901000
-0.356968  -0.298617  0.901000
-0.355251  -0.298617  0.901000
-0.353535  -0.298617  0.901000
-0.351819  -0.298617  0.901000
-0.350103  -0.298617  0.901000
-0.347227  -0.297623  0.898000
-0.345516  -0.297623  0.898000
-0.343040  -0.296960  0.896000
-0.339429  -0.295303  0.891000
-0.337731  -0.295303  0.891000
-0.336034  -0.295303  0.891000
-0.334337  -0.295303  0.891000
-0.332640  -0.295303  0.891000
-0.332057  -0.296297  0.894000
-0.330354  -0.296297  0.894000
-0.327549  -0.295303  0.891000
-0.325851  -0.295303  0.891000
-0.324154  -0.295303  0.891000
-0.322457  -0.295303  0.891000
-0.320760  -0.295303  0.891000
-0.318347  -0.294640  0.889000
-0.316653  -0.294640  0.889000
-0.315669  -0.295303  0.891000
-0.315733  -0.296960  0.896000
-0.314728  -0.297623  0.898000
-0.307440  -0.292320  0.882000
-0.305760  -0.292320  0.882000
-0.308907  -0.296960  0.896000
-0.307200  -0.296960  0.896000
-0.304811  -0.296297  0.894000
-0.303109  -0.296297  0.894000
-0.302080  -0.296960  0.896000
-0.300373  -0.296960  0.896000
-0.299333  -0.297623  0.898000
-0.297623  -0.297623  0.898000
-0.296901  -0.298617  0.901000
-0.295185  -0.298617  0.901000
-0.293469  -0.298617  0.901000
-0.291752  -0.298617  0.901000
-0.290036  -0.298617  0.901000
-0.289600  -0.299943  0.905000
-0.287876  -0.299943  0.905000
-0.283939  -0.297623  0.898000
-0.282229  -0.297623  0.898000
-0.280518  -0.297623  0.898000
-0.279739  -0.298617  0.901000
-0.278023  -0.298617  0.901000
-0.276307  -0.298617  0.901000
-0.274590  -0.298617  0.901000
-0.274086  -0.299943  0.905000
-0.269653  -0.296960  0.896000
-0.266451  -0.295303  0.891000
-0.264754  -0.295303  0.891000
-0.263057  -0.295303  0.891000
-0.261360  -0.295303  0.891000
-0.259663  -0.295303  0.891000
-0.257966  -0.295303  0.891000
-0.257131  -0.296297  0.894000
-0.256571  -0.297623  0.898000
-0.252874  -0.295303  0.891000
-0.251177  -0.295303  0.891000
-0.251440  -0.297623  0.898000
-0.249730  -0.297623  0.898000
-0.248848  -0.298617  0.901000
-0.247131  -0.298617  0.901000
-0.245415  -0.298617  0.901000
-0.243699  -0.298617  0.901000
-0.242520  -0.299280  0.903000
-0.190400  -0.236640  0.714000
-0.188246  -0.235646  0.711000
-0.186629  -0.235314  0.710000
-0.185276  -0.235314  0.710000
-0.183924  -0.235314  0.710000
-0.182057  -0.234651  0.708000
-0.180453  -0.234320  0.707000
-0.178600  -0.233657  0.705000
-0.177006  -0.233326  0.704000
-0.175415  -0.232994  0.703000
-0.174076  -0.232994  0.703000
-0.172246  -0.232331  0.701000
-0.170910  -0.232331  0.701000
-0.169575  -0.232331  0.701000
-0.168240  -0.232331  0.701000
-0.166905  -0.232331  0.701000
-0.165570  -0.232331  0.701000
-0.164234  -0.232331  0.701000
-0.162667  -0.232000  0.700000
-0.161333  -0.232000  0.700000
-0.160000  -0.232000  0.700000
-0.158667  -0.232000  0.700000
-0.157333  -0.232000  0.700000
-0.155554  -0.231337  0.698000
-0.154225  -0.231337  0.698000
-0.152895  -0.231337  0.698000
-0.151566  -0.231337  0.698000
-0.150667  -0.232000  0.700000
-0.149333  -0.232000  0.700000
-0.148000  -0.232000  0.700000
-0.146876  -0.232331  0.701000
-0.145541  -0.232331  0.701000
-0.144206  -0.232331  0.701000
-0.142870  -0.232331  0.701000
-0.141535  -0.232331  0.701000
-0.140200  -0.232331  0.701000
-0.138865  -0.232331  0.701000
-0.137922  -0.232994  0.703000
-0.136583  -0.232994  0.703000
-0.135436  -0.233326  0.704000
-0.134286  -0.233657  0.705000
-0.133320  -0.234320  0.707000
-0.131973  -0.234320  0.707000
-0.130811  -0.234651  0.708000
-0.129463  -0.234651  0.708000
-0.128476  -0.235314  0.710000
-0.127661  -0.236309  0.713000
-0.126834  -0.237303  0.716000
-0.125646  -0.237634  0.717000
-0.124627  -0.238297  0.719000
-0.123429  -0.238629  0.720000
-0.122396  -0.239291  0.722000
-0.121021  -0.239291  0.722000
-0.126011  -0.296297  0.894000
-0.123891  -0.295303  0.891000
-0.122194  -0.295303  0.891000
-0.120497  -0.295303  0.891000
-0.118533  -0.294640  0.889000
-0.116840  -0.294640  0.889000
-0.115406  -0.295303  0.891000
-0.113709  -0.295303  0.891000
-0.112389  -0.296297  0.894000
-0.111181  -0.297623  0.898000
-0.109836  -0.298617  0.901000
-0.108120  -0.298617  0.901000
-0.106640  -0.299280  0.903000
-0.104920  -0.299280  0.903000
-0.102971  -0.298617  0.901000
-0.101255  -0.298617  0.901000
-0.099539  -0.298617  0.901000
-0.097823  -0.298617  0.901000
-0.096107  -0.298617  0.901000
-0.094600  -0.299280  0.903000
-0.092880  -0.299280  0.903000
-0.091160  -0.299280  0.903000
-0.089440  -0.299280  0.903000
-0.087914  -0.299943  0.905000
-0.086190  -0.299943  0.905000
-0.084747  -0.300937  0.908000
-0.083017  -0.300937  0.908000
-0.081288  -0.300937  0.908000
-0.079558  -0.300937  0.908000
-0.077571  -0.299943  0.905000
-0.075848  -0.299943  0.905000
-0.072813  -0.294640  0.889000
-0.071120  -0.294640  0.889000
-0.069427  -0.294640  0.889000
-0.067886  -0.295303  0.891000
-0.066411  -0.296297  0.894000
-0.064853  -0.296960  0.896000
-0.063288  -0.297623  0.898000
-0.061303  -0.296297  0.894000
-0.059600  -0.296297  0.894000
-0.057897  -0.296297  0.894000
-0.056194  -0.296297  0.894000
-0.054491  -0.296297  0.894000
-0.052789  -0.296297  0.894000
-0.051314  -0.297623  0.898000
-0.049604  -0.297623  0.898000
-0.047893  -0.297623  0.898000
-0.046183  -0.297623  0.898000
-0.044621  -0.298617  0.901000
-0.042905  -0.298617  0.901000
-0.041189  -0.298617  0.901000
-0.039648  -0.299943  0.905000
-0.037924  -0.299943  0.905000
-0.036320  -0.300937  0.908000
