# .PCD v.5 - Point Cloud Data file format
FIELDS x y z 
SIZE 4 4 4 
TYPE F F F 
COUNT 1 1 1 
WIDTH 1721
HEIGHT 1
POINTS 1721
DATA ascii
0.159044 0.118804 1.006000
0.160480 0.118450 1.003000
0.162390 0.118450 1.003000
-0.563400 0.113400 0.945000
-0.561600 0.113400 0.945000
-0.558023 0.113040 0.942000
-0.555048 0.112800 0.940000
-0.553257 0.112800 0.940000
-0.551467 0.112800 0.940000
-0.549676 0.112800 0.940000
-0.546137 0.112440 0.937000
-0.544352 0.112440 0.937000
-0.542568 0.112440 0.937000
-0.540783 0.112440 0.937000
-0.540724 0.112800 0.940000
-0.538933 0.112800 0.940000
-0.535429 0.112440 0.937000
-0.533644 0.112440 0.937000
-0.531859 0.112440 0.937000
-0.531771 0.112800 0.940000
-0.529981 0.112800 0.940000
-0.526505 0.112440 0.937000
-0.524720 0.112440 0.937000
-0.524610 0.112800 0.940000
-0.523931 0.113040 0.942000
-0.523800 0.113400 0.945000
-0.523657 0.113760 0.948000
-0.520200 0.113400 0.945000
-0.518400 0.113400 0.945000
-0.518240 0.113760 0.948000
-0.516434 0.113760 0.948000
-0.514629 0.113760 0.948000
-0.511200 0.113400 0.945000
-0.509400 0.113400 0.945000
-0.507600 0.113400 0.945000
-0.507406 0.113760 0.948000
-0.505600 0.113760 0.948000
-0.503794 0.113760 0.948000
-0.501989 0.113760 0.948000
-0.501238 0.114000 0.950000
-0.499429 0.114000 0.950000
-0.499190 0.114360 0.953000
-0.497375 0.114360 0.953000
-0.495560 0.114360 0.953000
-0.493745 0.114360 0.953000
-0.492962 0.114600 0.955000
-0.490114 0.114360 0.953000
-0.486762 0.114000 0.950000
-0.484952 0.114000 0.950000
-0.483143 0.114000 0.950000
-0.453973 0.107520 0.896000
-0.451257 0.107280 0.894000
-0.449554 0.107280 0.894000
-0.447851 0.107280 0.894000
-0.444651 0.106920 0.891000
-0.442954 0.106920 0.891000
-0.439276 0.106440 0.887000
-0.437587 0.106440 0.887000
-0.434423 0.106080 0.884000
-0.430781 0.105600 0.880000
-0.428130 0.105360 0.878000
-0.426457 0.105360 0.878000
-0.424785 0.105360 0.878000
-0.420703 0.104760 0.873000
-0.418080 0.104520 0.871000
-0.415465 0.104280 0.869000
-0.413810 0.104280 0.869000
-0.411206 0.104040 0.867000
-0.409554 0.104040 0.867000
-0.406962 0.103800 0.865000
-0.403909 0.103440 0.862000
-0.401333 0.103200 0.860000
-0.399695 0.103200 0.860000
-0.397131 0.102960 0.858000
-0.394575 0.102720 0.856000
-0.392027 0.102480 0.854000
-0.389486 0.102240 0.852000
-0.386952 0.102000 0.850000
-0.384427 0.101760 0.848000
-0.382811 0.101760 0.848000
-0.379848 0.101400 0.845000
-0.377343 0.101160 0.843000
-0.374846 0.100920 0.841000
-0.372356 0.100680 0.839000
-0.369874 0.100440 0.837000
-0.367400 0.100200 0.835000
-0.364933 0.099960 0.833000
-0.362474 0.099720 0.831000
-0.360891 0.099720 0.831000
-0.358444 0.099480 0.829000
-0.356865 0.099480 0.829000
-0.355286 0.099480 0.829000
-0.352853 0.099240 0.827000
-0.351278 0.099240 0.827000
-0.348857 0.099000 0.825000
-0.346444 0.098760 0.823000
-0.344038 0.098520 0.821000
-0.341640 0.098280 0.819000
-0.340080 0.098280 0.819000
-0.337693 0.098040 0.817000
-0.336137 0.098040 0.817000
-0.334581 0.098040 0.817000
-0.333025 0.098040 0.817000
-0.331469 0.098040 0.817000
-0.329912 0.098040 0.817000
-0.329160 0.098280 0.819000
-0.327600 0.098280 0.819000
-0.326040 0.098280 0.819000
-0.325272 0.098520 0.821000
-0.323709 0.098520 0.821000
-0.322145 0.098520 0.821000
-0.321362 0.098760 0.823000
-0.320571 0.099000 0.825000
-0.319000 0.099000 0.825000
-0.318198 0.099240 0.827000
-0.317389 0.099480 0.829000
-0.315810 0.099480 0.829000
-0.314989 0.099720 0.831000
-0.314160 0.099960 0.833000
-0.313324 0.100200 0.835000
-0.312480 0.100440 0.837000
-0.310886 0.100440 0.837000
-0.310030 0.100680 0.839000
-0.309168 0.100920 0.841000
-0.307566 0.100920 0.841000
-0.306691 0.101160 0.843000
-0.305810 0.101400 0.845000
-0.304200 0.101400 0.845000
-0.303665 0.101760 0.848000
-0.302762 0.102000 0.850000
-0.301143 0.102000 0.850000
-0.300229 0.102240 0.852000
-0.298606 0.102240 0.852000
-0.297680 0.102480 0.854000
-0.296747 0.102720 0.856000
-0.295806 0.102960 0.858000
-0.294857 0.103200 0.860000
-0.293901 0.103440 0.862000
-0.292259 0.103440 0.862000
-0.291629 0.103800 0.865000
-0.290651 0.104040 0.867000
-0.289667 0.104280 0.869000
-0.288011 0.104280 0.869000
-0.286356 0.104280 0.869000
-0.285356 0.104520 0.871000
-0.283697 0.104520 0.871000
-0.282038 0.104520 0.871000
-0.280379 0.104520 0.871000
-0.311733 0.117600 0.980000
-0.309867 0.117600 0.980000
-0.303600 0.115920 0.966000
-0.301760 0.115920 0.966000
-0.299920 0.115920 0.966000
-0.298080 0.115920 0.966000
-0.296240 0.115920 0.966000
-0.294400 0.115920 0.966000
-0.292560 0.115920 0.966000
-0.291623 0.116280 0.969000
-0.289777 0.116280 0.969000
-0.287931 0.116280 0.969000
-0.286086 0.116280 0.969000
-0.284240 0.116280 0.969000
-0.281520 0.115920 0.966000
-0.279680 0.115920 0.966000
-0.277840 0.115920 0.966000
-0.276857 0.116280 0.969000
-0.276430 0.116880 0.974000
-0.274011 0.116640 0.972000
-0.272160 0.116640 0.972000
-0.271699 0.117240 0.977000
-0.269838 0.117240 0.977000
-0.268800 0.117600 0.980000
-0.266116 0.117240 0.977000
-0.264255 0.117240 0.977000
-0.263200 0.117600 0.980000
-0.260533 0.117240 0.977000
-0.258672 0.117240 0.977000
-0.257600 0.117600 0.980000
-0.254950 0.117240 0.977000
-0.253090 0.117240 0.977000
-0.251229 0.117240 0.977000
-0.249368 0.117240 0.977000
-0.246747 0.116880 0.974000
-0.244891 0.116880 0.974000
-0.242537 0.116640 0.972000
-0.240686 0.116640 0.972000
-0.238834 0.116640 0.972000
-0.236983 0.116640 0.972000
-0.235615 0.116880 0.974000
-0.234480 0.117240 0.977000
-0.232619 0.117240 0.977000
-0.230758 0.117240 0.977000
-0.228897 0.117240 0.977000
-0.227036 0.117240 0.977000
-0.225175 0.117240 0.977000
-0.223314 0.117240 0.977000
-0.220773 0.116880 0.974000
-0.218918 0.116880 0.974000
-0.217731 0.117240 0.977000
-0.215870 0.117240 0.977000
-0.214010 0.117240 0.977000
-0.212149 0.117240 0.977000
-0.210288 0.117240 0.977000
-0.208427 0.117240 0.977000
-0.206566 0.117240 0.977000
-0.204705 0.117240 0.977000
-0.202844 0.117240 0.977000
-0.200983 0.117240 0.977000
-0.199122 0.117240 0.977000
-0.197261 0.117240 0.977000
-0.195400 0.117240 0.977000
-0.193539 0.117240 0.977000
-0.191678 0.117240 0.977000
-0.189817 0.117240 0.977000
-0.187956 0.117240 0.977000
-0.186095 0.117240 0.977000
-0.184234 0.117240 0.977000
-0.182933 0.117600 0.980000
-0.181067 0.117600 0.980000
-0.179200 0.117600 0.980000
-0.177333 0.117600 0.980000
-0.176004 0.117960 0.983000
-0.173600 0.117600 0.980000
-0.171733 0.117600 0.980000
-0.169867 0.117600 0.980000
-0.168000 0.117600 0.980000
-0.166642 0.117960 0.983000
-0.164267 0.117600 0.980000
-0.162400 0.117600 0.980000
-0.160533 0.117600 0.980000
-0.158667 0.117600 0.980000
-0.156800 0.117600 0.980000
-0.155408 0.117960 0.983000
-0.153535 0.117960 0.983000
-0.151663 0.117960 0.983000
-0.149790 0.117960 0.983000
-0.148219 0.118200 0.985000
-0.146343 0.118200 0.985000
-0.144467 0.118200 0.985000
-0.143025 0.118560 0.988000
-0.141143 0.118560 0.988000
-0.139261 0.118560 0.988000
-0.136962 0.118200 0.985000
-0.134811 0.117960 0.983000
-0.132533 0.117600 0.980000
-0.130667 0.117600 0.980000
-0.128406 0.117240 0.977000
-0.126545 0.117240 0.977000
-0.124684 0.117240 0.977000
-0.122823 0.117240 0.977000
-0.121333 0.117600 0.980000
-0.119467 0.117600 0.980000
-0.117600 0.117600 0.980000
-0.115733 0.117600 0.980000
-0.113867 0.117600 0.980000
-0.112000 0.117600 0.980000
-0.110470 0.117960 0.983000
-0.108598 0.117960 0.983000
-0.106726 0.117960 0.983000
-0.104853 0.117960 0.983000
-0.102352 0.117240 0.977000
-0.100491 0.117240 0.977000
-0.098630 0.117240 0.977000
-0.096770 0.117240 0.977000
-0.095200 0.117600 0.980000
-0.093619 0.117960 0.983000
-0.091747 0.117960 0.983000
-0.089874 0.117960 0.983000
-0.088181 0.118200 0.985000
-0.086305 0.118200 0.985000
-0.084429 0.118200 0.985000
-0.082804 0.118560 0.988000
-0.080676 0.118200 0.985000
-0.078800 0.118200 0.985000
-0.076924 0.118200 0.985000
-0.075048 0.118200 0.985000
-0.073171 0.118200 0.985000
-0.071295 0.118200 0.985000
-0.069419 0.118200 0.985000
-0.067406 0.117960 0.983000
-0.065533 0.117960 0.983000
-0.063661 0.117960 0.983000
-0.061789 0.117960 0.983000
-0.060038 0.118200 0.985000
-0.058162 0.118200 0.985000
-0.056286 0.118200 0.985000
-0.054410 0.118200 0.985000
-0.052533 0.118200 0.985000
-0.050657 0.118200 0.985000
-0.048930 0.118560 0.988000
-0.047048 0.118560 0.988000
-0.045166 0.118560 0.988000
-0.043284 0.118560 0.988000
-0.041528 0.118920 0.991000
-0.039520 0.118560 0.988000
-0.037638 0.118560 0.988000
-0.035648 0.118200 0.985000
-0.033771 0.118200 0.985000
-0.031895 0.118200 0.985000
-0.030110 0.118560 0.988000
-0.028229 0.118560 0.988000
-0.026347 0.118560 0.988000
-0.024465 0.118560 0.988000
-0.022651 0.118920 0.991000
-0.020764 0.118920 0.991000
-0.018876 0.118920 0.991000
-0.016989 0.118920 0.991000
-0.015147 0.119280 0.994000
-0.013253 0.119280 0.994000
-0.011360 0.119280 0.994000
-0.009467 0.119280 0.994000
-0.007573 0.119280 0.994000
-0.005680 0.119280 0.994000
-0.003798 0.119640 0.997000
-0.001899 0.119640 0.997000
0.000000 0.119280 0.994000
0.001893 0.119280 0.994000
0.003775 0.118920 0.991000
0.005663 0.118920 0.991000
0.007550 0.118920 0.991000
0.009438 0.118920 0.991000
0.011326 0.118920 0.991000
0.013213 0.118920 0.991000
0.015101 0.118920 0.991000
0.016989 0.118920 0.991000
0.018876 0.118920 0.991000
0.020764 0.118920 0.991000
0.022651 0.118920 0.991000
0.024613 0.119280 0.994000
0.026587 0.119640 0.997000
0.028486 0.119640 0.997000
0.030476 0.120000 1.000000
0.032478 0.120360 1.003000
0.034491 0.120720 1.006000
0.036408 0.120720 1.006000
0.034133 0.107520 0.896000
0.035840 0.107520 0.896000
0.037547 0.107520 0.896000
0.039341 0.107760 0.898000
0.040869 0.107280 0.894000
0.042571 0.107280 0.894000
0.044126 0.106920 0.891000
0.045823 0.106920 0.891000
0.047520 0.106920 0.891000
0.049217 0.106920 0.891000
0.050914 0.106920 0.891000
0.052789 0.107280 0.894000
0.054187 0.106680 0.889000
0.055566 0.106080 0.884000
0.057250 0.106080 0.884000
0.058800 0.105840 0.882000
0.060480 0.105840 0.882000
0.062019 0.105600 0.880000
0.063695 0.105600 0.880000
0.065371 0.105600 0.880000
0.066895 0.105360 0.878000
0.068333 0.105000 0.875000
0.069840 0.104760 0.873000
0.071503 0.104760 0.873000
0.073166 0.104760 0.873000
0.074829 0.104760 0.873000
0.076491 0.104760 0.873000
0.078154 0.104760 0.873000
0.079817 0.104760 0.873000
0.081667 0.105000 0.875000
0.083333 0.105000 0.875000
0.085000 0.105000 0.875000
0.086964 0.105360 0.878000
0.088636 0.105360 0.878000
0.090309 0.105360 0.878000
0.091981 0.105360 0.878000
0.093867 0.105600 0.880000
0.095543 0.105600 0.880000
0.097440 0.105840 0.882000
0.099345 0.106080 0.884000
0.101029 0.106080 0.884000
0.103061 0.106440 0.887000
0.104987 0.106680 0.889000
0.106920 0.106920 0.891000
0.131429 0.120000 1.000000
0.133333 0.120000 1.000000
0.135238 0.120000 1.000000
0.137554 0.120360 1.003000
0.139465 0.120360 1.003000
0.141375 0.120360 1.003000
0.142857 0.120000 1.000000
0.144762 0.120000 1.000000
0.146667 0.120000 1.000000
0.148571 0.120000 1.000000
0.150025 0.119640 0.997000
0.151924 0.119640 0.997000
0.153823 0.119640 0.997000
0.156190 0.120000 1.000000
0.158095 0.120000 1.000000
0.159520 0.119640 0.997000
0.161419 0.119640 0.997000
-0.560419 0.114590 0.940000
-0.558629 0.114590 0.940000
-0.555061 0.114225 0.937000
-0.553276 0.114225 0.937000
-0.551491 0.114225 0.937000
-0.548533 0.113981 0.935000
-0.546752 0.113981 0.935000
-0.544971 0.113981 0.935000
-0.543190 0.113981 0.935000
-0.541410 0.113981 0.935000
-0.539629 0.113981 0.935000
-0.537848 0.113981 0.935000
-0.536067 0.113981 0.935000
-0.534286 0.113981 0.935000
-0.532505 0.113981 0.935000
-0.530724 0.113981 0.935000
-0.530074 0.114225 0.937000
-0.527162 0.113981 0.935000
-0.525381 0.113981 0.935000
-0.523600 0.113981 0.935000
-0.521819 0.113981 0.935000
-0.520038 0.113981 0.935000
-0.519366 0.114225 0.937000
-0.517581 0.114225 0.937000
-0.517448 0.114590 0.940000
-0.515657 0.114590 0.940000
-0.514960 0.114834 0.942000
-0.514800 0.115200 0.945000
-0.511371 0.114834 0.942000
-0.509577 0.114834 0.942000
-0.507783 0.114834 0.942000
-0.505989 0.114834 0.942000
-0.505800 0.115200 0.945000
-0.504000 0.115200 0.945000
-0.500606 0.114834 0.942000
-0.498811 0.114834 0.942000
-0.498600 0.115200 0.945000
-0.498377 0.115566 0.948000
-0.497619 0.115810 0.950000
-0.495810 0.115810 0.950000
-0.494000 0.115810 0.950000
-0.493745 0.116175 0.953000
-0.491930 0.116175 0.953000
-0.488571 0.115810 0.950000
-0.484200 0.115200 0.945000
-0.482400 0.115200 0.945000
-0.480600 0.115200 0.945000
-0.480320 0.115566 0.948000
-0.452267 0.109227 0.896000
-0.450560 0.109227 0.896000
-0.447851 0.108983 0.894000
-0.446149 0.108983 0.894000
-0.444446 0.108983 0.894000
-0.440267 0.108373 0.889000
-0.437587 0.108130 0.887000
-0.434423 0.107764 0.884000
-0.430781 0.107276 0.880000
-0.428130 0.107032 0.878000
-0.426457 0.107032 0.878000
-0.424785 0.107032 0.878000
-0.421667 0.106667 0.875000
-0.419040 0.106423 0.873000
-0.417377 0.106423 0.873000
-0.414762 0.106179 0.871000
-0.412154 0.105935 0.869000
-0.409554 0.105691 0.867000
-0.406962 0.105448 0.865000
-0.403909 0.105082 0.862000
-0.402267 0.105082 0.862000
-0.399695 0.104838 0.860000
-0.397131 0.104594 0.858000
-0.394575 0.104350 0.856000
-0.392027 0.104107 0.854000
-0.389486 0.103863 0.852000
-0.386952 0.103619 0.850000
-0.384427 0.103375 0.848000
-0.382811 0.103375 0.848000
-0.379848 0.103010 0.845000
-0.377343 0.102766 0.843000
-0.374846 0.102522 0.841000
-0.373244 0.102522 0.841000
-0.369874 0.102034 0.837000
-0.367400 0.101790 0.835000
-0.365810 0.101790 0.835000
-0.363347 0.101547 0.833000
-0.360891 0.101303 0.831000
-0.359309 0.101303 0.831000
-0.356865 0.101059 0.829000
-0.355286 0.101059 0.829000
-0.353707 0.101059 0.829000
-0.351278 0.100815 0.827000
-0.349703 0.100815 0.827000
-0.347286 0.100571 0.825000
-0.344876 0.100328 0.823000
-0.342474 0.100084 0.821000
-0.340080 0.099840 0.819000
-0.338520 0.099840 0.819000
-0.336137 0.099596 0.817000
-0.334581 0.099596 0.817000
-0.333025 0.099596 0.817000
-0.331469 0.099596 0.817000
-0.330720 0.099840 0.819000
-0.329160 0.099840 0.819000
-0.327600 0.099840 0.819000
-0.326040 0.099840 0.819000
-0.325272 0.100084 0.821000
-0.323709 0.100084 0.821000
-0.322930 0.100328 0.823000
-0.321362 0.100328 0.823000
-0.320571 0.100571 0.825000
-0.319000 0.100571 0.825000
-0.318198 0.100815 0.827000
-0.317389 0.101059 0.829000
-0.316571 0.101303 0.831000
-0.315747 0.101547 0.833000
-0.314160 0.101547 0.833000
-0.313324 0.101790 0.835000
-0.312480 0.102034 0.837000
-0.310886 0.102034 0.837000
-0.310030 0.102278 0.839000
-0.309168 0.102522 0.841000
-0.307566 0.102522 0.841000
-0.306691 0.102766 0.843000
-0.305810 0.103010 0.845000
-0.304200 0.103010 0.845000
-0.303665 0.103375 0.848000
-0.302762 0.103619 0.850000
-0.301851 0.103863 0.852000
-0.300229 0.103863 0.852000
-0.298606 0.103863 0.852000
-0.297680 0.104107 0.854000
-0.296747 0.104350 0.856000
-0.295806 0.104594 0.858000
-0.295543 0.105082 0.862000
-0.293901 0.105082 0.862000
-0.292259 0.105082 0.862000
-0.291629 0.105448 0.865000
-0.290651 0.105691 0.867000
-0.289667 0.105935 0.869000
-0.288011 0.105935 0.869000
-0.287015 0.106179 0.871000
-0.285356 0.106179 0.871000
-0.283697 0.106179 0.871000
-0.282038 0.106179 0.871000
-0.280379 0.106179 0.871000
-0.306326 0.117394 0.963000
-0.304491 0.117394 0.963000
-0.302029 0.117150 0.961000
-0.300198 0.117150 0.961000
-0.298368 0.117150 0.961000
-0.295611 0.116785 0.958000
-0.293787 0.116785 0.958000
-0.292876 0.117150 0.961000
-0.291046 0.117150 0.961000
-0.289817 0.117394 0.963000
-0.287983 0.117394 0.963000
-0.287040 0.117760 0.966000
-0.284314 0.117394 0.963000
-0.282480 0.117394 0.963000
-0.280646 0.117394 0.963000
-0.278232 0.117150 0.961000
-0.276402 0.117150 0.961000
-0.275143 0.117394 0.963000
-0.274160 0.117760 0.966000
-0.272320 0.117760 0.966000
-0.270480 0.117760 0.966000
-0.270309 0.118491 0.972000
-0.268457 0.118491 0.972000
-0.267154 0.118735 0.974000
-0.265299 0.118735 0.974000
-0.263444 0.118735 0.974000
-0.261589 0.118735 0.974000
-0.259733 0.118735 0.974000
-0.257878 0.118735 0.974000
-0.256023 0.118735 0.974000
-0.253646 0.118491 0.972000
-0.251794 0.118491 0.972000
-0.249943 0.118491 0.972000
-0.248091 0.118491 0.972000
-0.245480 0.118126 0.969000
-0.243634 0.118126 0.969000
-0.241789 0.118126 0.969000
-0.239943 0.118126 0.969000
-0.238097 0.118126 0.969000
-0.236251 0.118126 0.969000
-0.235131 0.118491 0.972000
-0.233280 0.118491 0.972000
-0.231429 0.118491 0.972000
-0.229577 0.118491 0.972000
-0.227726 0.118491 0.972000
-0.226339 0.118735 0.974000
-0.224484 0.118735 0.974000
-0.222629 0.118735 0.974000
-0.220320 0.118491 0.972000
-0.218469 0.118491 0.972000
-0.216617 0.118491 0.972000
-0.214766 0.118491 0.972000
-0.213352 0.118735 0.974000
-0.211063 0.118491 0.972000
-0.209211 0.118491 0.972000
-0.207787 0.118735 0.974000
-0.205931 0.118735 0.974000
-0.204076 0.118735 0.974000
-0.202221 0.118735 0.974000
-0.199954 0.118491 0.972000
-0.198103 0.118491 0.972000
-0.196251 0.118491 0.972000
-0.194400 0.118491 0.972000
-0.192549 0.118491 0.972000
-0.190697 0.118491 0.972000
-0.188846 0.118491 0.972000
-0.186994 0.118491 0.972000
-0.184571 0.118126 0.969000
-0.182726 0.118126 0.969000
-0.181440 0.118491 0.972000
-0.179589 0.118491 0.972000
-0.177737 0.118491 0.972000
-0.175886 0.118491 0.972000
-0.174034 0.118491 0.972000
-0.172537 0.118735 0.974000
-0.170682 0.118735 0.974000
-0.168827 0.118735 0.974000
-0.166971 0.118735 0.974000
-0.165625 0.119101 0.977000
-0.163764 0.119101 0.977000
-0.161406 0.118735 0.974000
-0.159223 0.118491 0.972000
-0.157371 0.118491 0.972000
-0.155840 0.118735 0.974000
-0.154459 0.119101 0.977000
-0.152598 0.119101 0.977000
-0.150737 0.119101 0.977000
-0.148876 0.119101 0.977000
-0.147467 0.119467 0.980000
-0.146046 0.119832 0.983000
-0.144467 0.120076 0.985000
-0.142590 0.120076 0.985000
-0.140429 0.119832 0.983000
-0.138556 0.119832 0.983000
-0.135850 0.119101 0.977000
-0.133577 0.118735 0.974000
-0.131722 0.118735 0.974000
-0.129867 0.118735 0.974000
-0.128011 0.118735 0.974000
-0.126545 0.119101 0.977000
-0.124684 0.119101 0.977000
-0.122823 0.119101 0.977000
-0.120962 0.119101 0.977000
-0.119101 0.119101 0.977000
-0.117240 0.119101 0.977000
-0.115379 0.119101 0.977000
-0.113518 0.119101 0.977000
-0.111657 0.119101 0.977000
-0.110133 0.119467 0.980000
-0.108267 0.119467 0.980000
-0.106400 0.119467 0.980000
-0.104533 0.119467 0.980000
-0.102352 0.119101 0.977000
-0.100491 0.119101 0.977000
-0.098630 0.119101 0.977000
-0.096770 0.119101 0.977000
-0.094909 0.119101 0.977000
-0.093048 0.119101 0.977000
-0.091187 0.119101 0.977000
-0.089326 0.119101 0.977000
-0.087733 0.119467 0.980000
-0.085867 0.119467 0.980000
-0.084000 0.119467 0.980000
-0.082133 0.119467 0.980000
-0.079775 0.118735 0.974000
-0.077920 0.118735 0.974000
-0.076533 0.119467 0.980000
-0.074438 0.119101 0.977000
-0.072577 0.119101 0.977000
-0.070716 0.119101 0.977000
-0.069067 0.119467 0.980000
-0.067200 0.119467 0.980000
-0.065333 0.119467 0.980000
-0.063467 0.119467 0.980000
-0.061600 0.119467 0.980000
-0.059733 0.119467 0.980000
-0.058044 0.119832 0.983000
-0.056000 0.119467 0.980000
-0.054133 0.119467 0.980000
-0.052427 0.119832 0.983000
-0.050554 0.119832 0.983000
-0.048682 0.119832 0.983000
-0.046905 0.120076 0.985000
-0.044800 0.119467 0.980000
-0.042933 0.119467 0.980000
-0.041067 0.119467 0.980000
-0.039200 0.119467 0.980000
-0.037333 0.119467 0.980000
-0.035467 0.119467 0.980000
-0.033600 0.119467 0.980000
-0.031830 0.119832 0.983000
-0.029958 0.119832 0.983000
-0.028143 0.120076 0.985000
-0.026267 0.120076 0.985000
-0.024390 0.120076 0.985000
-0.022514 0.120076 0.985000
-0.020701 0.120442 0.988000
-0.018819 0.120442 0.988000
-0.016937 0.120442 0.988000
-0.015055 0.120442 0.988000
-0.013173 0.120442 0.988000
-0.011291 0.120442 0.988000
-0.009410 0.120442 0.988000
-0.007505 0.120076 0.985000
-0.005629 0.120076 0.985000
-0.003764 0.120442 0.988000
-0.001876 0.120076 0.985000
0.000000 0.120076 0.985000
0.001876 0.120076 0.985000
0.003752 0.120076 0.985000
0.005629 0.120076 0.985000
0.007505 0.120076 0.985000
0.009381 0.120076 0.985000
0.011291 0.120442 0.988000
0.013173 0.120442 0.988000
0.015055 0.120442 0.988000
0.016937 0.120442 0.988000
0.018819 0.120442 0.988000
0.020701 0.120442 0.988000
0.022583 0.120442 0.988000
0.024539 0.120808 0.991000
0.026507 0.121173 0.994000
0.028400 0.121173 0.994000
0.030385 0.121539 0.997000
0.032381 0.121905 1.000000
0.034286 0.121905 1.000000
0.036299 0.122270 1.003000
0.034133 0.109227 0.896000
0.035840 0.109227 0.896000
0.037463 0.108983 0.894000
0.039166 0.108983 0.894000
0.040731 0.108617 0.891000
0.042429 0.108617 0.891000
0.044027 0.108373 0.889000
0.045617 0.108130 0.887000
0.047147 0.107764 0.884000
0.048830 0.107764 0.884000
0.050514 0.107764 0.884000
0.052198 0.107764 0.884000
0.053882 0.107764 0.884000
0.055566 0.107764 0.884000
0.057250 0.107764 0.884000
0.058800 0.107520 0.882000
0.060480 0.107520 0.882000
0.062019 0.107276 0.880000
0.063695 0.107276 0.880000
0.065371 0.107276 0.880000
0.066895 0.107032 0.878000
0.068333 0.106667 0.875000
0.070000 0.106667 0.875000
0.071667 0.106667 0.875000
0.073166 0.106423 0.873000
0.074829 0.106423 0.873000
0.076491 0.106423 0.873000
0.078154 0.106423 0.873000
0.079817 0.106423 0.873000
0.081667 0.106667 0.875000
0.083619 0.107032 0.878000
0.085291 0.107032 0.878000
0.086964 0.107032 0.878000
0.088636 0.107032 0.878000
0.090514 0.107276 0.880000
0.092190 0.107276 0.880000
0.093867 0.107276 0.880000
0.095760 0.107520 0.882000
0.097440 0.107520 0.882000
0.099345 0.107764 0.884000
0.101371 0.108130 0.887000
0.103293 0.108373 0.889000
0.104987 0.108373 0.889000
0.106920 0.108617 0.891000
0.130246 0.120808 0.991000
0.132133 0.120808 0.991000
0.134427 0.121173 0.994000
0.136731 0.121539 0.997000
0.138630 0.121539 0.997000
0.140530 0.121539 0.997000
0.142429 0.121539 0.997000
0.144328 0.121539 0.997000
0.146227 0.121539 0.997000
0.148126 0.121539 0.997000
0.149573 0.121173 0.994000
0.151467 0.121173 0.994000
0.153360 0.121173 0.994000
0.154785 0.120808 0.991000
0.156672 0.120808 0.991000
0.158560 0.120808 0.991000
0.160448 0.120808 0.991000
-0.557438 0.115762 0.935000
-0.555657 0.115762 0.935000
-0.552099 0.115390 0.932000
-0.550324 0.115390 0.932000
-0.548549 0.115390 0.932000
-0.546773 0.115390 0.932000
-0.544998 0.115390 0.932000
-0.543223 0.115390 0.932000
-0.541448 0.115390 0.932000
-0.538514 0.115143 0.930000
-0.536743 0.115143 0.930000
-0.536122 0.115390 0.932000
-0.534347 0.115390 0.932000
-0.532571 0.115390 0.932000
-0.530796 0.115390 0.932000
-0.529021 0.115390 0.932000
-0.528943 0.115762 0.935000
-0.525470 0.115390 0.932000
-0.523695 0.115390 0.932000
-0.521920 0.115390 0.932000
-0.520145 0.115390 0.932000
-0.518370 0.115390 0.932000
-0.518257 0.115762 0.935000
-0.516476 0.115762 0.935000
-0.515796 0.116010 0.937000
-0.514011 0.116010 0.937000
-0.513867 0.116381 0.940000
-0.512076 0.116381 0.940000
-0.510286 0.116381 0.940000
-0.508495 0.116381 0.940000
-0.506705 0.116381 0.940000
-0.504914 0.116381 0.940000
-0.503124 0.116381 0.940000
-0.501333 0.116381 0.940000
-0.499543 0.116381 0.940000
-0.497752 0.116381 0.940000
-0.495962 0.116381 0.940000
-0.495223 0.116629 0.942000
-0.493429 0.116629 0.942000
-0.491634 0.116629 0.942000
-0.486200 0.115762 0.935000
-0.484419 0.115762 0.935000
-0.483670 0.116010 0.937000
-0.480857 0.115762 0.935000
-0.479076 0.115762 0.935000
-0.478316 0.116010 0.937000
-0.478057 0.116381 0.940000
-0.477280 0.116629 0.942000
-0.452267 0.110933 0.896000
-0.450560 0.110933 0.896000
-0.447851 0.110686 0.894000
-0.446149 0.110686 0.894000
-0.444446 0.110686 0.894000
-0.441257 0.110314 0.891000
-0.437587 0.109819 0.887000
-0.434423 0.109448 0.884000
-0.430781 0.108952 0.880000
-0.429105 0.108952 0.880000
-0.426457 0.108705 0.878000
-0.424785 0.108705 0.878000
-0.421667 0.108333 0.875000
-0.420000 0.108333 0.875000
-0.417377 0.108086 0.873000
-0.414762 0.107838 0.871000
-0.412154 0.107590 0.869000
-0.409554 0.107343 0.867000
-0.406962 0.107095 0.865000
-0.405314 0.107095 0.865000
-0.402267 0.106724 0.862000
-0.399695 0.106476 0.860000
-0.397131 0.106229 0.858000
-0.394575 0.105981 0.856000
-0.392027 0.105733 0.854000
-0.389486 0.105486 0.852000
-0.386952 0.105238 0.850000
-0.385333 0.105238 0.850000
-0.382811 0.104990 0.848000
-0.379848 0.104619 0.845000
-0.377343 0.104371 0.843000
-0.375737 0.104371 0.843000
-0.373244 0.104124 0.841000
-0.370758 0.103876 0.839000
-0.368280 0.103629 0.837000
-0.366686 0.103629 0.837000
-0.364219 0.103381 0.835000
-0.361760 0.103133 0.833000
-0.359309 0.102886 0.831000
-0.357726 0.102886 0.831000
-0.355286 0.102638 0.829000
-0.353707 0.102638 0.829000
-0.351278 0.102390 0.827000
-0.349703 0.102390 0.827000
-0.347286 0.102143 0.825000
-0.344876 0.101895 0.823000
-0.342474 0.101648 0.821000
-0.340910 0.101648 0.821000
-0.338520 0.101400 0.819000
-0.336137 0.101152 0.817000
-0.334581 0.101152 0.817000
-0.333840 0.101400 0.819000
-0.332280 0.101400 0.819000
-0.330720 0.101400 0.819000
-0.329160 0.101400 0.819000
-0.327600 0.101400 0.819000
-0.326040 0.101400 0.819000
-0.325272 0.101648 0.821000
-0.324497 0.101895 0.823000
-0.322930 0.101895 0.823000
-0.321362 0.101895 0.823000
-0.320571 0.102143 0.825000
-0.319773 0.102390 0.827000
-0.318198 0.102390 0.827000
-0.317389 0.102638 0.829000
-0.316571 0.102886 0.831000
-0.315747 0.103133 0.833000
-0.314914 0.103381 0.835000
-0.313324 0.103381 0.835000
-0.312480 0.103629 0.837000
-0.310886 0.103629 0.837000
-0.310030 0.103876 0.839000
-0.309168 0.104124 0.841000
-0.307566 0.104124 0.841000
-0.306691 0.104371 0.843000
-0.305810 0.104619 0.845000
-0.304200 0.104619 0.845000
-0.303665 0.104990 0.848000
-0.302762 0.105238 0.850000
-0.301851 0.105486 0.852000
-0.300229 0.105486 0.852000
-0.299307 0.105733 0.854000
-0.297680 0.105733 0.854000
-0.296747 0.105981 0.856000
-0.295806 0.106229 0.858000
-0.295543 0.106724 0.862000
-0.293901 0.106724 0.862000
-0.293276 0.107095 0.865000
-0.292303 0.107343 0.867000
-0.291322 0.107590 0.869000
-0.289667 0.107590 0.869000
-0.288674 0.107838 0.871000
-0.287015 0.107838 0.871000
-0.285356 0.107838 0.871000
-0.283697 0.107838 0.871000
-0.282038 0.107838 0.871000
-0.280379 0.107838 0.871000
-0.304960 0.117990 0.953000
-0.304735 0.118610 0.958000
-0.302911 0.118610 0.958000
-0.301086 0.118610 0.958000
-0.299261 0.118610 0.958000
-0.297436 0.118610 0.958000
-0.295611 0.118610 0.958000
-0.293787 0.118610 0.958000
-0.291962 0.118610 0.958000
-0.290137 0.118610 0.958000
-0.289215 0.118981 0.961000
-0.287983 0.119229 0.963000
-0.285554 0.118981 0.961000
-0.283724 0.118981 0.961000
-0.281893 0.118981 0.961000
-0.280063 0.118981 0.961000
-0.278232 0.118981 0.961000
-0.276402 0.118981 0.961000
-0.274571 0.118981 0.961000
-0.272741 0.118981 0.961000
-0.270910 0.118981 0.961000
-0.269640 0.119229 0.963000
-0.267806 0.119229 0.963000
-0.266800 0.119600 0.966000
-0.264960 0.119600 0.966000
-0.263120 0.119600 0.966000
-0.261280 0.119600 0.966000
-0.260246 0.119971 0.969000
-0.258400 0.119971 0.969000
-0.256554 0.119971 0.969000
-0.253920 0.119600 0.966000
-0.252080 0.119600 0.966000
-0.250240 0.119600 0.966000
-0.248400 0.119600 0.966000
-0.246560 0.119600 0.966000
-0.244720 0.119600 0.966000
-0.242880 0.119600 0.966000
-0.241040 0.119600 0.966000
-0.239200 0.119600 0.966000
-0.237360 0.119600 0.966000
-0.235520 0.119600 0.966000
-0.233680 0.119600 0.966000
-0.231840 0.119600 0.966000
-0.230000 0.119600 0.966000
-0.228160 0.119600 0.966000
-0.226320 0.119600 0.966000
-0.225177 0.119971 0.969000
-0.223331 0.119971 0.969000
-0.221486 0.119971 0.969000
-0.219640 0.119971 0.969000
-0.217794 0.119971 0.969000
-0.215949 0.119971 0.969000
-0.214103 0.119971 0.969000
-0.212257 0.119971 0.969000
-0.210411 0.119971 0.969000
-0.208566 0.119971 0.969000
-0.206720 0.119971 0.969000
-0.204874 0.119971 0.969000
-0.203029 0.119971 0.969000
-0.201183 0.119971 0.969000
-0.199337 0.119971 0.969000
-0.197491 0.119971 0.969000
-0.195646 0.119971 0.969000
-0.193800 0.119971 0.969000
-0.191954 0.119971 0.969000
-0.190109 0.119971 0.969000
-0.188263 0.119971 0.969000
-0.186417 0.119971 0.969000
-0.184571 0.119971 0.969000
-0.182726 0.119971 0.969000
-0.180880 0.119971 0.969000
-0.179034 0.119971 0.969000
-0.177189 0.119971 0.969000
-0.175343 0.119971 0.969000
-0.173497 0.119971 0.969000
-0.172183 0.120343 0.972000
-0.170331 0.120343 0.972000
-0.168480 0.120343 0.972000
-0.166629 0.120343 0.972000
-0.164777 0.120343 0.972000
-0.162926 0.120343 0.972000
-0.161074 0.120343 0.972000
-0.158731 0.119971 0.969000
-0.156886 0.119971 0.969000
-0.155520 0.120343 0.972000
-0.153669 0.120343 0.972000
-0.151817 0.120343 0.972000
-0.150274 0.120590 0.974000
-0.148419 0.120590 0.974000
-0.146564 0.120590 0.974000
-0.145154 0.120962 0.977000
-0.143733 0.121333 0.980000
-0.140998 0.120590 0.974000
-0.138429 0.119971 0.969000
-0.136583 0.119971 0.969000
-0.134737 0.119971 0.969000
-0.132891 0.119971 0.969000
-0.131451 0.120343 0.972000
-0.129600 0.120343 0.972000
-0.127749 0.120343 0.972000
-0.126156 0.120590 0.974000
-0.124301 0.120590 0.974000
-0.122446 0.120590 0.974000
-0.120590 0.120590 0.974000
-0.118735 0.120590 0.974000
-0.116880 0.120590 0.974000
-0.115025 0.120590 0.974000
-0.113518 0.120962 0.977000
-0.111657 0.120962 0.977000
-0.109796 0.120962 0.977000
-0.107604 0.120590 0.974000
-0.105749 0.120590 0.974000
-0.104213 0.120962 0.977000
-0.102038 0.120590 0.974000
-0.100183 0.120590 0.974000
-0.098328 0.120590 0.974000
-0.096770 0.120962 0.977000
-0.094909 0.120962 0.977000
-0.093048 0.120962 0.977000
-0.091187 0.120962 0.977000
-0.089326 0.120962 0.977000
-0.087465 0.120962 0.977000
-0.085867 0.121333 0.980000
-0.083743 0.120962 0.977000
-0.081630 0.120590 0.974000
-0.079611 0.120343 0.972000
-0.077760 0.120343 0.972000
-0.075909 0.120343 0.972000
-0.074057 0.120343 0.972000
-0.072206 0.120343 0.972000
-0.070354 0.120343 0.972000
-0.068644 0.120590 0.974000
-0.066789 0.120590 0.974000
-0.065133 0.120962 0.977000
-0.063272 0.120962 0.977000
-0.061411 0.120962 0.977000
-0.059550 0.120962 0.977000
-0.057867 0.121333 0.980000
-0.056000 0.121333 0.980000
-0.054133 0.121333 0.980000
-0.052267 0.121333 0.980000
-0.050400 0.121333 0.980000
-0.048533 0.121333 0.980000
-0.046667 0.121333 0.980000
-0.044663 0.120962 0.977000
-0.042802 0.120962 0.977000
-0.040941 0.120962 0.977000
-0.039080 0.120962 0.977000
-0.037219 0.120962 0.977000
-0.035358 0.120962 0.977000
-0.033497 0.120962 0.977000
-0.031733 0.121333 0.980000
-0.029867 0.121333 0.980000
-0.028086 0.121705 0.983000
-0.026213 0.121705 0.983000
-0.024341 0.121705 0.983000
-0.022469 0.121705 0.983000
-0.020638 0.121952 0.985000
-0.018762 0.121952 0.985000
-0.016886 0.121952 0.985000
-0.014979 0.121705 0.983000
-0.013107 0.121705 0.983000
-0.011234 0.121705 0.983000
-0.009362 0.121705 0.983000
-0.007490 0.121705 0.983000
-0.005617 0.121705 0.983000
-0.003752 0.121952 0.985000
-0.001872 0.121705 0.983000
0.000000 0.121705 0.983000
0.001872 0.121705 0.983000
0.003745 0.121705 0.983000
0.005617 0.121705 0.983000
0.007505 0.121952 0.985000
0.009381 0.121952 0.985000
0.011257 0.121952 0.985000
0.013133 0.121952 0.985000
0.015010 0.121952 0.985000
0.016886 0.121952 0.985000
0.018724 0.121705 0.983000
0.020596 0.121705 0.983000
0.022469 0.121705 0.983000
0.024390 0.121952 0.985000
0.026347 0.122324 0.988000
0.028314 0.122695 0.991000
0.030202 0.122695 0.991000
0.032284 0.123438 0.997000
0.034286 0.123810 1.000000
0.032354 0.110686 0.894000
0.034057 0.110686 0.894000
0.035760 0.110686 0.894000
0.037337 0.110314 0.891000
0.039034 0.110314 0.891000
0.040731 0.110314 0.891000
0.042333 0.110067 0.889000
0.043928 0.109819 0.887000
0.045463 0.109448 0.884000
0.047040 0.109200 0.882000
0.048720 0.109200 0.882000
0.050400 0.109200 0.882000
0.052080 0.109200 0.882000
0.053760 0.109200 0.882000
0.055440 0.109200 0.882000
0.057120 0.109200 0.882000
0.058800 0.109200 0.882000
0.060480 0.109200 0.882000
0.062160 0.109200 0.882000
0.063695 0.108952 0.880000
0.065371 0.108952 0.880000
0.066895 0.108705 0.878000
0.068568 0.108705 0.878000
0.070000 0.108333 0.875000
0.071667 0.108333 0.875000
0.073333 0.108333 0.875000
0.075000 0.108333 0.875000
0.076491 0.108086 0.873000
0.078154 0.108086 0.873000
0.080000 0.108333 0.875000
0.081667 0.108333 0.875000
0.083619 0.108705 0.878000
0.085291 0.108705 0.878000
0.087162 0.108952 0.880000
0.088838 0.108952 0.880000
0.090514 0.108952 0.880000
0.092400 0.109200 0.882000
0.094080 0.109200 0.882000
0.095760 0.109200 0.882000
0.097661 0.109448 0.884000
0.099345 0.109448 0.884000
0.101371 0.109819 0.887000
0.103293 0.110067 0.889000
0.105223 0.110314 0.891000
0.106920 0.110314 0.891000
0.127581 0.121952 0.985000
0.129457 0.121952 0.985000
0.131333 0.121952 0.985000
0.133615 0.122324 0.988000
0.135497 0.122324 0.988000
0.137379 0.122324 0.988000
0.139684 0.122695 0.991000
0.141571 0.122695 0.991000
0.143459 0.122695 0.991000
0.145347 0.122695 0.991000
0.147234 0.122695 0.991000
0.149122 0.122695 0.991000
0.151010 0.122695 0.991000
0.152897 0.122695 0.991000
0.153848 0.121952 0.985000
0.155724 0.121952 0.985000
0.157600 0.121952 0.985000
0.159476 0.121952 0.985000
0.161352 0.121952 0.985000
-0.555650 0.117166 0.932000
-0.553874 0.117166 0.932000
-0.552099 0.117166 0.932000
-0.550324 0.117166 0.932000
-0.548549 0.117166 0.932000
-0.545600 0.116914 0.930000
-0.543829 0.116914 0.930000
-0.542057 0.116914 0.930000
-0.540286 0.116914 0.930000
-0.538514 0.116914 0.930000
-0.536743 0.116914 0.930000
-0.534971 0.116914 0.930000
-0.531480 0.116537 0.927000
-0.529714 0.116537 0.927000
-0.529657 0.116914 0.930000
-0.527886 0.116914 0.930000
-0.526114 0.116914 0.930000
-0.524343 0.116914 0.930000
-0.522571 0.116914 0.930000
-0.520800 0.116914 0.930000
-0.519029 0.116914 0.930000
-0.517257 0.116914 0.930000
-0.513823 0.116537 0.927000
-0.512057 0.116537 0.927000
-0.513044 0.117166 0.932000
-0.511269 0.117166 0.932000
-0.511133 0.117543 0.935000
-0.509352 0.117543 0.935000
-0.507571 0.117543 0.935000
-0.505790 0.117543 0.935000
-0.504010 0.117543 0.935000
-0.502229 0.117543 0.935000
-0.500448 0.117543 0.935000
-0.498667 0.117543 0.935000
-0.496886 0.117543 0.935000
-0.495105 0.117543 0.935000
-0.493324 0.117543 0.935000
-0.491543 0.117543 0.935000
-0.489762 0.117543 0.935000
-0.487981 0.117543 0.935000
-0.486200 0.117543 0.935000
-0.484419 0.117543 0.935000
-0.482638 0.117543 0.935000
-0.480857 0.117543 0.935000
-0.479076 0.117543 0.935000
-0.477295 0.117543 0.935000
-0.476531 0.117794 0.937000
-0.474747 0.117794 0.937000
-0.452267 0.112640 0.896000
-0.450560 0.112640 0.896000
-0.447851 0.112389 0.894000
-0.446149 0.112389 0.894000
-0.444446 0.112389 0.894000
-0.441257 0.112011 0.891000
-0.438573 0.111760 0.889000
-0.434423 0.111131 0.884000
-0.431760 0.110880 0.882000
-0.429105 0.110629 0.880000
-0.427429 0.110629 0.880000
-0.424785 0.110377 0.878000
-0.423112 0.110377 0.878000
-0.420000 0.110000 0.875000
-0.418333 0.110000 0.875000
-0.415714 0.109749 0.873000
-0.412154 0.109246 0.869000
-0.410499 0.109246 0.869000
-0.406962 0.108743 0.865000
-0.405314 0.108743 0.865000
-0.402267 0.108366 0.862000
-0.400625 0.108366 0.862000
-0.398057 0.108114 0.860000
-0.394575 0.107611 0.856000
-0.392945 0.107611 0.856000
-0.390400 0.107360 0.854000
-0.387863 0.107109 0.852000
-0.385333 0.106857 0.850000
-0.383714 0.106857 0.850000
-0.381196 0.106606 0.848000
-0.378238 0.106229 0.845000
-0.375737 0.105977 0.843000
-0.374131 0.105977 0.843000
-0.371642 0.105726 0.841000
-0.369160 0.105474 0.839000
-0.366686 0.105223 0.837000
-0.364219 0.104971 0.835000
-0.361760 0.104720 0.833000
-0.359309 0.104469 0.831000
-0.357726 0.104469 0.831000
-0.355286 0.104217 0.829000
-0.353707 0.104217 0.829000
-0.351278 0.103966 0.827000
-0.349703 0.103966 0.827000
-0.347286 0.103714 0.825000
-0.345714 0.103714 0.825000
-0.343309 0.103463 0.823000
-0.340910 0.103211 0.821000
-0.338520 0.102960 0.819000
-0.336960 0.102960 0.819000
-0.335400 0.102960 0.819000
-0.333840 0.102960 0.819000
-0.332280 0.102960 0.819000
-0.330720 0.102960 0.819000
-0.329160 0.102960 0.819000
-0.327600 0.102960 0.819000
-0.326040 0.102960 0.819000
-0.325272 0.103211 0.821000
-0.324497 0.103463 0.823000
-0.322930 0.103463 0.823000
-0.322143 0.103714 0.825000
-0.321349 0.103966 0.827000
-0.319773 0.103966 0.827000
-0.318968 0.104217 0.829000
-0.317389 0.104217 0.829000
-0.316571 0.104469 0.831000
-0.315747 0.104720 0.833000
-0.314914 0.104971 0.835000
-0.313324 0.104971 0.835000
-0.312480 0.105223 0.837000
-0.311629 0.105474 0.839000
-0.310030 0.105474 0.839000
-0.309168 0.105726 0.841000
-0.308297 0.105977 0.843000
-0.307419 0.106229 0.845000
-0.305810 0.106229 0.845000
-0.305280 0.106606 0.848000
-0.304381 0.106857 0.850000
-0.303474 0.107109 0.852000
-0.301851 0.107109 0.852000
-0.300933 0.107360 0.854000
-0.299307 0.107360 0.854000
-0.298377 0.107611 0.856000
-0.297440 0.107863 0.858000
-0.296495 0.108114 0.860000
-0.295543 0.108366 0.862000
-0.294924 0.108743 0.865000
-0.293954 0.108994 0.867000
-0.292977 0.109246 0.869000
-0.291322 0.109246 0.869000
-0.290333 0.109497 0.871000
-0.288674 0.109497 0.871000
-0.287015 0.109497 0.871000
-0.285356 0.109497 0.871000
-0.284349 0.109749 0.873000
-0.282686 0.109749 0.873000
-0.281023 0.109749 0.873000
-0.304960 0.119806 0.953000
-0.303145 0.119806 0.953000
-0.301330 0.119806 0.953000
-0.300143 0.120057 0.955000
-0.298324 0.120057 0.955000
-0.296505 0.120057 0.955000
-0.294069 0.119806 0.953000
-0.292253 0.119806 0.953000
-0.291048 0.120057 0.955000
-0.289229 0.120057 0.955000
-0.288312 0.120434 0.958000
-0.286488 0.120434 0.958000
-0.284663 0.120434 0.958000
-0.282838 0.120434 0.958000
-0.281013 0.120434 0.958000
-0.279189 0.120434 0.958000
-0.277364 0.120434 0.958000
-0.275539 0.120434 0.958000
-0.273714 0.120434 0.958000
-0.271890 0.120434 0.958000
-0.270065 0.120434 0.958000
-0.268240 0.120434 0.958000
-0.266415 0.120434 0.958000
-0.264590 0.120434 0.958000
-0.262766 0.120434 0.958000
-0.260941 0.120434 0.958000
-0.259116 0.120434 0.958000
-0.258097 0.120811 0.961000
-0.256267 0.120811 0.961000
-0.254436 0.120811 0.961000
-0.252606 0.120811 0.961000
-0.250775 0.120811 0.961000
-0.248945 0.120811 0.961000
-0.247114 0.120811 0.961000
-0.245284 0.120811 0.961000
-0.243453 0.120811 0.961000
-0.241623 0.120811 0.961000
-0.239792 0.120811 0.961000
-0.238457 0.121063 0.963000
-0.236623 0.121063 0.963000
-0.234789 0.121063 0.963000
-0.232954 0.121063 0.963000
-0.230640 0.120811 0.961000
-0.228810 0.120811 0.961000
-0.227451 0.121063 0.963000
-0.225617 0.121063 0.963000
-0.223783 0.121063 0.963000
-0.221949 0.121063 0.963000
-0.220114 0.121063 0.963000
-0.218280 0.121063 0.963000
-0.217120 0.121440 0.966000
-0.215280 0.121440 0.966000
-0.213440 0.121440 0.966000
-0.211600 0.121440 0.966000
-0.209760 0.121440 0.966000
-0.207920 0.121440 0.966000
-0.206080 0.121440 0.966000
-0.204240 0.121440 0.966000
-0.202400 0.121440 0.966000
-0.200560 0.121440 0.966000
-0.198103 0.121063 0.963000
-0.196269 0.121063 0.963000
-0.194434 0.121063 0.963000
-0.192600 0.121063 0.963000
-0.190766 0.121063 0.963000
-0.188931 0.121063 0.963000
-0.187097 0.121063 0.963000
-0.185263 0.121063 0.963000
-0.184000 0.121440 0.966000
-0.182160 0.121440 0.966000
-0.180320 0.121440 0.966000
-0.178480 0.121440 0.966000
-0.176640 0.121440 0.966000
-0.174800 0.121440 0.966000
-0.172960 0.121440 0.966000
-0.171651 0.121817 0.969000
-0.169806 0.121817 0.969000
-0.167960 0.121817 0.969000
-0.166114 0.121817 0.969000
-0.164269 0.121817 0.969000
-0.162423 0.121817 0.969000
-0.160577 0.121817 0.969000
-0.158240 0.121440 0.966000
-0.156400 0.121440 0.966000
-0.155040 0.121817 0.969000
-0.153194 0.121817 0.969000
-0.151349 0.121817 0.969000
-0.149503 0.121817 0.969000
-0.148114 0.122194 0.972000
-0.146263 0.122194 0.972000
-0.144411 0.122194 0.972000
-0.141680 0.121440 0.966000
-0.139840 0.121440 0.966000
-0.138000 0.121440 0.966000
-0.136160 0.121440 0.966000
-0.134320 0.121440 0.966000
-0.132480 0.121440 0.966000
-0.130640 0.121440 0.966000
-0.129200 0.121817 0.969000
-0.127354 0.121817 0.969000
-0.125509 0.121817 0.969000
-0.124046 0.122194 0.972000
-0.122194 0.122194 0.972000
-0.120343 0.122194 0.972000
-0.118491 0.122194 0.972000
-0.116640 0.122194 0.972000
-0.114789 0.122194 0.972000
-0.112937 0.122194 0.972000
-0.111086 0.122194 0.972000
-0.109234 0.122194 0.972000
-0.107383 0.122194 0.972000
-0.105531 0.122194 0.972000
-0.103360 0.121817 0.969000
-0.101514 0.121817 0.969000
-0.099669 0.121817 0.969000
-0.098126 0.122194 0.972000
-0.096472 0.122446 0.974000
-0.094617 0.122446 0.974000
-0.092762 0.122446 0.974000
-0.090907 0.122446 0.974000
-0.089051 0.122446 0.974000
-0.087196 0.122446 0.974000
-0.085341 0.122446 0.974000
-0.083314 0.122194 0.972000
-0.081211 0.121817 0.969000
-0.079366 0.121817 0.969000
-0.077520 0.121817 0.969000
-0.075674 0.121817 0.969000
-0.073829 0.121817 0.969000
-0.071983 0.121817 0.969000
-0.070137 0.121817 0.969000
-0.068503 0.122194 0.972000
-0.066651 0.122194 0.972000
-0.064800 0.122194 0.972000
-0.062949 0.122194 0.972000
-0.061223 0.122446 0.974000
-0.059368 0.122446 0.974000
-0.057512 0.122446 0.974000
-0.055657 0.122446 0.974000
-0.053802 0.122446 0.974000
-0.052107 0.122823 0.977000
-0.050246 0.122823 0.977000
-0.048236 0.122446 0.974000
-0.046381 0.122446 0.974000
-0.044434 0.122194 0.972000
-0.042583 0.122194 0.972000
-0.040731 0.122194 0.972000
-0.038880 0.122194 0.972000
-0.037029 0.122194 0.972000
-0.035177 0.122194 0.972000
-0.033394 0.122446 0.974000
-0.031636 0.122823 0.977000
-0.029775 0.122823 0.977000
-0.027914 0.122823 0.977000
-0.026053 0.122823 0.977000
-0.024192 0.122823 0.977000
-0.022331 0.122823 0.977000
-0.020533 0.123200 0.980000
-0.018610 0.122823 0.977000
-0.016749 0.122823 0.977000
-0.014933 0.123200 0.980000
-0.013067 0.123200 0.980000
-0.011200 0.123200 0.980000
-0.009305 0.122823 0.977000
-0.007444 0.122823 0.977000
-0.005583 0.122823 0.977000
-0.003733 0.123200 0.980000
-0.001867 0.123200 0.980000
0.000000 0.123200 0.980000
0.001867 0.123200 0.980000
0.003733 0.123200 0.980000
0.005600 0.123200 0.980000
0.007490 0.123577 0.983000
0.009362 0.123577 0.983000
0.011200 0.123200 0.980000
0.013067 0.123200 0.980000
0.014933 0.123200 0.980000
0.016800 0.123200 0.980000
0.018667 0.123200 0.980000
0.020533 0.123200 0.980000
0.022400 0.123200 0.980000
0.024341 0.123577 0.983000
0.026213 0.123577 0.983000
0.028229 0.124206 0.988000
0.030202 0.124583 0.991000
0.032187 0.124960 0.994000
0.034080 0.124960 0.994000
0.032246 0.112011 0.891000
0.033943 0.112011 0.891000
0.035640 0.112011 0.891000
0.037253 0.111760 0.889000
0.038947 0.111760 0.889000
0.040640 0.111760 0.889000
0.042238 0.111509 0.887000
0.043779 0.111131 0.884000
0.045360 0.110880 0.882000
0.047040 0.110880 0.882000
0.048720 0.110880 0.882000
0.050400 0.110880 0.882000
0.052080 0.110880 0.882000
0.053760 0.110880 0.882000
0.055440 0.110880 0.882000
0.057120 0.110880 0.882000
0.058800 0.110880 0.882000
0.060480 0.110880 0.882000
0.062160 0.110880 0.882000
0.063840 0.110880 0.882000
0.065520 0.110880 0.882000
0.067048 0.110629 0.880000
0.068568 0.110377 0.878000
0.070240 0.110377 0.878000
0.071912 0.110377 0.878000
0.073333 0.110000 0.875000
0.075000 0.110000 0.875000
0.076667 0.110000 0.875000
0.078333 0.110000 0.875000
0.080000 0.110000 0.875000
0.081947 0.110377 0.878000
0.083619 0.110377 0.878000
0.085291 0.110377 0.878000
0.087162 0.110629 0.880000
0.088838 0.110629 0.880000
0.090720 0.110880 0.882000
0.092400 0.110880 0.882000
0.094080 0.110880 0.882000
0.095977 0.111131 0.884000
0.097661 0.111131 0.884000
0.099682 0.111509 0.887000
0.101371 0.111509 0.887000
0.103293 0.111760 0.889000
0.105223 0.112011 0.891000
0.125450 0.123577 0.983000
0.127322 0.123577 0.983000
0.129194 0.123577 0.983000
0.131067 0.123577 0.983000
0.132939 0.123577 0.983000
0.134811 0.123577 0.983000
0.136684 0.123577 0.983000
0.138838 0.123829 0.985000
0.141143 0.124206 0.988000
0.143025 0.124206 0.988000
0.144907 0.124206 0.988000
0.146789 0.124206 0.988000
0.148670 0.124206 0.988000
0.150552 0.124206 0.988000
0.151971 0.123829 0.985000
0.153535 0.123577 0.983000
0.155408 0.123577 0.983000
0.157280 0.123577 0.983000
0.159152 0.123577 0.983000
0.161025 0.123577 0.983000
0.162897 0.123577 0.983000
-0.552669 0.118303 0.927000
-0.550903 0.118303 0.927000
-0.549137 0.118303 0.927000
-0.547371 0.118303 0.927000
-0.547371 0.118686 0.930000
-0.543840 0.118303 0.927000
-0.542074 0.118303 0.927000
-0.540309 0.118303 0.927000
-0.538543 0.118303 0.927000
-0.535619 0.118048 0.925000
-0.533857 0.118048 0.925000
-0.532095 0.118048 0.925000
-0.530333 0.118048 0.925000
-0.528571 0.118048 0.925000
-0.526810 0.118048 0.925000
-0.526183 0.118303 0.927000
-0.523286 0.118048 0.925000
-0.521524 0.118048 0.925000
-0.519762 0.118048 0.925000
-0.519120 0.118303 0.927000
-0.517354 0.118303 0.927000
-0.514476 0.118048 0.925000
-0.512714 0.118048 0.925000
-0.510952 0.118048 0.925000
-0.509190 0.118048 0.925000
-0.508526 0.118303 0.927000
-0.506760 0.118303 0.927000
-0.506629 0.118686 0.930000
-0.504857 0.118686 0.930000
-0.503086 0.118686 0.930000
-0.502392 0.118941 0.932000
-0.500617 0.118941 0.932000
-0.498842 0.118941 0.932000
-0.497067 0.118941 0.932000
-0.495291 0.118941 0.932000
-0.493516 0.118941 0.932000
-0.490686 0.118686 0.930000
-0.488914 0.118686 0.930000
-0.487143 0.118686 0.930000
-0.485371 0.118686 0.930000
-0.484640 0.118941 0.932000
-0.482865 0.118941 0.932000
-0.480057 0.118686 0.930000
-0.478286 0.118686 0.930000
-0.476514 0.118686 0.930000
-0.475764 0.118941 0.932000
-0.473989 0.118941 0.932000
-0.472213 0.118941 0.932000
-0.470438 0.118941 0.932000
-0.472686 0.119962 0.940000
-0.447851 0.114091 0.894000
-0.446149 0.114091 0.894000
-0.444446 0.114091 0.894000
-0.442743 0.114091 0.894000
-0.439560 0.113709 0.891000
-0.435897 0.113198 0.887000
-0.431760 0.112560 0.882000
-0.430080 0.112560 0.882000
-0.427429 0.112305 0.880000
-0.425752 0.112305 0.880000
-0.423112 0.112050 0.878000
-0.420000 0.111667 0.875000
-0.418333 0.111667 0.875000
-0.415714 0.111411 0.873000
-0.412154 0.110901 0.869000
-0.410499 0.110901 0.869000
-0.406962 0.110390 0.865000
-0.405314 0.110390 0.865000
-0.402267 0.110008 0.862000
-0.400625 0.110008 0.862000
-0.398057 0.109752 0.860000
-0.395497 0.109497 0.858000
-0.392945 0.109242 0.856000
-0.390400 0.108987 0.854000
-0.387863 0.108731 0.852000
-0.386240 0.108731 0.852000
-0.383714 0.108476 0.850000
-0.382095 0.108476 0.850000
-0.379581 0.108221 0.848000
-0.376629 0.107838 0.845000
-0.374131 0.107583 0.843000
-0.371642 0.107328 0.841000
-0.369160 0.107072 0.839000
-0.366686 0.106817 0.837000
-0.364219 0.106562 0.835000
-0.361760 0.106307 0.833000
-0.359309 0.106051 0.831000
-0.357726 0.106051 0.831000
-0.355286 0.105796 0.829000
-0.353707 0.105796 0.829000
-0.352128 0.105796 0.829000
-0.349703 0.105541 0.827000
-0.347286 0.105286 0.825000
-0.345714 0.105286 0.825000
-0.343309 0.105030 0.823000
-0.340910 0.104775 0.821000
-0.339347 0.104775 0.821000
-0.336960 0.104520 0.819000
-0.335400 0.104520 0.819000
-0.333840 0.104520 0.819000
-0.332280 0.104520 0.819000
-0.331528 0.104775 0.821000
-0.329964 0.104775 0.821000
-0.328400 0.104775 0.821000
-0.326836 0.104775 0.821000
-0.325272 0.104775 0.821000
-0.324497 0.105030 0.823000
-0.323714 0.105286 0.825000
-0.322143 0.105286 0.825000
-0.321349 0.105541 0.827000
-0.319773 0.105541 0.827000
-0.318968 0.105796 0.829000
-0.318154 0.106051 0.831000
-0.317333 0.106307 0.833000
-0.316505 0.106562 0.835000
-0.314914 0.106562 0.835000
-0.314074 0.106817 0.837000
-0.312480 0.106817 0.837000
-0.311629 0.107072 0.839000
-0.310770 0.107328 0.841000
-0.309903 0.107583 0.843000
-0.308297 0.107583 0.843000
-0.307419 0.107838 0.845000
-0.306895 0.108221 0.848000
-0.305280 0.108221 0.848000
-0.304381 0.108476 0.850000
-0.303474 0.108731 0.852000
-0.301851 0.108731 0.852000
-0.300933 0.108987 0.854000
-0.299307 0.108987 0.854000
-0.298377 0.109242 0.856000
-0.297440 0.109497 0.858000
-0.296495 0.109752 0.860000
-0.296571 0.110390 0.865000
-0.294924 0.110390 0.865000
-0.293954 0.110646 0.867000
-0.292977 0.110901 0.869000
-0.291322 0.110901 0.869000
-0.290333 0.111156 0.871000
