297.000000 -23.760000 891.000000
298.026672 -23.706667 889.000000
299.045715 -23.653334 887.000000
300.735229 -23.653334 887.000000
301.401917 -23.573334 884.000000
302.399994 -23.520000 882.000000
303.390472 -23.466667 880.000000
305.066681 -23.466667 880.000000
306.045715 -23.413334 878.000000
307.718109 -23.413334 878.000000
306.923798 -23.226667 871.000000
307.874298 -23.173334 869.000000
308.104767 -23.066666 865.000000
308.678101 -22.986668 862.000000
310.319977 -22.986668 862.000000
311.238098 -22.933334 860.000000
312.148560 -22.880001 858.000000
313.782867 -22.880001 858.000000
314.681915 -22.826666 856.000000
315.573334 -22.773333 854.000000
315.714294 -22.666666 850.000000
316.586670 -22.613333 848.000000
317.076202 -22.533333 845.000000
317.931458 -22.480000 843.000000
318.779053 -22.426666 841.000000
319.619049 -22.373333 839.000000
320.451447 -22.320000 837.000000
320.506653 -22.213335 833.000000
321.320007 -22.160000 831.000000
322.125702 -22.106667 829.000000
323.704742 -22.106667 829.000000
324.499054 -22.053333 827.000000
325.285706 -22.000000 825.000000
326.064758 -21.946667 823.000000
326.836212 -21.893333 821.000000
328.400024 -21.893333 821.000000
329.160004 -21.840000 819.000000
330.720001 -21.840000 819.000000
330.657166 -21.733334 815.000000
331.801910 -21.706667 814.000000
333.352386 -21.706667 814.000000
332.434296 -21.546667 808.000000
333.146667 -21.493334 806.000000
333.851440 -21.439999 804.000000
333.714264 -21.333334 800.000000
334.399994 -21.280001 798.000000
335.920013 -21.280001 798.000000
336.171417 -21.199999 795.000000
335.986664 -21.093332 791.000000
336.640015 -21.040001 789.000000
336.857147 -20.959999 786.000000
338.354279 -20.959999 786.000000
339.851440 -20.959999 786.000000
340.480011 -20.906666 784.000000
341.100952 -20.853333 782.000000
341.276184 -20.773333 779.000000
342.760010 -20.773333 779.000000
343.360016 -20.719999 777.000000
343.064758 -20.613333 773.000000
343.200012 -20.533333 770.000000
344.666656 -20.533333 770.000000
345.234283 -20.480000 768.000000
345.342834 -20.400002 765.000000
345.893311 -20.346668 763.000000
347.346649 -20.346668 763.000000
347.885742 -20.293333 761.000000
347.958099 -20.213333 758.000000
348.480011 -20.160000 756.000000
349.457153 -20.133333 755.000000
350.895233 -20.133333 755.000000
350.933350 -20.053333 752.000000
350.491425 -19.946667 748.000000
351.445709 -19.920000 747.000000
352.868591 -19.920000 747.000000
353.342865 -19.866667 745.000000
353.809540 -19.813334 743.000000
354.746674 -19.786667 742.000000
356.160004 -19.786667 742.000000
356.609528 -19.733334 740.000000
358.019043 -19.733334 740.000000
356.514282 -19.573332 734.000000
356.449524 -19.493334 731.000000
357.841919 -19.493334 731.000000
359.234283 -19.493334 731.000000
360.626678 -19.493334 731.000000
362.019073 -19.493334 731.000000
363.411438 -19.493334 731.000000
365.302856 -19.520000 732.000000
366.697144 -19.520000 732.000000
368.091431 -19.520000 732.000000
369.485718 -19.520000 732.000000
370.880005 -19.520000 732.000000
372.274292 -19.520000 732.000000
373.668579 -19.520000 732.000000
376.087646 -19.573332 734.000000
377.485718 -19.573332 734.000000
378.883820 -19.573332 734.000000
380.281891 -19.573332 734.000000
381.680023 -19.573332 734.000000
383.078094 -19.573332 734.000000
386.047638 -19.653334 737.000000
387.451447 -19.653334 737.000000
388.855255 -19.653334 737.000000
390.259064 -19.653334 737.000000
391.662872 -19.653334 737.000000
393.066681 -19.653334 737.000000
394.470490 -19.653334 737.000000
396.948578 -19.706667 739.000000
398.356201 -19.706667 739.000000
399.763824 -19.706667 739.000000
401.714294 -19.733334 740.000000
404.213348 -19.786667 742.000000
405.626648 -19.786667 742.000000
407.588562 -19.813334 743.000000
409.003815 -19.813334 743.000000
411.523804 -19.866667 745.000000
412.942871 -19.866667 745.000000
415.474304 -19.920000 747.000000
417.455231 -19.946667 748.000000
418.880005 -19.946667 748.000000
420.304779 -19.946667 748.000000
421.729523 -19.946667 748.000000
424.285706 -20.000000 750.000000
425.714294 -20.000000 750.000000
428.281891 -20.053333 752.000000
291.323822 -22.409525 905.000000
292.399994 -22.360001 903.000000
294.120026 -22.360001 903.000000
295.184753 -22.310476 901.000000
295.912384 -22.236191 898.000000
296.297119 -22.137142 894.000000
297.000000 -22.062857 891.000000
298.026672 -22.013332 889.000000
299.045715 -21.963810 887.000000
300.735229 -21.963810 887.000000
301.401917 -21.889524 884.000000
302.399994 -21.840000 882.000000
303.390472 -21.790476 880.000000
305.066681 -21.790476 880.000000
306.045715 -21.740953 878.000000
307.718109 -21.740953 878.000000
306.923798 -21.567619 871.000000
307.874298 -21.518095 869.000000
308.104767 -21.419048 865.000000
308.678101 -21.344763 862.000000
309.600006 -21.295238 860.000000
311.238098 -21.295238 860.000000
312.148560 -21.245714 858.000000
313.782867 -21.245714 858.000000
314.681915 -21.196190 856.000000
315.573334 -21.146666 854.000000
315.714294 -21.047621 850.000000
316.586670 -20.998096 848.000000
317.076202 -20.923811 845.000000
317.931458 -20.874287 843.000000
318.779053 -20.824762 841.000000
319.619049 -20.775238 839.000000
320.451447 -20.725714 837.000000
320.506653 -20.626665 833.000000
321.320007 -20.577145 831.000000
322.125702 -20.527620 829.000000
323.704742 -20.527620 829.000000
324.499054 -20.478096 827.000000
325.285706 -20.428572 825.000000
326.064758 -20.379047 823.000000
326.836212 -20.329523 821.000000
328.400024 -20.329523 821.000000
329.963806 -20.329523 821.000000
330.720001 -20.280001 819.000000
332.279999 -20.280001 819.000000
333.024780 -20.230476 817.000000
334.580963 -20.230476 817.000000
329.142883 -19.809525 800.000000
330.666656 -19.809525 800.000000
332.190491 -19.809525 800.000000
332.880005 -19.760000 798.000000
334.399994 -19.760000 798.000000
335.499054 -19.735237 797.000000
336.171417 -19.685713 795.000000
336.836182 -19.636192 793.000000
337.493317 -19.586668 791.000000
336.857147 -19.462858 786.000000
338.354279 -19.462858 786.000000
339.851440 -19.462858 786.000000
340.480011 -19.413334 784.000000
341.100952 -19.363810 782.000000
341.276184 -19.289524 779.000000
341.880005 -19.240000 777.000000
343.360016 -19.240000 777.000000
343.064758 -19.140953 773.000000
344.091431 -19.116192 772.000000
344.666656 -19.066668 770.000000
345.234283 -19.017143 768.000000
346.245697 -18.992382 767.000000
345.893311 -18.893333 763.000000
347.346649 -18.893333 763.000000
347.885742 -18.843809 761.000000
347.958099 -18.769524 758.000000
348.480011 -18.720001 756.000000
349.457153 -18.695238 755.000000
349.965729 -18.645716 753.000000
350.000000 -18.571428 750.000000
350.022858 -18.497143 747.000000
350.504761 -18.447618 745.000000
351.923828 -18.447618 745.000000
352.394287 -18.398094 743.000000
353.809540 -18.398094 743.000000
354.746674 -18.373333 742.000000
356.160004 -18.373333 742.000000
356.609528 -18.323809 740.000000
357.535248 -18.299047 739.000000
358.942871 -18.299047 739.000000
355.474304 -18.051428 729.000000
356.862885 -18.051428 729.000000
359.234283 -18.100952 731.000000
360.626678 -18.100952 731.000000
362.019073 -18.100952 731.000000
363.411438 -18.100952 731.000000
365.302856 -18.125715 732.000000
366.697144 -18.125715 732.000000
368.091431 -18.125715 732.000000
369.485718 -18.125715 732.000000
370.880005 -18.125715 732.000000
372.274292 -18.125715 732.000000
373.668579 -18.125715 732.000000
376.087646 -18.175240 734.000000
377.485718 -18.175240 734.000000
378.883820 -18.175240 734.000000
380.281891 -18.175240 734.000000
381.680023 -18.175240 734.000000
383.078094 -18.175240 734.000000
385.523834 -18.224762 736.000000
386.925720 -18.224762 736.000000
388.327637 -18.224762 736.000000
389.729523 -18.224762 736.000000
391.662872 -18.249525 737.000000
394.133331 -18.299047 739.000000
395.540955 -18.299047 739.000000
396.948578 -18.299047 739.000000
398.356201 -18.299047 739.000000
399.763824 -18.299047 739.000000
401.714294 -18.323809 740.000000
404.213348 -18.373333 742.000000
405.626648 -18.373333 742.000000
407.588562 -18.398094 743.000000
409.003815 -18.398094 743.000000
411.523804 -18.447618 745.000000
412.942871 -18.447618 745.000000
415.474304 -18.497143 747.000000
416.897156 -18.497143 747.000000
418.880005 -18.521904 748.000000
420.304779 -18.521904 748.000000
421.729523 -18.521904 748.000000
424.285706 -18.571428 750.000000
425.714294 -18.571428 750.000000
428.281891 -18.620953 752.000000
291.323822 -20.685713 905.000000
292.399994 -20.640001 903.000000
294.120026 -20.640001 903.000000
295.184753 -20.594286 901.000000
295.912384 -20.525715 898.000000
297.622864 -20.525715 898.000000
297.000000 -20.365715 891.000000
298.026672 -20.320000 889.000000
299.045715 -20.274284 887.000000
300.735229 -20.274284 887.000000
301.401917 -20.205713 884.000000
302.399994 -20.160000 882.000000
303.390472 -20.114286 880.000000
304.373322 -20.068571 878.000000
306.045715 -20.068571 878.000000
306.666687 -20.000000 875.000000
306.923798 -19.908571 871.000000
307.874298 -19.862856 869.000000
308.104767 -19.771429 865.000000
308.678101 -19.702858 862.000000
309.600006 -19.657143 860.000000
310.514313 -19.611429 858.000000
312.148560 -19.611429 858.000000
313.782867 -19.611429 858.000000
314.681915 -19.565714 856.000000
314.834290 -19.474287 852.000000
315.714294 -19.428572 850.000000
316.586670 -19.382856 848.000000
317.076202 -19.314285 845.000000
317.931458 -19.268572 843.000000
318.779053 -19.222857 841.000000
319.619049 -19.177143 839.000000
320.451447 -19.131430 837.000000
321.276184 -19.085714 835.000000
322.093323 -19.039999 833.000000
322.125702 -18.948572 829.000000
322.923798 -18.902857 827.000000
323.714294 -18.857143 825.000000
324.497131 -18.811428 823.000000
325.272369 -18.765715 821.000000
326.040009 -18.720001 819.000000
327.600006 -18.720001 819.000000
329.160004 -18.720001 819.000000
329.912384 -18.674286 817.000000
331.468567 -18.674286 817.000000
333.024780 -18.674286 817.000000
334.580963 -18.674286 817.000000
329.142883 -18.285713 800.000000
330.666656 -18.285713 800.000000
332.190491 -18.285713 800.000000
332.880005 -18.240000 798.000000
334.399994 -18.240000 798.000000
335.499054 -18.217142 797.000000
335.325714 -18.125715 793.000000
335.986664 -18.080000 791.000000
337.493317 -18.080000 791.000000
337.714294 -18.011429 788.000000
339.215240 -18.011429 788.000000
339.851440 -17.965714 786.000000
340.480011 -17.920000 784.000000
341.100952 -17.874285 782.000000
341.276184 -17.805714 779.000000
341.880005 -17.759998 777.000000
343.360016 -17.759998 777.000000
343.064758 -17.668571 773.000000
344.091431 -17.645716 772.000000
345.561920 -17.645716 772.000000
347.032379 -17.645716 772.000000
346.697144 -17.554285 768.000000
346.799988 -17.485714 765.000000
348.257141 -17.485714 765.000000
348.800018 -17.440001 763.000000
347.958099 -17.325714 758.000000
348.480011 -17.279999 756.000000
349.457153 -17.257143 755.000000
349.500946 -17.188572 752.000000
350.000000 -17.142857 750.000000
350.022858 -17.074286 747.000000
350.504761 -17.028572 745.000000
351.923828 -17.028572 745.000000
352.394287 -16.982857 743.000000
353.333313 -16.960001 742.000000
354.746674 -16.960001 742.000000
356.160004 -16.960001 742.000000
356.127625 -16.891430 739.000000
357.535248 -16.891430 739.000000
357.971436 -16.845715 737.000000
355.474304 -16.662857 729.000000
356.862885 -16.662857 729.000000
359.234283 -16.708572 731.000000
360.626678 -16.708572 731.000000
362.019073 -16.708572 731.000000
363.411438 -16.708572 731.000000
365.302856 -16.731428 732.000000
366.697144 -16.731428 732.000000
368.091431 -16.731428 732.000000
368.980957 -16.708572 731.000000
370.373352 -16.708572 731.000000
371.765717 -16.708572 731.000000
373.668579 -16.731428 732.000000
376.087646 -16.777143 734.000000
376.457153 -16.731428 732.000000
377.851440 -16.731428 732.000000
379.245728 -16.731428 732.000000
381.680023 -16.777143 734.000000
383.078094 -16.777143 734.000000
385.523834 -16.822857 736.000000
386.925720 -16.822857 736.000000
388.327637 -16.822857 736.000000
389.729523 -16.822857 736.000000
391.662872 -16.845715 737.000000
394.133331 -16.891430 739.000000
395.540955 -16.891430 739.000000
396.948578 -16.891430 739.000000
398.356201 -16.891430 739.000000
399.763824 -16.891430 739.000000
401.714294 -16.914286 740.000000
404.213348 -16.960001 742.000000
405.626648 -16.960001 742.000000
407.588562 -16.982857 743.000000
409.003815 -16.982857 743.000000
411.523804 -17.028572 745.000000
412.942871 -17.028572 745.000000
415.474304 -17.074286 747.000000
416.897156 -17.074286 747.000000
418.880005 -17.097143 748.000000
420.304779 -17.097143 748.000000
421.729523 -17.097143 748.000000
424.285706 -17.142857 750.000000
425.714294 -17.142857 750.000000
427.142853 -17.142857 750.000000
290.679993 -18.920000 903.000000
292.399994 -18.920000 903.000000
293.468567 -18.878096 901.000000
295.184753 -18.878096 901.000000
295.912384 -18.815239 898.000000
296.959991 -18.773335 896.000000
298.666656 -18.773335 896.000000
298.026672 -18.626667 889.000000
299.720001 -18.626667 889.000000
300.735229 -18.584763 887.000000
301.401917 -18.521904 884.000000
302.399994 -18.480001 882.000000
302.700958 -18.396191 878.000000
304.373322 -18.396191 878.000000
306.045715 -18.396191 878.000000
306.666687 -18.333332 875.000000
306.923798 -18.249525 871.000000
307.165710 -18.165714 867.000000
308.104767 -18.123810 865.000000
308.678101 -18.060953 862.000000
309.600006 -18.019049 860.000000
310.514313 -17.977142 858.000000
312.148560 -17.977142 858.000000
313.051422 -17.935238 856.000000
314.681915 -17.935238 856.000000
314.834290 -17.851429 852.000000
315.714294 -17.809523 850.000000
316.586670 -17.767620 848.000000
317.076202 -17.704763 845.000000
317.931458 -17.662857 843.000000
318.779053 -17.620953 841.000000
319.619049 -17.579046 839.000000
320.451447 -17.537144 837.000000
321.276184 -17.495237 835.000000
322.093323 -17.453333 833.000000
322.125702 -17.369524 829.000000
322.923798 -17.327620 827.000000
323.714294 -17.285713 825.000000
324.497131 -17.243811 823.000000
325.272369 -17.201904 821.000000
326.040009 -17.160000 819.000000
327.600006 -17.160000 819.000000
329.160004 -17.160000 819.000000
329.912384 -17.118095 817.000000
331.468567 -17.118095 817.000000
333.024780 -17.118095 817.000000
334.580963 -17.118095 817.000000
330.788574 -16.845715 804.000000
332.320007 -16.845715 804.000000
332.190491 -16.761904 800.000000
333.714264 -16.761904 800.000000
334.399994 -16.720001 798.000000
335.499054 -16.699047 797.000000
335.325714 -16.615238 793.000000
335.986664 -16.573334 791.000000
337.493317 -16.573334 791.000000
338.142883 -16.531427 789.000000
339.215240 -16.510475 788.000000
339.851440 -16.468571 786.000000
340.480011 -16.426668 784.000000
341.100952 -16.384762 782.000000
341.276184 -16.321905 779.000000
341.880005 -16.279999 777.000000
342.476196 -16.238094 775.000000
343.064758 -16.196192 773.000000
344.537140 -16.196192 773.000000
346.009521 -16.196192 773.000000
347.481903 -16.196192 773.000000
346.697144 -16.091429 768.000000
345.893311 -15.986666 763.000000
347.346649 -15.986666 763.000000
347.428558 -15.923809 760.000000
347.040009 -15.839999 756.000000
348.480011 -15.839999 756.000000
349.457153 -15.819049 755.000000
349.500946 -15.756189 752.000000
350.000000 -15.714286 750.000000
350.491425 -15.672382 748.000000
350.504761 -15.609524 745.000000
351.923828 -15.609524 745.000000
352.394287 -15.567619 743.000000
353.333313 -15.546666 742.000000
354.746674 -15.546666 742.000000
356.160004 -15.546666 742.000000
356.127625 -15.483809 739.000000
356.567627 -15.441905 737.000000
357.485718 -15.420953 736.000000
356.449524 -15.316190 731.000000
357.841919 -15.316190 731.000000
359.234283 -15.316190 731.000000
360.626678 -15.316190 731.000000
362.019073 -15.316190 731.000000
363.411438 -15.316190 731.000000
365.302856 -15.337143 732.000000
366.697144 -15.337143 732.000000
368.091431 -15.337143 732.000000
368.980957 -15.316190 731.000000
370.373352 -15.316190 731.000000
371.765717 -15.316190 731.000000
373.668579 -15.337143 732.000000
376.087646 -15.379048 734.000000
376.457153 -15.337143 732.000000
377.851440 -15.337143 732.000000
379.245728 -15.337143 732.000000
381.680023 -15.379048 734.000000
383.078094 -15.379048 734.000000
385.523834 -15.420953 736.000000
386.925720 -15.420953 736.000000
388.327637 -15.420953 736.000000
389.729523 -15.420953 736.000000
391.662872 -15.441905 737.000000
394.133331 -15.483809 739.000000
395.540955 -15.483809 739.000000
396.948578 -15.483809 739.000000
398.895233 -15.504762 740.000000
400.304779 -15.504762 740.000000
402.799988 -15.546666 742.000000
404.213348 -15.546666 742.000000
406.173340 -15.567619 743.000000
407.588562 -15.567619 743.000000
410.104736 -15.609524 745.000000
411.523804 -15.609524 745.000000
412.942871 -15.609524 745.000000
415.474304 -15.651429 747.000000
416.897156 -15.651429 747.000000
418.880005 -15.672382 748.000000
420.304779 -15.672382 748.000000
421.729523 -15.672382 748.000000
424.285706 -15.714286 750.000000
425.714294 -15.714286 750.000000
427.142853 -15.714286 750.000000
288.960022 -17.200001 903.000000
290.679993 -17.200001 903.000000
292.399994 -17.200001 903.000000
293.468567 -17.161905 901.000000
295.184753 -17.161905 901.000000
295.253326 -17.066668 896.000000
296.959991 -17.066668 896.000000
298.000000 -17.028572 894.000000
298.697144 -16.971428 891.000000
299.720001 -16.933332 889.000000
301.413330 -16.933332 889.000000
301.401917 -16.838097 884.000000
302.399994 -16.799999 882.000000
302.700958 -16.723810 878.000000
304.373322 -16.723810 878.000000
306.045715 -16.723810 878.000000
306.666687 -16.666668 875.000000
306.923798 -16.590477 871.000000
307.165710 -16.514286 867.000000
308.104767 -16.476191 865.000000
308.678101 -16.419048 862.000000
309.600006 -16.380953 860.000000
310.514313 -16.342857 858.000000
311.420959 -16.304762 856.000000
313.051422 -16.304762 856.000000
314.681915 -16.304762 856.000000
314.834290 -16.228571 852.000000
315.714294 -16.190477 850.000000
315.466675 -16.095238 845.000000
317.076202 -16.095238 845.000000
317.931458 -16.057142 843.000000
318.779053 -16.019049 841.000000
319.619049 -15.980953 839.000000
320.451447 -15.942857 837.000000
321.276184 -15.904762 835.000000
322.093323 -15.866667 833.000000
322.902863 -15.828572 831.000000
323.704742 -15.790476 829.000000
322.929535 -15.676191 823.000000
324.497131 -15.676191 823.000000
325.272369 -15.638096 821.000000
326.040009 -15.600000 819.000000
327.600006 -15.600000 819.000000
329.160004 -15.600000 819.000000
329.912384 -15.561905 817.000000
330.251434 -15.504762 814.000000
331.801910 -15.504762 814.000000
333.352386 -15.504762 814.000000
330.788574 -15.314285 804.000000
332.320007 -15.314285 804.000000
333.020966 -15.276191 802.000000
333.714264 -15.238095 800.000000
334.399994 -15.200000 798.000000
335.499054 -15.180953 797.000000
335.325714 -15.104762 793.000000
335.986664 -15.066667 791.000000
336.640015 -15.028572 789.000000
338.142883 -15.028572 789.000000
339.215240 -15.009524 788.000000
338.986664 -14.933333 784.000000
339.611450 -14.895238 782.000000
340.228577 -14.857143 780.000000
340.400024 -14.800000 777.000000
341.000000 -14.761905 775.000000
342.476196 -14.761905 775.000000
343.064758 -14.723809 773.000000
344.537140 -14.723809 773.000000
346.009521 -14.723809 773.000000
347.481903 -14.723809 773.000000
346.697144 -14.628572 768.000000
345.893311 -14.533334 763.000000
347.346649 -14.533334 763.000000
346.514282 -14.438095 758.000000
347.040009 -14.400000 756.000000
348.480011 -14.400000 756.000000
349.457153 -14.380952 755.000000
349.500946 -14.323810 752.000000
350.000000 -14.285714 750.000000
350.491425 -14.247620 748.000000
350.504761 -14.190476 745.000000
351.923828 -14.190476 745.000000
352.394287 -14.152381 743.000000
353.333313 -14.133333 742.000000
354.746674 -14.133333 742.000000
356.160004 -14.133333 742.000000
356.609528 -14.095239 740.000000
356.083801 -14.019048 736.000000
356.514282 -13.980952 734.000000
356.937134 -13.942858 732.000000
358.331451 -13.942858 732.000000
359.725708 -13.942858 732.000000
360.626678 -13.923810 731.000000
362.019073 -13.923810 731.000000
363.908569 -13.942858 732.000000
365.302856 -13.942858 732.000000
366.697144 -13.942858 732.000000
368.091431 -13.942858 732.000000
368.980957 -13.923810 731.000000
370.373352 -13.923810 731.000000
371.765717 -13.923810 731.000000
373.668579 -13.942858 732.000000
376.087646 -13.980952 734.000000
377.485718 -13.980952 734.000000
378.883820 -13.980952 734.000000
380.281891 -13.980952 734.000000
381.680023 -13.980952 734.000000
383.078094 -13.980952 734.000000
385.523834 -14.019048 736.000000
386.925720 -14.019048 736.000000
388.327637 -14.019048 736.000000
389.729523 -14.019048 736.000000
391.662872 -14.038095 737.000000
394.133331 -14.076191 739.000000
395.540955 -14.076191 739.000000
396.948578 -14.076191 739.000000
398.895233 -14.095239 740.000000
400.304779 -14.095239 740.000000
402.799988 -14.133333 742.000000
404.758087 -14.152381 743.000000
406.173340 -14.152381 743.000000
407.588562 -14.152381 743.000000
410.104736 -14.190476 745.000000
411.523804 -14.190476 745.000000
414.051453 -14.228571 747.000000
415.474304 -14.228571 747.000000
416.897156 -14.228571 747.000000
418.880005 -14.247620 748.000000
420.304779 -14.247620 748.000000
421.729523 -14.247620 748.000000
424.285706 -14.285714 750.000000
425.714294 -14.285714 750.000000
427.142853 -14.285714 750.000000
288.960022 -15.480000 903.000000
290.679993 -15.480000 903.000000
292.399994 -15.480000 903.000000
293.468567 -15.445715 901.000000
295.184753 -15.445715 901.000000
295.253326 -15.360001 896.000000
296.959991 -15.360001 896.000000
298.000000 -15.325715 894.000000
298.697144 -15.274286 891.000000
299.720001 -15.240000 889.000000
301.413330 -15.240000 889.000000
300.720001 -15.120000 882.000000
301.714294 -15.085714 880.000000
302.700958 -15.051428 878.000000
304.373322 -15.051428 878.000000
306.045715 -15.051428 878.000000
307.718109 -15.051428 878.000000
307.628571 -14.965714 873.000000
307.165710 -14.862857 867.000000
308.104767 -14.828571 865.000000
307.961914 -14.742857 860.000000
309.600006 -14.742857 860.000000
309.790497 -14.674286 856.000000
311.420959 -14.674286 856.000000
313.051422 -14.674286 856.000000
313.946655 -14.639999 854.000000
314.834290 -14.605714 852.000000
315.714294 -14.571428 850.000000
315.466675 -14.485714 845.000000
317.076202 -14.485714 845.000000
317.931458 -14.451428 843.000000
318.779053 -14.417143 841.000000
319.619049 -14.382857 839.000000
320.451447 -14.348571 837.000000
321.276184 -14.314285 835.000000
322.093323 -14.280000 833.000000
322.902863 -14.245714 831.000000
323.704742 -14.211429 829.000000
322.929535 -14.108571 823.000000
324.497131 -14.108571 823.000000
325.272369 -14.074286 821.000000
326.836212 -14.074286 821.000000
327.600006 -14.040000 819.000000
329.160004 -14.040000 819.000000
329.912384 -14.005714 817.000000
330.251434 -13.954286 814.000000
330.986664 -13.920000 812.000000
332.533325 -13.920000 812.000000
330.788574 -13.782857 804.000000
332.320007 -13.782857 804.000000
333.020966 -13.748571 802.000000
333.714264 -13.714286 800.000000
334.399994 -13.680000 798.000000
335.499054 -13.662857 797.000000
335.325714 -13.594286 793.000000
335.986664 -13.559999 791.000000
336.640015 -13.525714 789.000000
337.714294 -13.508572 788.000000
338.354279 -13.474285 786.000000
338.986664 -13.440000 784.000000
339.611450 -13.405714 782.000000
340.228577 -13.371428 780.000000
340.400024 -13.320000 777.000000
341.000000 -13.285714 775.000000
342.476196 -13.285714 775.000000
343.952393 -13.285714 775.000000
345.428589 -13.285714 775.000000
346.009521 -13.251429 773.000000
347.032379 -13.234285 772.000000
346.697144 -13.165714 768.000000
346.799988 -13.114285 765.000000
347.346649 -13.080000 763.000000
346.514282 -12.994286 758.000000
347.040009 -12.960000 756.000000
348.480011 -12.960000 756.000000
349.457153 -12.942857 755.000000
348.571411 -12.857142 750.000000
350.000000 -12.857142 750.000000
350.491425 -12.822857 748.000000
351.445709 -12.805715 747.000000
351.923828 -12.771428 745.000000
352.394287 -12.737143 743.000000
353.333313 -12.720000 742.000000
353.790497 -12.685715 740.000000
354.720001 -12.668571 739.000000
355.163818 -12.634286 737.000000
355.116180 -12.582857 734.000000
355.542877 -12.548572 732.000000
356.449524 -12.531428 731.000000
357.841919 -12.531428 731.000000
359.234283 -12.531428 731.000000
360.626678 -12.531428 731.000000
362.019073 -12.531428 731.000000
363.411438 -12.531428 731.000000
364.803833 -12.531428 731.000000
366.196198 -12.531428 731.000000
367.588593 -12.531428 731.000000
368.980957 -12.531428 731.000000
370.373352 -12.531428 731.000000
371.765717 -12.531428 731.000000
373.158112 -12.531428 731.000000
376.087646 -12.582857 734.000000
377.485718 -12.582857 734.000000
378.883820 -12.582857 734.000000
380.281891 -12.582857 734.000000
382.720001 -12.617143 736.000000
384.121887 -12.617143 736.000000
385.523834 -12.617143 736.000000
386.925720 -12.617143 736.000000
388.327637 -12.617143 736.000000
389.729523 -12.617143 736.000000
391.662872 -12.634286 737.000000
394.133331 -12.668571 739.000000
395.540955 -12.668571 739.000000
396.948578 -12.668571 739.000000
398.895233 -12.685715 740.000000
400.304779 -12.685715 740.000000
403.342865 -12.737143 743.000000
404.758087 -12.737143 743.000000
406.173340 -12.737143 743.000000
408.685699 -12.771428 745.000000
410.104736 -12.771428 745.000000
411.523804 -12.771428 745.000000
412.942871 -12.771428 745.000000
415.474304 -12.805715 747.000000
416.897156 -12.805715 747.000000
418.320007 -12.805715 747.000000
419.742859 -12.805715 747.000000
421.729523 -12.822857 748.000000
424.285706 -12.857142 750.000000
425.714294 -12.857142 750.000000
428.281891 -12.891429 752.000000
430.285736 -12.908571 753.000000
288.960022 -13.760000 903.000000
290.679993 -13.760000 903.000000
292.399994 -13.760000 903.000000
293.468567 -13.729524 901.000000
295.184753 -13.729524 901.000000
295.912384 -13.683810 898.000000
296.959991 -13.653334 896.000000
298.000000 -13.622858 894.000000
299.702850 -13.622858 894.000000
299.720001 -13.546667 889.000000
300.735229 -13.516191 887.000000
300.720001 -13.440000 882.000000
301.714294 -13.409524 880.000000
302.700958 -13.379047 878.000000
304.373322 -13.379047 878.000000
306.045715 -13.379047 878.000000
307.718109 -13.379047 878.000000
308.333344 -13.333334 875.000000
307.165710 -13.211429 867.000000
308.104767 -13.180952 865.000000
307.961914 -13.104762 860.000000
309.600006 -13.104762 860.000000
309.790497 -13.043810 856.000000
311.420959 -13.043810 856.000000
313.051422 -13.043810 856.000000
313.946655 -13.013333 854.000000
314.834290 -12.982858 852.000000
315.714294 -12.952381 850.000000
315.466675 -12.876190 845.000000
317.076202 -12.876190 845.000000
317.931458 -12.845715 843.000000
318.779053 -12.815238 841.000000
319.619049 -12.784762 839.000000
320.451447 -12.754286 837.000000
321.276184 -12.723810 835.000000
322.866669 -12.723810 835.000000
323.680023 -12.693334 833.000000
323.704742 -12.632381 829.000000
322.929535 -12.540953 823.000000
324.497131 -12.540953 823.000000
325.272369 -12.510477 821.000000
326.836212 -12.510477 821.000000
327.600006 -12.480000 819.000000
328.356201 -12.449523 817.000000
329.104736 -12.419047 815.000000
330.251434 -12.403810 814.000000
330.986664 -12.373334 812.000000
332.533325 -12.373334 812.000000
329.965698 -12.220953 802.000000
331.493347 -12.220953 802.000000
332.190491 -12.190476 800.000000
333.714264 -12.190476 800.000000
334.399994 -12.160001 798.000000
335.499054 -12.144762 797.000000
335.325714 -12.083810 793.000000
335.986664 -12.053333 791.000000
336.640015 -12.022858 789.000000
337.714294 -12.007619 788.000000
338.354279 -11.977142 786.000000
338.986664 -11.946667 784.000000
339.611450 -11.916190 782.000000
341.100952 -11.916190 782.000000
341.276184 -11.870477 779.000000
341.000000 -11.809525 775.000000
342.476196 -11.809525 775.000000
343.952393 -11.809525 775.000000
344.537140 -11.779048 773.000000
346.009521 -11.779048 773.000000
347.032379 -11.763809 772.000000
346.697144 -11.702857 768.000000
346.799988 -11.657143 765.000000
347.346649 -11.626666 763.000000
346.514282 -11.550476 758.000000
347.040009 -11.520000 756.000000
348.019073 -11.504762 755.000000
349.457153 -11.504762 755.000000
348.571411 -11.428572 750.000000
350.000000 -11.428572 750.000000
350.491425 -11.398096 748.000000
351.445709 -11.382857 747.000000
351.923828 -11.352381 745.000000
352.394287 -11.321905 743.000000
353.333313 -11.306666 742.000000
353.790497 -11.276190 740.000000
354.720001 -11.260953 739.000000
355.163818 -11.230476 737.000000
355.116180 -11.184762 734.000000
355.542877 -11.154285 732.000000
356.449524 -11.139048 731.000000
357.841919 -11.139048 731.000000
359.234283 -11.139048 731.000000
360.626678 -11.139048 731.000000
362.019073 -11.139048 731.000000
363.411438 -11.139048 731.000000
364.803833 -11.139048 731.000000
366.196198 -11.139048 731.000000
367.588593 -11.139048 731.000000
368.980957 -11.139048 731.000000
370.373352 -11.139048 731.000000
371.765717 -11.139048 731.000000
373.158112 -11.139048 731.000000
376.087646 -11.184762 734.000000
377.485718 -11.184762 734.000000
378.883820 -11.184762 734.000000
381.318085 -11.215238 736.000000
382.720001 -11.215238 736.000000
384.121887 -11.215238 736.000000
385.523834 -11.215238 736.000000
386.925720 -11.215238 736.000000
388.327637 -11.215238 736.000000
389.729523 -11.215238 736.000000
391.662872 -11.230476 737.000000
394.133331 -11.260953 739.000000
396.076202 -11.276190 740.000000
397.485718 -11.276190 740.000000
399.973328 -11.306666 742.000000
401.386688 -11.306666 742.000000
403.342865 -11.321905 743.000000
404.758087 -11.321905 743.000000
406.173340 -11.321905 743.000000
407.588562 -11.321905 743.000000
410.104736 -11.352381 745.000000
411.523804 -11.352381 745.000000
412.942871 -11.352381 745.000000
415.474304 -11.382857 747.000000
416.897156 -11.382857 747.000000
418.320007 -11.382857 747.000000
419.742859 -11.382857 747.000000
421.729523 -11.398096 748.000000
424.285706 -11.428572 750.000000
425.714294 -11.428572 750.000000
427.142853 -11.428572 750.000000
428.571442 -11.428572 750.000000
431.146667 -11.459048 752.000000
433.154297 -11.474286 753.000000
291.323822 -12.066667 905.000000
293.047607 -12.066667 905.000000
294.120026 -12.040000 903.000000
295.839996 -12.040000 903.000000
295.912384 -11.973333 898.000000
297.622864 -11.973333 898.000000
298.000000 -11.920000 894.000000
298.697144 -11.880000 891.000000
299.720001 -11.853333 889.000000
300.735229 -11.826667 887.000000
301.401917 -11.786667 884.000000
301.714294 -11.733334 880.000000
302.700958 -11.706667 878.000000
304.373322 -11.706667 878.000000
305.000000 -11.666667 875.000000
306.666687 -11.666667 875.000000
307.628571 -11.640000 873.000000
307.165710 -11.560000 867.000000
308.104767 -11.533333 865.000000
308.678101 -11.493334 862.000000
309.600006 -11.466667 860.000000
310.514313 -11.440001 858.000000
311.420959 -11.413333 856.000000
313.051422 -11.413333 856.000000
313.946655 -11.386666 854.000000
314.095215 -11.333333 850.000000
315.714294 -11.333333 850.000000
314.720001 -11.240000 843.000000
316.325714 -11.240000 843.000000
317.177155 -11.213333 841.000000
318.020935 -11.186666 839.000000
318.857147 -11.160000 837.000000
320.451447 -11.160000 837.000000
321.276184 -11.133333 835.000000
322.866669 -11.133333 835.000000
323.680023 -11.106668 833.000000
323.704742 -11.053333 829.000000
322.929535 -10.973333 823.000000
323.708557 -10.946667 821.000000
325.272369 -10.946667 821.000000
326.836212 -10.946667 821.000000
327.600006 -10.920000 819.000000
328.356201 -10.893333 817.000000
329.104736 -10.866667 815.000000
330.251434 -10.853333 814.000000
330.986664 -10.826667 812.000000
332.533325 -10.826667 812.000000
329.965698 -10.693333 802.000000
331.493347 -10.693333 802.000000
332.190491 -10.666667 800.000000
332.880005 -10.640000 798.000000
333.980957 -10.626667 797.000000
334.657135 -10.599999 795.000000
335.325714 -10.573333 793.000000
335.986664 -10.546666 791.000000
337.493317 -10.546666 791.000000
338.142883 -10.520000 789.000000
338.354279 -10.480000 786.000000
338.986664 -10.453333 784.000000
340.480011 -10.453333 784.000000
341.100952 -10.426666 782.000000
341.276184 -10.386666 779.000000
341.000000 -10.333333 775.000000
342.476196 -10.333333 775.000000
343.952393 -10.333333 775.000000
344.537140 -10.306666 773.000000
345.561920 -10.293334 772.000000
347.032379 -10.293334 772.000000
347.600006 -10.266666 770.000000
347.706665 -10.226667 767.000000
347.346649 -10.173334 763.000000
346.514282 -10.106667 758.000000
347.040009 -10.080000 756.000000
348.019073 -10.066667 755.000000
349.457153 -10.066667 755.000000
348.571411 -10.000000 750.000000
350.000000 -10.000000 750.000000
351.428558 -10.000000 750.000000
351.445709 -9.960000 747.000000
351.923828 -9.933333 745.000000
352.394287 -9.906667 743.000000
353.333313 -9.893333 742.000000
354.746674 -9.893333 742.000000
354.720001 -9.853333 739.000000
355.163818 -9.826667 737.000000
356.083801 -9.813333 736.000000
356.514282 -9.786666 734.000000
356.937134 -9.760000 732.000000
358.331451 -9.760000 732.000000
359.725708 -9.760000 732.000000
360.626678 -9.746667 731.000000
362.019073 -9.746667 731.000000
363.411438 -9.746667 731.000000
364.803833 -9.746667 731.000000
366.196198 -9.746667 731.000000
366.582886 -9.720000 729.000000
367.971436 -9.720000 729.000000
369.359985 -9.720000 729.000000
371.765717 -9.746667 731.000000
373.668579 -9.760000 732.000000
376.087646 -9.786666 734.000000
377.485718 -9.786666 734.000000
378.883820 -9.786666 734.000000
381.318085 -9.813333 736.000000
382.720001 -9.813333 736.000000
384.121887 -9.813333 736.000000
385.523834 -9.813333 736.000000
386.925720 -9.813333 736.000000
388.327637 -9.813333 736.000000
390.259064 -9.826667 737.000000
391.131439 -9.813333 736.000000
392.533325 -9.813333 736.000000
394.470490 -9.826667 737.000000
396.948578 -9.853333 739.000000
399.973328 -9.893333 742.000000
401.386688 -9.893333 742.000000
403.342865 -9.906667 743.000000
404.758087 -9.906667 743.000000
406.173340 -9.906667 743.000000
407.588562 -9.906667 743.000000
410.104736 -9.933333 745.000000
411.523804 -9.933333 745.000000
412.942871 -9.933333 745.000000
414.361908 -9.933333 745.000000
415.780975 -9.933333 745.000000
418.320007 -9.960000 747.000000
419.742859 -9.960000 747.000000
421.165710 -9.960000 747.000000
424.285706 -10.000000 750.000000
425.714294 -10.000000 750.000000
427.142853 -10.000000 750.000000
428.571442 -10.000000 750.000000
431.146667 -10.026667 752.000000
433.154297 -10.040000 753.000000
292.399994 -10.320001 903.000000
294.120026 -10.320001 903.000000
295.839996 -10.320001 903.000000
295.912384 -10.262857 898.000000
296.959991 -10.240000 896.000000
298.000000 -10.217143 894.000000
298.697144 -10.182858 891.000000
299.720001 -10.160000 889.000000
300.735229 -10.137142 887.000000
300.720001 -10.080000 882.000000
301.714294 -10.057143 880.000000
302.700958 -10.034286 878.000000
304.373322 -10.034286 878.000000
305.000000 -10.000000 875.000000
306.666687 -10.000000 875.000000
307.628571 -9.977143 873.000000
307.874298 -9.931428 869.000000
308.817139 -9.908572 867.000000
308.678101 -9.851429 862.000000
309.600006 -9.828571 860.000000
310.514313 -9.805715 858.000000
311.420959 -9.782857 856.000000
313.051422 -9.782857 856.000000
313.946655 -9.760000 854.000000
314.095215 -9.714286 850.000000
315.714294 -9.714286 850.000000
314.720001 -9.634286 843.000000
316.325714 -9.634286 843.000000
317.177155 -9.611428 841.000000
318.020935 -9.588572 839.000000
318.857147 -9.565715 837.000000
320.451447 -9.565715 837.000000
321.276184 -9.542857 835.000000
322.866669 -9.542857 835.000000
323.680023 -9.520000 833.000000
323.704742 -9.474286 829.000000
322.929535 -9.405714 823.000000
323.708557 -9.382857 821.000000
325.272369 -9.382857 821.000000
326.040009 -9.360001 819.000000
326.799988 -9.337143 817.000000
327.552368 -9.314285 815.000000
328.700958 -9.302857 814.000000
329.440002 -9.280000 812.000000
330.171448 -9.257143 810.000000
330.076202 -9.211429 806.000000
329.965698 -9.165714 802.000000
331.493347 -9.165714 802.000000
332.190491 -9.142857 800.000000
332.880005 -9.120000 798.000000
333.980957 -9.108571 797.000000
334.657135 -9.085714 795.000000
335.325714 -9.062858 793.000000
335.986664 -9.040000 791.000000
337.493317 -9.040000 791.000000
338.142883 -9.017142 789.000000
339.215240 -9.005714 788.000000
339.851440 -8.982857 786.000000
340.480011 -8.960000 784.000000
341.100952 -8.937142 782.000000
341.276184 -8.902857 779.000000
341.000000 -8.857143 775.000000
342.476196 -8.857143 775.000000
343.952393 -8.857143 775.000000
344.537140 -8.834286 773.000000
345.561920 -8.822858 772.000000
347.032379 -8.822858 772.000000
347.600006 -8.800000 770.000000
348.160004 -8.777143 768.000000
347.346649 -8.720000 763.000000
345.600006 -8.639999 756.000000
346.580963 -8.628572 755.000000
347.097168 -8.605714 753.000000
348.531433 -8.605714 753.000000
348.571411 -8.571428 750.000000
350.000000 -8.571428 750.000000
351.428558 -8.571428 750.000000
351.916199 -8.548572 748.000000
352.868591 -8.537143 747.000000
353.342865 -8.514286 745.000000
353.809540 -8.491428 743.000000
354.746674 -8.480000 742.000000
354.720001 -8.445715 739.000000
355.163818 -8.422857 737.000000
356.083801 -8.411428 736.000000
357.485718 -8.411428 736.000000
357.912384 -8.388572 734.000000
358.331451 -8.365714 732.000000
359.725708 -8.365714 732.000000
360.626678 -8.354286 731.000000
362.019073 -8.354286 731.000000
363.411438 -8.354286 731.000000
364.803833 -8.354286 731.000000
365.194305 -8.331429 729.000000
366.582886 -8.331429 729.000000
367.971436 -8.331429 729.000000
369.359985 -8.331429 729.000000
371.765717 -8.354286 731.000000
373.668579 -8.365714 732.000000
375.062866 -8.365714 732.000000
377.485718 -8.388572 734.000000
378.883820 -8.388572 734.000000
381.318085 -8.411428 736.000000
382.720001 -8.411428 736.000000
384.121887 -8.411428 736.000000
385.523834 -8.411428 736.000000
386.925720 -8.411428 736.000000
388.327637 -8.411428 736.000000
390.259064 -8.422857 737.000000
391.131439 -8.411428 736.000000
392.533325 -8.411428 736.000000
394.470490 -8.422857 737.000000
396.948578 -8.445715 739.000000
399.973328 -8.480000 742.000000
401.386688 -8.480000 742.000000
403.342865 -8.491428 743.000000
404.758087 -8.491428 743.000000
406.173340 -8.491428 743.000000
407.588562 -8.491428 743.000000
410.104736 -8.514286 745.000000
411.523804 -8.514286 745.000000
412.942871 -8.514286 745.000000
414.361908 -8.514286 745.000000
415.780975 -8.514286 745.000000
418.320007 -8.537143 747.000000
419.742859 -8.537143 747.000000
421.165710 -8.537143 747.000000
424.285706 -8.571428 750.000000
425.714294 -8.571428 750.000000
427.142853 -8.571428 750.000000
428.571442 -8.571428 750.000000
431.146667 -8.594286 752.000000
292.399994 -8.600000 903.000000
294.120026 -8.600000 903.000000
295.839996 -8.600000 903.000000
295.912384 -8.552381 898.000000
296.297119 -8.514286 894.000000
297.000000 -8.485714 891.000000
298.026672 -8.466666 889.000000
299.720001 -8.466666 889.000000
300.735229 -8.447619 887.000000
300.720001 -8.400000 882.000000
301.714294 -8.380952 880.000000
302.700958 -8.361905 878.000000
304.373322 -8.361905 878.000000
305.000000 -8.333334 875.000000
306.666687 -8.333334 875.000000
307.628571 -8.314285 873.000000
307.874298 -8.276191 869.000000
308.817139 -8.257143 867.000000
309.752380 -8.238095 865.000000
310.319977 -8.209524 862.000000
311.238098 -8.190476 860.000000
312.148560 -8.171429 858.000000
313.051422 -8.152381 856.000000
313.946655 -8.133333 854.000000
314.834290 -8.114285 852.000000
314.971405 -8.076191 848.000000
315.466675 -8.047619 845.000000
316.325714 -8.028571 843.000000
317.931458 -8.028571 843.000000
318.779053 -8.009524 841.000000
319.619049 -7.990477 839.000000
320.451447 -7.971428 837.000000
322.045715 -7.971428 837.000000
322.866669 -7.952381 835.000000
323.680023 -7.933333 833.000000
323.704742 -7.895238 829.000000
322.929535 -7.838096 823.000000
323.708557 -7.819048 821.000000
325.272369 -7.819048 821.000000
326.040009 -7.800000 819.000000
326.799988 -7.780952 817.000000
327.552368 -7.761905 815.000000
328.700958 -7.752381 814.000000
329.440002 -7.733334 812.000000
330.171448 -7.714286 810.000000
330.076202 -7.676191 806.000000
329.965698 -7.638095 802.000000
331.493347 -7.638095 802.000000
332.190491 -7.619048 800.000000
332.880005 -7.600000 798.000000
334.399994 -7.600000 798.000000
334.657135 -7.571429 795.000000
335.325714 -7.552381 793.000000
335.986664 -7.533333 791.000000
337.493317 -7.533333 791.000000
338.142883 -7.514286 789.000000
339.215240 -7.504762 788.000000
339.851440 -7.485714 786.000000
340.480011 -7.466667 784.000000
341.100952 -7.447619 782.000000
341.714294 -7.428572 780.000000
341.880005 -7.400000 777.000000
343.360016 -7.400000 777.000000
343.952393 -7.380952 775.000000
344.537140 -7.361905 773.000000
346.009521 -7.361905 773.000000
347.032379 -7.352381 772.000000
347.600006 -7.333333 770.000000
348.160004 -7.314286 768.000000
347.346649 -7.266667 763.000000
345.600006 -7.200000 756.000000
346.580963 -7.190476 755.000000
347.097168 -7.171429 753.000000
348.531433 -7.171429 753.000000
349.500946 -7.161905 752.000000
350.000000 -7.142857 750.000000
351.428558 -7.142857 750.000000
351.916199 -7.123810 748.000000
352.868591 -7.114285 747.000000
354.291443 -7.114285 747.000000
353.809540 -7.076190 743.000000
354.746674 -7.066667 742.000000
353.760010 -7.019048 737.000000
355.163818 -7.019048 737.000000
356.083801 -7.009524 736.000000
357.485718 -7.009524 736.000000
357.912384 -6.990476 734.000000
359.310486 -6.990476 734.000000
359.725708 -6.971429 732.000000
360.626678 -6.961905 731.000000
362.019073 -6.961905 731.000000
363.411438 -6.961905 731.000000
364.803833 -6.961905 731.000000
365.194305 -6.942857 729.000000
366.582886 -6.942857 729.000000
367.971436 -6.942857 729.000000
369.359985 -6.942857 729.000000
371.765717 -6.961905 731.000000
373.158112 -6.961905 731.000000
374.550507 -6.961905 731.000000
375.942871 -6.961905 731.000000
378.883820 -6.990476 734.000000
381.318085 -7.009524 736.000000
382.720001 -7.009524 736.000000
384.121887 -7.009524 736.000000
385.523834 -7.009524 736.000000
386.925720 -7.009524 736.000000
388.327637 -7.009524 736.000000
390.259064 -7.019048 737.000000
391.662872 -7.019048 737.000000
393.066681 -7.019048 737.000000
394.470490 -7.019048 737.000000
396.948578 -7.038095 739.000000
398.895233 -7.047619 740.000000
401.386688 -7.066667 742.000000
403.342865 -7.076190 743.000000
404.758087 -7.076190 743.000000
406.173340 -7.076190 743.000000
407.588562 -7.076190 743.000000
409.003815 -7.076190 743.000000
411.523804 -7.095238 745.000000
412.942871 -7.095238 745.000000
414.361908 -7.095238 745.000000
415.780975 -7.095238 745.000000
418.320007 -7.114285 747.000000
420.304779 -7.123810 748.000000
421.729523 -7.123810 748.000000
423.154297 -7.123810 748.000000
425.714294 -7.142857 750.000000
427.142853 -7.142857 750.000000
428.571442 -7.142857 750.000000
431.146667 -7.161905 752.000000
293.047607 -6.895238 905.000000
294.771423 -6.895238 905.000000
296.495239 -6.895238 905.000000
296.900970 -6.864762 901.000000
296.297119 -6.811429 894.000000
297.000000 -6.788571 891.000000
298.026672 -6.773334 889.000000
299.045715 -6.758095 887.000000
299.718109 -6.735238 884.000000
300.720001 -6.720000 882.000000
301.714294 -6.704762 880.000000
302.700958 -6.689524 878.000000
304.373322 -6.689524 878.000000
305.000000 -6.666667 875.000000
306.666687 -6.666667 875.000000
307.628571 -6.651429 873.000000
307.874298 -6.620953 869.000000
308.817139 -6.605714 867.000000
309.752380 -6.590476 865.000000
310.319977 -6.567619 862.000000
311.238098 -6.552381 860.000000
312.148560 -6.537143 858.000000
313.782867 -6.537143 858.000000
313.946655 -6.506667 854.000000
314.834290 -6.491429 852.000000
314.971405 -6.460953 848.000000
315.466675 -6.438095 845.000000
316.325714 -6.422857 843.000000
317.931458 -6.422857 843.000000
318.779053 -6.407619 841.000000
319.619049 -6.392381 839.000000
320.451447 -6.377143 837.000000
322.045715 -6.377143 837.000000
322.866669 -6.361905 835.000000
323.680023 -6.346667 833.000000
323.704742 -6.316191 829.000000
322.929535 -6.270476 823.000000
323.708557 -6.255239 821.000000
325.272369 -6.255239 821.000000
326.836212 -6.255239 821.000000
327.600006 -6.240000 819.000000
327.552368 -6.209524 815.000000
328.700958 -6.201905 814.000000
330.251434 -6.201905 814.000000
330.171448 -6.171429 810.000000
330.076202 -6.140953 806.000000
329.965698 -6.110476 802.000000
331.493347 -6.110476 802.000000
332.190491 -6.095238 800.000000
332.880005 -6.080000 798.000000
333.980957 -6.072381 797.000000
334.657135 -6.057143 795.000000
335.325714 -6.041905 793.000000
335.986664 -6.026667 791.000000
337.493317 -6.026667 791.000000
338.142883 -6.011429 789.000000
339.215240 -6.003809 788.000000
339.851440 -5.988571 786.000000
340.480011 -5.973333 784.000000
341.100952 -5.958095 782.000000
341.714294 -5.942857 780.000000
342.760010 -5.935238 779.000000
344.243835 -5.935238 779.000000
344.839996 -5.920000 777.000000
345.428589 -5.904762 775.000000
346.009521 -5.889524 773.000000
347.032379 -5.881905 772.000000
347.600006 -5.866667 770.000000
348.160004 -5.851429 768.000000
348.257141 -5.828571 765.000000
347.885742 -5.798095 761.000000
346.580963 -5.752381 755.000000
347.097168 -5.737143 753.000000
348.531433 -5.737143 753.000000
349.500946 -5.729524 752.000000
350.000000 -5.714286 750.000000
351.428558 -5.714286 750.000000
351.916199 -5.699048 748.000000
352.868591 -5.691429 747.000000
354.291443 -5.691429 747.000000
354.761902 -5.676190 745.000000
354.746674 -5.653333 742.000000
353.760010 -5.615238 737.000000
355.163818 -5.615238 737.000000
356.083801 -5.607619 736.000000
357.485718 -5.607619 736.000000
357.912384 -5.592381 734.000000
359.310486 -5.592381 734.000000
359.725708 -5.577143 732.000000
360.626678 -5.569524 731.000000
362.019073 -5.569524 731.000000
363.411438 -5.569524 731.000000
364.803833 -5.569524 731.000000
365.194305 -5.554286 729.000000
366.582886 -5.554286 729.000000
367.971436 -5.554286 729.000000
369.359985 -5.554286 729.000000
371.765717 -5.569524 731.000000
373.158112 -5.569524 731.000000
374.550507 -5.569524 731.000000
375.942871 -5.569524 731.000000
378.883820 -5.592381 734.000000
381.318085 -5.607619 736.000000
382.720001 -5.607619 736.000000
384.121887 -5.607619 736.000000
385.523834 -5.607619 736.000000
386.925720 -5.607619 736.000000
388.327637 -5.607619 736.000000
390.259064 -5.615238 737.000000
391.662872 -5.615238 737.000000
393.066681 -5.615238 737.000000
395.540955 -5.630476 739.000000
396.948578 -5.630476 739.000000
398.895233 -5.638095 740.000000
401.386688 -5.653333 742.000000
402.799988 -5.653333 742.000000
404.213348 -5.653333 742.000000
405.626648 -5.653333 742.000000
407.588562 -5.660953 743.000000
409.003815 -5.660953 743.000000
411.523804 -5.676190 745.000000
412.942871 -5.676190 745.000000
414.361908 -5.676190 745.000000
415.780975 -5.676190 745.000000
418.320007 -5.691429 747.000000
420.304779 -5.699048 748.000000
421.729523 -5.699048 748.000000
423.154297 -5.699048 748.000000
425.714294 -5.714286 750.000000
427.142853 -5.714286 750.000000
428.571442 -5.714286 750.000000
293.047607 -5.171428 905.000000
294.771423 -5.171428 905.000000
295.839996 -5.160000 903.000000
296.900970 -5.148571 901.000000
296.297119 -5.108572 894.000000
296.333344 -5.080000 889.000000
298.026672 -5.080000 889.000000
299.045715 -5.068571 887.000000
299.718109 -5.051428 884.000000
300.720001 -5.040000 882.000000
301.714294 -5.028572 880.000000
302.700958 -5.017143 878.000000
304.373322 -5.017143 878.000000
306.045715 -5.017143 878.000000
306.666687 -5.000000 875.000000
307.628571 -4.988572 873.000000
307.874298 -4.965714 869.000000
308.817139 -4.954286 867.000000
309.752380 -4.942857 865.000000
310.319977 -4.925714 862.000000
311.238098 -4.914286 860.000000
