271.481903 360.594299 1088.000000
273.554291 360.594299 1088.000000
276.386688 361.588562 1091.000000
278.464752 361.588562 1091.000000
280.542847 361.588562 1091.000000
282.620972 361.588562 1091.000000
283.916199 360.594299 1088.000000
285.988556 360.594299 1088.000000
287.266663 359.600006 1085.000000
289.333344 359.600006 1085.000000
291.400024 359.600006 1085.000000
293.466644 359.600006 1085.000000
294.443817 358.274292 1081.000000
295.680023 357.280029 1078.000000
297.733337 357.280029 1078.000000
300.620941 358.274292 1081.000000
301.839996 357.280029 1078.000000
303.893341 357.280029 1078.000000
305.946686 357.280029 1078.000000
306.857147 355.954285 1074.000000
308.902863 355.954285 1074.000000
309.211426 353.965729 1068.000000
311.245697 353.965729 1068.000000
313.280029 353.965729 1068.000000
314.133331 352.640015 1064.000000
316.160004 352.640015 1064.000000
318.186676 352.640015 1064.000000
320.213348 352.640015 1064.000000
322.239990 352.640015 1064.000000
324.266663 352.640015 1064.000000
326.293335 352.640015 1064.000000
328.320007 352.640015 1064.000000
329.415222 351.645721 1061.000000
331.436188 351.645721 1061.000000
333.457153 351.645721 1061.000000
335.478088 351.645721 1061.000000
338.453308 352.640015 1064.000000
340.480011 352.640015 1064.000000
342.506683 352.640015 1064.000000
344.533325 352.640015 1064.000000
346.559998 352.640015 1064.000000
353.173340 357.280029 1078.000000
358.521912 360.594299 1088.000000
361.588562 361.588562 1091.000000
363.666687 361.588562 1091.000000
368.091431 363.908569 1098.000000
371.531433 365.234283 1102.000000
376.003815 367.554291 1109.000000
380.502838 369.874298 1116.000000
384.000000 371.199982 1120.000000
387.167633 372.194275 1123.000000
390.693329 373.520020 1127.000000
394.234314 374.845703 1131.000000
397.440002 375.839996 1134.000000
401.009521 377.165710 1138.000000
406.011444 379.817169 1146.000000
408.194275 379.817169 1146.000000
410.377136 379.817169 1146.000000
412.560028 379.817169 1146.000000
414.742859 379.817169 1146.000000
416.925720 379.817169 1146.000000
265.264740 362.666656 1088.000000
267.337158 362.666656 1088.000000
269.409546 362.666656 1088.000000
271.481903 362.666656 1088.000000
273.554291 362.666656 1088.000000
275.626648 362.666656 1088.000000
277.699066 362.666656 1088.000000
279.771423 362.666656 1088.000000
281.843811 362.666656 1088.000000
283.133331 361.666687 1085.000000
285.200012 361.666687 1085.000000
287.266663 361.666687 1085.000000
289.333344 361.666687 1085.000000
291.400024 361.666687 1085.000000
292.384766 360.333313 1081.000000
294.443817 360.333313 1081.000000
295.680023 359.333344 1078.000000
297.733337 359.333344 1078.000000
300.620941 360.333313 1081.000000
301.839996 359.333344 1078.000000
303.893341 359.333344 1078.000000
305.946686 359.333344 1078.000000
306.857147 358.000000 1074.000000
308.039978 357.000000 1071.000000
310.079987 357.000000 1071.000000
311.245697 356.000000 1068.000000
312.106659 354.666687 1064.000000
314.133331 354.666687 1064.000000
316.160004 354.666687 1064.000000
318.186676 354.666687 1064.000000
320.213348 354.666687 1064.000000
322.239990 354.666687 1064.000000
324.266663 354.666687 1064.000000
326.293335 354.666687 1064.000000
327.394287 353.666656 1061.000000
329.415222 353.666656 1061.000000
331.436188 353.666656 1061.000000
333.457153 353.666656 1061.000000
335.478088 353.666656 1061.000000
338.453308 354.666687 1064.000000
340.480011 354.666687 1064.000000
342.506683 354.666687 1064.000000
344.533325 354.666687 1064.000000
346.559998 354.666687 1064.000000
353.173340 359.333344 1078.000000
358.521912 362.666656 1088.000000
361.588562 363.666687 1091.000000
363.666687 363.666687 1091.000000
368.091431 366.000000 1098.000000
371.531433 367.333313 1102.000000
376.003815 369.666656 1109.000000
379.480011 371.000000 1113.000000
382.628571 372.000000 1116.000000
387.167633 374.333313 1123.000000
390.693329 375.666687 1127.000000
394.234314 377.000000 1131.000000
397.440002 378.000000 1134.000000
401.009521 379.333344 1138.000000
406.011444 382.000000 1146.000000
408.194275 382.000000 1146.000000
410.377136 382.000000 1146.000000
414.000000 383.333313 1150.000000
416.190460 383.333313 1150.000000
418.380951 383.333313 1150.000000
258.720001 361.386658 1078.000000
263.192383 364.739075 1088.000000
265.264740 364.739075 1088.000000
267.337158 364.739075 1088.000000
269.409546 364.739075 1088.000000
271.481903 364.739075 1088.000000
273.554291 364.739075 1088.000000
275.626648 364.739075 1088.000000
277.699066 364.739075 1088.000000
279.771423 364.739075 1088.000000
281.843811 364.739075 1088.000000
283.133331 363.733307 1085.000000
285.200012 363.733307 1085.000000
287.266663 363.733307 1085.000000
289.333344 363.733307 1085.000000
291.400024 363.733307 1085.000000
292.384766 362.392395 1081.000000
294.443817 362.392395 1081.000000
296.502869 362.392395 1081.000000
298.561890 362.392395 1081.000000
299.786652 361.386658 1078.000000
301.839996 361.386658 1078.000000
303.893341 361.386658 1078.000000
305.946686 361.386658 1078.000000
306.857147 360.045746 1074.000000
308.039978 359.039978 1071.000000
309.211426 358.034271 1068.000000
310.079987 356.693329 1064.000000
312.106659 356.693329 1064.000000
314.133331 356.693329 1064.000000
316.160004 356.693329 1064.000000
318.186676 356.693329 1064.000000
320.213348 356.693329 1064.000000
322.239990 356.693329 1064.000000
324.266663 356.693329 1064.000000
326.293335 356.693329 1064.000000
327.394287 355.687622 1061.000000
329.415222 355.687622 1061.000000
331.436188 355.687622 1061.000000
333.457153 355.687622 1061.000000
335.478088 355.687622 1061.000000
337.499054 355.687622 1061.000000
340.480011 356.693329 1064.000000
342.506683 356.693329 1064.000000
344.533325 356.693329 1064.000000
346.559998 356.693329 1064.000000
354.156189 362.392395 1081.000000
358.521912 364.739075 1088.000000
361.588562 365.744781 1091.000000
363.666687 365.744781 1091.000000
367.085724 367.085724 1095.000000
370.182861 368.091431 1098.000000
376.003815 371.779053 1109.000000
378.116180 371.779053 1109.000000
382.628571 374.125732 1116.000000
387.167633 376.472382 1123.000000
390.693329 377.813354 1127.000000
392.839996 377.813354 1127.000000
397.440002 380.160004 1134.000000
399.600006 380.160004 1134.000000
406.011444 384.182861 1146.000000
408.194275 384.182861 1146.000000
410.377136 384.182861 1146.000000
414.000000 385.523834 1150.000000
416.190460 385.523834 1150.000000
418.380951 385.523834 1150.000000
258.720001 363.440002 1078.000000
260.773346 363.440002 1078.000000
264.533356 365.799988 1085.000000
267.337158 366.811432 1088.000000
269.409546 366.811432 1088.000000
271.481903 366.811432 1088.000000
273.554291 366.811432 1088.000000
275.626648 366.811432 1088.000000
277.699066 366.811432 1088.000000
279.771423 366.811432 1088.000000
281.843811 366.811432 1088.000000
283.133331 365.799988 1085.000000
285.200012 365.799988 1085.000000
287.266663 365.799988 1085.000000
289.333344 365.799988 1085.000000
290.325714 364.451447 1081.000000
291.573334 363.440002 1078.000000
293.626678 363.440002 1078.000000
295.680023 363.440002 1078.000000
298.561890 364.451447 1081.000000
299.786652 363.440002 1078.000000
301.839996 363.440002 1078.000000
303.893341 363.440002 1078.000000
305.946686 363.440002 1078.000000
306.857147 362.091431 1074.000000
308.039978 361.079987 1071.000000
309.211426 360.068573 1068.000000
310.079987 358.720001 1064.000000
312.106659 358.720001 1064.000000
314.133331 358.720001 1064.000000
316.160004 358.720001 1064.000000
318.186676 358.720001 1064.000000
320.213348 358.720001 1064.000000
322.239990 358.720001 1064.000000
324.266663 358.720001 1064.000000
326.293335 358.720001 1064.000000
327.394287 357.708588 1061.000000
329.415222 357.708588 1061.000000
331.436188 357.708588 1061.000000
333.457153 357.708588 1061.000000
335.478088 357.708588 1061.000000
337.499054 357.708588 1061.000000
340.480011 358.720001 1064.000000
342.506683 358.720001 1064.000000
344.533325 358.720001 1064.000000
347.862885 360.068573 1068.000000
354.156189 364.451447 1081.000000
357.533325 365.799988 1085.000000
360.594299 366.811432 1088.000000
363.666687 367.822845 1091.000000
367.085724 369.171448 1095.000000
370.182861 370.182861 1098.000000
376.003815 373.891449 1109.000000
378.116180 373.891449 1109.000000
382.628571 376.251434 1116.000000
386.133331 377.600006 1120.000000
390.693329 379.959991 1127.000000
392.839996 379.959991 1127.000000
397.440002 382.320007 1134.000000
399.600006 382.320007 1134.000000
406.011444 386.365723 1146.000000
408.194275 386.365723 1146.000000
411.809540 387.714294 1150.000000
414.000000 387.714294 1150.000000
416.190460 387.714294 1150.000000
418.380951 387.714294 1150.000000
258.720001 365.493317 1078.000000
260.773346 365.493317 1078.000000
263.558075 366.510468 1081.000000
266.600006 367.866669 1085.000000
269.409546 368.883820 1088.000000
271.481903 368.883820 1088.000000
273.554291 368.883820 1088.000000
275.626648 368.883820 1088.000000
277.699066 368.883820 1088.000000
279.771423 368.883820 1088.000000
281.843811 368.883820 1088.000000
283.133331 367.866669 1085.000000
285.200012 367.866669 1085.000000
287.266663 367.866669 1085.000000
288.266663 366.510468 1081.000000
290.325714 366.510468 1081.000000
291.573334 365.493317 1078.000000
293.626678 365.493317 1078.000000
295.680023 365.493317 1078.000000
297.733337 365.493317 1078.000000
299.786652 365.493317 1078.000000
301.839996 365.493317 1078.000000
302.765717 364.137146 1074.000000
304.811432 364.137146 1074.000000
306.857147 364.137146 1074.000000
308.039978 363.119995 1071.000000
309.211426 362.102875 1068.000000
311.245697 362.102875 1068.000000
312.106659 360.746674 1064.000000
314.133331 360.746674 1064.000000
316.160004 360.746674 1064.000000
318.186676 360.746674 1064.000000
320.213348 360.746674 1064.000000
322.239990 360.746674 1064.000000
324.266663 360.746674 1064.000000
325.373322 359.729523 1061.000000
327.394287 359.729523 1061.000000
329.415222 359.729523 1061.000000
331.436188 359.729523 1061.000000
333.457153 359.729523 1061.000000
335.478088 359.729523 1061.000000
337.499054 359.729523 1061.000000
340.480011 360.746674 1064.000000
342.506683 360.746674 1064.000000
344.533325 360.746674 1064.000000
347.862885 362.102875 1068.000000
353.173340 365.493317 1078.000000
357.533325 367.866669 1085.000000
360.594299 368.883820 1088.000000
363.666687 369.900940 1091.000000
367.085724 371.257141 1095.000000
370.182861 372.274292 1098.000000
374.647614 374.647614 1105.000000
378.116180 376.003815 1109.000000
381.600006 377.360016 1113.000000
386.133331 379.733337 1120.000000
389.306671 380.750488 1123.000000
392.839996 382.106659 1127.000000
397.440002 384.480011 1134.000000
399.600006 384.480011 1134.000000
404.594299 387.192383 1142.000000
408.194275 388.548584 1146.000000
411.809540 389.904755 1150.000000
414.000000 389.904755 1150.000000
416.190460 389.904755 1150.000000
419.472382 390.921906 1153.000000
257.759979 366.182861 1074.000000
259.805695 366.182861 1074.000000
262.826691 367.546692 1078.000000
266.600006 369.933350 1085.000000
269.409546 370.956177 1088.000000
271.481903 370.956177 1088.000000
273.554291 370.956177 1088.000000
275.626648 370.956177 1088.000000
277.699066 370.956177 1088.000000
279.771423 370.956177 1088.000000
281.843811 370.956177 1088.000000
283.133331 369.933350 1085.000000
285.200012 369.933350 1085.000000
287.266663 369.933350 1085.000000
288.266663 368.569519 1081.000000
290.325714 368.569519 1081.000000
291.573334 367.546692 1078.000000
293.626678 367.546692 1078.000000
295.680023 367.546692 1078.000000
297.733337 367.546692 1078.000000
298.674286 366.182861 1074.000000
300.720001 366.182861 1074.000000
302.765717 366.182861 1074.000000
304.811432 366.182861 1074.000000
306.000000 365.159973 1071.000000
307.177155 364.137146 1068.000000
309.211426 364.137146 1068.000000
310.079987 362.773315 1064.000000
312.106659 362.773315 1064.000000
314.133331 362.773315 1064.000000
316.160004 362.773315 1064.000000
318.186676 362.773315 1064.000000
319.310486 361.750488 1061.000000
321.331451 361.750488 1061.000000
323.352386 361.750488 1061.000000
325.373322 361.750488 1061.000000
326.468597 360.727600 1058.000000
328.483826 360.727600 1058.000000
330.499054 360.727600 1058.000000
333.457153 361.750488 1061.000000
335.478088 361.750488 1061.000000
337.499054 361.750488 1061.000000
339.520020 361.750488 1061.000000
341.540955 361.750488 1061.000000
344.533325 362.773315 1064.000000
347.862885 364.137146 1068.000000
351.862854 366.182861 1074.000000
357.533325 369.933350 1085.000000
360.594299 370.956177 1088.000000
363.666687 371.979065 1091.000000
367.085724 373.342865 1095.000000
370.182861 374.365723 1098.000000
374.647614 376.752380 1105.000000
378.116180 378.116180 1109.000000
381.600006 379.480011 1113.000000
386.133331 381.866669 1120.000000
388.266693 381.866669 1120.000000
391.445740 382.889526 1123.000000
396.388550 385.617126 1131.000000
399.600006 386.640015 1134.000000
403.177155 388.003815 1138.000000
406.769501 389.367615 1142.000000
410.377136 390.731415 1146.000000
412.560028 390.731415 1146.000000
416.190460 392.095245 1150.000000
257.759979 368.228577 1074.000000
259.805695 368.228577 1074.000000
262.826691 369.600006 1078.000000
266.600006 372.000000 1085.000000
268.666656 372.000000 1085.000000
270.733337 372.000000 1085.000000
273.554291 373.028564 1088.000000
274.866669 372.000000 1085.000000
276.933350 372.000000 1085.000000
279.771423 373.028564 1088.000000
281.066650 372.000000 1085.000000
282.089539 370.628571 1081.000000
284.148560 370.628571 1081.000000
286.207611 370.628571 1081.000000
288.266663 370.628571 1081.000000
290.325714 370.628571 1081.000000
291.573334 369.600006 1078.000000
293.626678 369.600006 1078.000000
295.680023 369.600006 1078.000000
297.733337 369.600006 1078.000000
298.674286 368.228577 1074.000000
300.720001 368.228577 1074.000000
302.765717 368.228577 1074.000000
304.811432 368.228577 1074.000000
306.000000 367.200012 1071.000000
307.177155 366.171417 1068.000000
309.211426 366.171417 1068.000000
310.079987 364.800018 1064.000000
312.106659 364.800018 1064.000000
314.133331 364.800018 1064.000000
316.160004 364.800018 1064.000000
318.186676 364.800018 1064.000000
319.310486 363.771423 1061.000000
321.331451 363.771423 1061.000000
323.352386 363.771423 1061.000000
325.373322 363.771423 1061.000000
326.468597 362.742859 1058.000000
328.483826 362.742859 1058.000000
330.499054 362.742859 1058.000000
332.514282 362.742859 1058.000000
335.478088 363.771423 1061.000000
337.499054 363.771423 1061.000000
339.520020 363.771423 1061.000000
341.540955 363.771423 1061.000000
344.533325 364.800018 1064.000000
347.862885 366.171417 1068.000000
351.862854 368.228577 1074.000000
357.533325 372.000000 1085.000000
360.594299 373.028564 1088.000000
363.666687 374.057129 1091.000000
367.085724 375.428589 1095.000000
371.531433 377.828583 1102.000000
374.647614 378.857147 1105.000000
376.752380 378.857147 1105.000000
381.600006 381.600006 1113.000000
384.754303 382.628571 1116.000000
388.266693 384.000000 1120.000000
391.445740 385.028564 1123.000000
396.388550 387.771423 1131.000000
399.600006 388.799988 1134.000000
403.177155 390.171448 1138.000000
406.769501 391.542847 1142.000000
408.944763 391.542847 1142.000000
412.560028 392.914307 1146.000000
414.742859 392.914307 1146.000000
264.533356 374.066681 1085.000000
266.600006 374.066681 1085.000000
268.666656 374.066681 1085.000000
270.733337 374.066681 1085.000000
273.554291 375.100952 1088.000000
274.866669 374.066681 1085.000000
276.933350 374.066681 1085.000000
279.771423 375.100952 1088.000000
281.066650 374.066681 1085.000000
282.089539 372.687622 1081.000000
284.148560 372.687622 1081.000000
286.207611 372.687622 1081.000000
288.266663 372.687622 1081.000000
290.325714 372.687622 1081.000000
291.573334 371.653351 1078.000000
293.626678 371.653351 1078.000000
295.680023 371.653351 1078.000000
296.628571 370.274261 1074.000000
298.674286 370.274261 1074.000000
300.720001 370.274261 1074.000000
302.765717 370.274261 1074.000000
303.959991 369.240021 1071.000000
305.142853 368.205719 1068.000000
307.177155 368.205719 1068.000000
309.211426 368.205719 1068.000000
310.079987 366.826691 1064.000000
312.106659 366.826691 1064.000000
314.133331 366.826691 1064.000000
316.160004 366.826691 1064.000000
317.289520 365.792389 1061.000000
319.310486 365.792389 1061.000000
321.331451 365.792389 1061.000000
323.352386 365.792389 1061.000000
324.453339 364.758118 1058.000000
326.468597 364.758118 1058.000000
328.483826 364.758118 1058.000000
330.499054 364.758118 1058.000000
332.514282 364.758118 1058.000000
334.529510 364.758118 1058.000000
336.544739 364.758118 1058.000000
339.520020 365.792389 1061.000000
341.540955 365.792389 1061.000000
344.533325 366.826691 1064.000000
347.862885 368.205719 1068.000000
351.862854 370.274261 1074.000000
357.533325 374.066681 1085.000000
360.594299 375.100952 1088.000000
362.666656 375.100952 1088.000000
367.085724 377.514313 1095.000000
370.182861 378.548553 1098.000000
373.630463 379.927643 1102.000000
376.752380 380.961884 1105.000000
380.228577 382.340973 1109.000000
384.754303 384.754303 1116.000000
388.266693 386.133331 1120.000000
391.445740 387.167633 1123.000000
396.388550 389.925720 1131.000000
399.600006 390.960022 1134.000000
401.760010 390.960022 1134.000000
405.344757 392.339050 1138.000000
408.944763 393.718079 1142.000000
412.560028 395.097137 1146.000000
414.742859 395.097137 1146.000000
264.533356 376.133331 1085.000000
266.600006 376.133331 1085.000000
268.666656 376.133331 1085.000000
271.481903 377.173340 1088.000000
273.554291 377.173340 1088.000000
274.866669 376.133331 1085.000000
276.933350 376.133331 1085.000000
279.771423 377.173340 1088.000000
281.066650 376.133331 1085.000000
283.133331 376.133331 1085.000000
284.148560 374.746674 1081.000000
286.207611 374.746674 1081.000000
287.466675 373.706665 1078.000000
289.519989 373.706665 1078.000000
291.573334 373.706665 1078.000000
293.626678 373.706665 1078.000000
294.582886 372.320007 1074.000000
296.628571 372.320007 1074.000000
298.674286 372.320007 1074.000000
300.720001 372.320007 1074.000000
301.919983 371.280029 1071.000000
303.959991 371.280029 1071.000000
305.142853 370.239990 1068.000000
307.177155 370.239990 1068.000000
309.211426 370.239990 1068.000000
310.079987 368.853333 1064.000000
312.106659 368.853333 1064.000000
314.133331 368.853333 1064.000000
316.160004 368.853333 1064.000000
317.289520 367.813354 1061.000000
319.310486 367.813354 1061.000000
321.331451 367.813354 1061.000000
323.352386 367.813354 1061.000000
324.453339 366.773346 1058.000000
325.542877 365.733337 1055.000000
327.552368 365.733337 1055.000000
329.561920 365.733337 1055.000000
332.514282 366.773346 1058.000000
334.529510 366.773346 1058.000000
336.544739 366.773346 1058.000000
338.560028 366.773346 1058.000000
340.575256 366.773346 1058.000000
344.533325 368.853333 1064.000000
347.862885 370.239990 1068.000000
350.880005 371.280029 1071.000000
355.226654 373.706665 1078.000000
359.600006 376.133331 1085.000000
362.666656 377.173340 1088.000000
365.744781 378.213348 1091.000000
370.182861 380.640015 1098.000000
373.630463 382.026672 1102.000000
376.752380 383.066650 1105.000000
380.228577 384.453339 1109.000000
383.720001 385.839996 1113.000000
388.266693 388.266693 1120.000000
391.445740 389.306671 1123.000000
394.986664 390.693329 1127.000000
399.600006 393.119995 1134.000000
401.760010 393.119995 1134.000000
405.344757 394.506653 1138.000000
408.944763 395.893341 1142.000000
412.560028 397.279999 1146.000000
414.742859 397.279999 1146.000000
267.337158 379.245728 1088.000000
268.666656 378.199982 1085.000000
270.733337 378.199982 1085.000000
272.799988 378.199982 1085.000000
274.866669 378.199982 1085.000000
276.933350 378.199982 1085.000000
279.000000 378.199982 1085.000000
281.066650 378.199982 1085.000000
283.133331 378.199982 1085.000000
284.148560 376.805725 1081.000000
286.207611 376.805725 1081.000000
287.466675 375.759979 1078.000000
289.519989 375.759979 1078.000000
291.573334 375.759979 1078.000000
293.626678 375.759979 1078.000000
294.582886 374.365723 1074.000000
296.628571 374.365723 1074.000000
298.674286 374.365723 1074.000000
300.720001 374.365723 1074.000000
301.919983 373.320007 1071.000000
301.973328 370.880005 1064.000000
304.000000 370.880005 1064.000000
306.026672 370.880005 1064.000000
308.053345 370.880005 1064.000000
310.079987 370.880005 1064.000000
312.106659 370.880005 1064.000000
314.133331 370.880005 1064.000000
315.268585 369.834259 1061.000000
317.289520 369.834259 1061.000000
319.310486 369.834259 1061.000000
320.422852 368.788574 1058.000000
322.438080 368.788574 1058.000000
323.533325 367.742859 1055.000000
325.542877 367.742859 1055.000000
327.552368 367.742859 1055.000000
329.561920 367.742859 1055.000000
331.571442 367.742859 1055.000000
333.580933 367.742859 1055.000000
335.590485 367.742859 1055.000000
338.560028 368.788574 1058.000000
340.575256 368.788574 1058.000000
343.561920 369.834259 1061.000000
346.559998 370.880005 1064.000000
348.586670 370.880005 1064.000000
352.919983 373.320007 1071.000000
357.280029 375.759979 1078.000000
361.666687 378.199982 1085.000000
365.744781 380.291443 1091.000000
370.182861 382.731445 1098.000000
372.274292 382.731445 1098.000000
376.752380 385.171448 1105.000000
380.228577 386.565704 1109.000000
383.720001 387.960022 1113.000000
388.266693 390.399994 1120.000000
391.445740 391.445740 1123.000000
394.986664 392.839996 1127.000000
399.600006 395.279999 1134.000000
401.760010 395.279999 1134.000000
405.344757 396.674286 1138.000000
408.944763 398.068573 1142.000000
412.560028 399.462860 1146.000000
414.742859 399.462860 1146.000000
267.337158 381.318085 1088.000000
268.666656 380.266663 1085.000000
270.733337 380.266663 1085.000000
272.799988 380.266663 1085.000000
274.866669 380.266663 1085.000000
276.933350 380.266663 1085.000000
279.000000 380.266663 1085.000000
281.066650 380.266663 1085.000000
283.133331 380.266663 1085.000000
284.148560 378.864777 1081.000000
286.207611 378.864777 1081.000000
288.266663 378.864777 1081.000000
289.519989 377.813354 1078.000000
291.573334 377.813354 1078.000000
292.537140 376.411438 1074.000000
294.582886 376.411438 1074.000000
296.628571 376.411438 1074.000000
298.674286 376.411438 1074.000000
299.880005 375.360016 1071.000000
301.919983 375.360016 1071.000000
301.973328 372.906647 1064.000000
304.000000 372.906647 1064.000000
306.026672 372.906647 1064.000000
308.053345 372.906647 1064.000000
310.079987 372.906647 1064.000000
312.106659 372.906647 1064.000000
314.133331 372.906647 1064.000000
315.268585 371.855225 1061.000000
317.289520 371.855225 1061.000000
318.407623 370.803802 1058.000000
319.514282 369.752380 1055.000000
321.523804 369.752380 1055.000000
323.533325 369.752380 1055.000000
325.542877 369.752380 1055.000000
327.552368 369.752380 1055.000000
329.561920 369.752380 1055.000000
331.571442 369.752380 1055.000000
333.580933 369.752380 1055.000000
335.590485 369.752380 1055.000000
338.560028 370.803802 1058.000000
340.575256 370.803802 1058.000000
343.561920 371.855225 1061.000000
346.559998 372.906647 1064.000000
348.586670 372.906647 1064.000000
352.919983 375.360016 1071.000000
357.280029 377.813354 1078.000000
361.666687 380.266663 1085.000000
365.744781 382.369507 1091.000000
367.822845 382.369507 1091.000000
371.257141 383.771423 1095.000000
375.729523 386.224762 1102.000000
378.857147 387.276215 1105.000000
383.720001 390.080017 1113.000000
388.266693 392.533325 1120.000000
390.399994 392.533325 1120.000000
394.986664 394.986664 1127.000000
398.542847 396.388550 1131.000000
400.697144 396.388550 1131.000000
403.919983 397.440002 1134.000000
407.512390 398.841919 1138.000000
411.119995 400.243805 1142.000000
414.742859 401.645721 1146.000000
267.676208 380.923798 1081.000000
269.735260 380.923798 1081.000000
272.799988 382.333344 1085.000000
274.866669 382.333344 1085.000000
276.933350 382.333344 1085.000000
279.000000 382.333344 1085.000000
281.066650 382.333344 1085.000000
283.133331 382.333344 1085.000000
284.148560 380.923798 1081.000000
286.207611 380.923798 1081.000000
288.266663 380.923798 1081.000000
289.519989 379.866669 1078.000000
291.573334 379.866669 1078.000000
292.537140 378.457153 1074.000000
294.582886 378.457153 1074.000000
296.628571 378.457153 1074.000000
297.839996 377.400024 1071.000000
299.880005 377.400024 1071.000000
301.919983 377.400024 1071.000000
301.973328 374.933319 1064.000000
304.000000 374.933319 1064.000000
306.026672 374.933319 1064.000000
308.053345 374.933319 1064.000000
310.079987 374.933319 1064.000000
312.106659 374.933319 1064.000000
313.247620 373.876190 1061.000000
315.268585 373.876190 1061.000000
316.392395 372.819031 1058.000000
318.407623 372.819031 1058.000000
319.514282 371.761932 1055.000000
320.609528 370.704773 1052.000000
322.613342 370.704773 1052.000000
324.617157 370.704773 1052.000000
326.620972 370.704773 1052.000000
328.624756 370.704773 1052.000000
331.571442 371.761932 1055.000000
333.580933 371.761932 1055.000000
335.590485 371.761932 1055.000000
338.560028 372.819031 1058.000000
340.575256 372.819031 1058.000000
342.590485 372.819031 1058.000000
345.582886 373.876190 1061.000000
348.586670 374.933319 1064.000000
352.919983 377.400024 1071.000000
357.280029 379.866669 1078.000000
361.666687 382.333344 1085.000000
365.744781 384.447632 1091.000000
367.822845 384.447632 1091.000000
369.900940 384.447632 1091.000000
374.365723 386.914276 1098.000000
377.828583 388.323822 1102.000000
382.340973 390.790497 1109.000000
386.880005 393.257141 1116.000000
390.399994 394.666687 1120.000000
394.986664 397.133362 1127.000000
398.542847 398.542847 1131.000000
400.697144 398.542847 1131.000000
403.919983 399.600006 1134.000000
407.512390 401.009521 1138.000000
411.119995 402.419067 1142.000000
414.742859 403.828552 1146.000000
267.676208 382.982849 1081.000000
269.735260 382.982849 1081.000000
272.799988 384.400024 1085.000000
274.866669 384.400024 1085.000000
276.933350 384.400024 1085.000000
279.000000 384.400024 1085.000000
281.066650 384.400024 1085.000000
282.089539 382.982849 1081.000000
284.148560 382.982849 1081.000000
286.207611 382.982849 1081.000000
287.466675 381.920013 1078.000000
289.519989 381.920013 1078.000000
291.573334 381.920013 1078.000000
292.537140 380.502838 1074.000000
294.582886 380.502838 1074.000000
296.628571 380.502838 1074.000000
297.839996 379.440002 1071.000000
299.880005 379.440002 1071.000000
301.919983 379.440002 1071.000000
301.973328 376.960022 1064.000000
304.000000 376.960022 1064.000000
306.026672 376.960022 1064.000000
308.053345 376.960022 1064.000000
310.079987 376.960022 1064.000000
311.226654 375.897125 1061.000000
313.247620 375.897125 1061.000000
315.268585 375.897125 1061.000000
316.392395 374.834290 1058.000000
318.407623 374.834290 1058.000000
319.514282 373.771423 1055.000000
320.609528 372.708557 1052.000000
322.613342 372.708557 1052.000000
324.617157 372.708557 1052.000000
326.620972 372.708557 1052.000000
328.624756 372.708557 1052.000000
330.628571 372.708557 1052.000000
332.632385 372.708557 1052.000000
334.636169 372.708557 1052.000000
337.600006 373.771423 1055.000000
340.575256 374.834290 1058.000000
342.590485 374.834290 1058.000000
345.582886 375.897125 1061.000000
348.586670 376.960022 1064.000000
352.919983 379.440002 1071.000000
357.280029 381.920013 1078.000000
360.333313 382.982849 1081.000000
363.733307 384.400024 1085.000000
366.811432 385.462860 1088.000000
369.900940 386.525726 1091.000000
373.342865 387.942841 1095.000000
376.457153 389.005707 1098.000000
380.961884 391.485718 1105.000000
386.880005 395.382843 1116.000000
389.005707 395.382843 1116.000000
394.986664 399.279999 1127.000000
398.542847 400.697144 1131.000000
400.697144 400.697144 1131.000000
403.919983 401.760010 1134.000000
407.512390 403.177155 1138.000000
411.119995 404.594299 1142.000000
413.295227 404.594299 1142.000000
268.666656 386.466675 1085.000000
270.733337 386.466675 1085.000000
272.799988 386.466675 1085.000000
274.866669 386.466675 1085.000000
276.933350 386.466675 1085.000000
279.000000 386.466675 1085.000000
280.030487 385.041901 1081.000000
282.089539 385.041901 1081.000000
284.148560 385.041901 1081.000000
285.413330 383.973328 1078.000000
287.466675 383.973328 1078.000000
289.519989 383.973328 1078.000000
291.573334 383.973328 1078.000000
293.626678 383.973328 1078.000000
294.582886 382.548584 1074.000000
296.628571 382.548584 1074.000000
297.839996 381.480011 1071.000000
299.039978 380.411407 1068.000000
301.074310 380.411407 1068.000000
301.973328 378.986664 1064.000000
304.000000 378.986664 1064.000000
306.026672 378.986664 1064.000000
308.053345 378.986664 1064.000000
310.079987 378.986664 1064.000000
311.226654 377.918091 1061.000000
313.247620 377.918091 1061.000000
315.268585 377.918091 1061.000000
316.392395 376.849518 1058.000000
318.407623 376.849518 1058.000000
319.514282 375.780945 1055.000000
320.609528 374.712372 1052.000000
322.613342 374.712372 1052.000000
324.617157 374.712372 1052.000000
326.620972 374.712372 1052.000000
328.624756 374.712372 1052.000000
330.628571 374.712372 1052.000000
332.632385 374.712372 1052.000000
334.636169 374.712372 1052.000000
337.600006 375.780945 1055.000000
339.609528 375.780945 1055.000000
342.590485 376.849518 1058.000000
345.582886 377.918091 1061.000000
348.586670 378.986664 1064.000000
352.919983 381.480011 1071.000000
355.954285 382.548584 1074.000000
359.333344 383.973328 1078.000000
363.733307 386.466675 1085.000000
365.799988 386.466675 1085.000000
368.883820 387.535248 1088.000000
371.979065 388.603821 1091.000000
375.428589 390.028564 1095.000000
380.961884 393.590485 1105.000000
385.839996 396.440002 1113.000000
389.005707 397.508575 1116.000000
394.986664 401.426666 1127.000000
397.133362 401.426666 1127.000000
400.697144 402.851440 1131.000000
403.919983 403.919983 1134.000000
407.512390 405.344757 1138.000000
409.680023 405.344757 1138.000000
413.295227 406.769501 1142.000000
416.925720 408.194275 1146.000000
269.735260 387.100952 1081.000000
271.794281 387.100952 1081.000000
273.853333 387.100952 1081.000000
275.912384 387.100952 1081.000000
277.971405 387.100952 1081.000000
280.030487 387.100952 1081.000000
282.089539 387.100952 1081.000000
284.148560 387.100952 1081.000000
285.413330 386.026672 1078.000000
287.466675 386.026672 1078.000000
289.519989 386.026672 1078.000000
291.573334 386.026672 1078.000000
293.626678 386.026672 1078.000000
294.582886 384.594299 1074.000000
296.628571 384.594299 1074.000000
297.839996 383.520020 1071.000000
299.039978 382.445709 1068.000000
301.074310 382.445709 1068.000000
301.973328 381.013336 1064.000000
304.000000 381.013336 1064.000000
306.026672 381.013336 1064.000000
308.053345 381.013336 1064.000000
309.205719 379.939056 1061.000000
311.226654 379.939056 1061.000000
313.247620 379.939056 1061.000000
314.377167 378.864777 1058.000000
316.392395 378.864777 1058.000000
317.504761 377.790466 1055.000000
318.605713 376.716187 1052.000000
320.609528 376.716187 1052.000000
322.613342 376.716187 1052.000000
324.617157 376.716187 1052.000000
326.620972 376.716187 1052.000000
328.624756 376.716187 1052.000000
330.628571 376.716187 1052.000000
332.632385 376.716187 1052.000000
334.636169 376.716187 1052.000000
337.600006 377.790466 1055.000000
339.609528 377.790466 1055.000000
342.590485 378.864777 1058.000000
345.582886 379.939056 1061.000000
348.586670 381.013336 1064.000000
351.931427 382.445709 1068.000000
354.959991 383.520020 1071.000000
359.333344 386.026672 1078.000000
362.392395 387.100952 1081.000000
364.451447 387.100952 1081.000000
368.883820 389.607605 1088.000000
371.979065 390.681885 1091.000000
375.428589 392.114288 1095.000000
380.961884 395.695251 1105.000000
385.839996 398.559998 1113.000000
389.005707 399.634308 1116.000000
393.584747 402.140930 1123.000000
397.133362 403.573334 1127.000000
400.697144 405.005737 1131.000000
403.919983 406.080017 1134.000000
407.512390 407.512390 1138.000000
409.680023 407.512390 1138.000000
413.295227 408.944763 1142.000000
416.925720 410.377136 1146.000000
419.108582 410.377136 1146.000000
269.735260 389.160004 1081.000000
271.794281 389.160004 1081.000000
273.853333 389.160004 1081.000000
275.912384 389.160004 1081.000000
277.971405 389.160004 1081.000000
280.030487 389.160004 1081.000000
282.089539 389.160004 1081.000000
284.148560 389.160004 1081.000000
285.413330 388.079987 1078.000000
287.466675 388.079987 1078.000000
289.519989 388.079987 1078.000000
291.573334 388.079987 1078.000000
293.626678 388.079987 1078.000000
294.582886 386.640015 1074.000000
296.628571 386.640015 1074.000000
297.839996 385.559998 1071.000000
299.039978 384.480011 1068.000000
299.946655 383.040009 1064.000000
301.973328 383.040009 1064.000000
304.000000 383.040009 1064.000000
306.026672 383.040009 1064.000000
308.053345 383.040009 1064.000000
309.205719 381.959991 1061.000000
311.226654 381.959991 1061.000000
313.247620 381.959991 1061.000000
314.377167 380.880005 1058.000000
316.392395 380.880005 1058.000000
317.504761 379.799988 1055.000000
318.605713 378.720001 1052.000000
320.609528 378.720001 1052.000000
322.613342 378.720001 1052.000000
324.617157 378.720001 1052.000000
326.620972 378.720001 1052.000000
328.624756 378.720001 1052.000000
329.371429 377.279999 1048.000000
331.367615 377.279999 1048.000000
334.636169 378.720001 1052.000000
337.600006 379.799988 1055.000000
340.575256 380.880005 1058.000000
342.590485 380.880005 1058.000000
345.582886 381.959991 1061.000000
348.586670 383.040009 1064.000000
351.931427 384.480011 1068.000000
354.959991 385.559998 1071.000000
359.333344 388.079987 1078.000000
362.392395 389.160004 1081.000000
364.451447 389.160004 1081.000000
368.883820 391.679993 1088.000000
371.979065 392.760010 1091.000000
375.428589 394.200012 1095.000000
380.961884 397.799988 1105.000000
384.453339 399.240021 1109.000000
387.960022 400.679993 1113.000000
393.584747 404.279999 1123.000000
397.133362 405.720001 1127.000000
400.697144 407.160004 1131.000000
403.919983 408.239990 1134.000000
407.512390 409.680023 1138.000000
411.119995 411.119995 1142.000000
413.295227 411.119995 1142.000000
416.925720 412.560028 1146.000000
419.108582 412.560028 1146.000000
271.039978 390.133331 1078.000000
273.093353 390.133331 1078.000000
275.146667 390.133331 1078.000000
277.200012 390.133331 1078.000000
279.253326 390.133331 1078.000000
281.306641 390.133331 1078.000000
283.360016 390.133331 1078.000000
285.413330 390.133331 1078.000000
287.466675 390.133331 1078.000000
289.519989 390.133331 1078.000000
291.573334 390.133331 1078.000000
293.626678 390.133331 1078.000000
294.582886 388.685699 1074.000000
296.628571 388.685699 1074.000000
297.005707 386.514282 1068.000000
299.039978 386.514282 1068.000000
299.946655 385.066650 1064.000000
301.973328 385.066650 1064.000000
304.000000 385.066650 1064.000000
306.026672 385.066650 1064.000000
307.184753 383.980957 1061.000000
309.205719 383.980957 1061.000000
311.226654 383.980957 1061.000000
312.361908 382.895233 1058.000000
314.377167 382.895233 1058.000000
315.495239 381.809540 1055.000000
317.504761 381.809540 1055.000000
318.605713 380.723816 1052.000000
320.609528 380.723816 1052.000000
322.613342 380.723816 1052.000000
324.617157 380.723816 1052.000000
326.620972 380.723816 1052.000000
328.624756 380.723816 1052.000000
329.371429 379.276184 1048.000000
331.367615 379.276184 1048.000000
333.363800 379.276184 1048.000000
337.600006 381.809540 1055.000000
340.575256 382.895233 1058.000000
342.590485 382.895233 1058.000000
345.582886 383.980957 1061.000000
348.586670 385.066650 1064.000000
351.931427 386.514282 1068.000000
354.959991 387.600006 1071.000000
359.333344 390.133331 1078.000000
361.386658 390.133331 1078.000000
364.451447 391.219055 1081.000000
368.883820 393.752411 1088.000000
371.979065 394.838104 1091.000000
375.428589 396.285706 1095.000000
380.961884 399.904755 1105.000000
384.453339 401.352386 1109.000000
387.960022 402.799988 1113.000000
392.533325 405.333344 1120.000000
397.133362 407.866669 1127.000000
400.697144 409.314270 1131.000000
403.919983 410.399994 1134.000000
407.512390 411.847626 1138.000000
411.119995 413.295227 1142.000000
413.295227 413.295227 1142.000000
416.925720 414.742859 1146.000000
270.034271 390.731415 1074.000000
272.080017 390.731415 1074.000000
275.146667 392.186676 1078.000000
277.200012 392.186676 1078.000000
279.253326 392.186676 1078.000000
281.306641 392.186676 1078.000000
283.360016 392.186676 1078.000000
285.413330 392.186676 1078.000000
287.466675 392.186676 1078.000000
289.519989 392.186676 1078.000000
291.573334 392.186676 1078.000000
292.537140 390.731415 1074.000000
294.582886 390.731415 1074.000000
296.628571 390.731415 1074.000000
297.005707 388.548584 1068.000000
297.919983 387.093323 1064.000000
299.946655 387.093323 1064.000000
301.973328 387.093323 1064.000000
303.142853 386.001923 1061.000000
305.163788 386.001923 1061.000000
307.184753 386.001923 1061.000000
309.205719 386.001923 1061.000000
310.346649 384.910461 1058.000000
312.361908 384.910461 1058.000000
313.485718 383.819031 1055.000000
315.495239 383.819031 1055.000000
317.504761 383.819031 1055.000000
318.605713 382.727631 1052.000000
320.609528 382.727631 1052.000000
322.613342 382.727631 1052.000000
324.617157 382.727631 1052.000000
326.620972 382.727631 1052.000000
327.375244 381.272369 1048.000000
329.371429 381.272369 1048.000000
331.367615 381.272369 1048.000000
333.363800 381.272369 1048.000000
336.640015 382.727631 1052.000000
339.609528 383.819031 1055.000000
342.590485 384.910461 1058.000000
345.582886 386.001923 1061.000000
348.586670 387.093323 1064.000000
351.931427 388.548584 1068.000000
354.959991 389.640015 1071.000000
358.000000 390.731415 1074.000000
361.386658 392.186676 1078.000000
364.451447 393.278107 1081.000000
368.883820 395.824768 1088.000000
371.979065 396.916168 1091.000000
375.428589 398.371429 1095.000000
379.927643 400.918091 1102.000000
383.066650 402.009521 1105.000000
386.565704 403.464752 1109.000000
391.131439 406.011444 1116.000000
395.723816 408.558105 1123.000000
399.279999 410.013336 1127.000000
402.851440 411.468567 1131.000000
406.080017 412.560028 1134.000000
409.680023 414.015228 1138.000000
411.847626 414.015228 1138.000000
267.988556 392.777130 1074.000000
270.034271 392.777130 1074.000000
272.080017 392.777130 1074.000000
275.146667 394.239990 1078.000000
277.200012 394.239990 1078.000000
279.253326 394.239990 1078.000000
281.306641 394.239990 1078.000000
283.360016 394.239990 1078.000000
284.354309 392.777130 1074.000000
286.399994 392.777130 1074.000000
288.445709 392.777130 1074.000000
291.573334 394.239990 1078.000000
292.537140 392.777130 1074.000000
294.582886 392.777130 1074.000000
295.799988 391.679993 1071.000000
295.893341 389.120026 1064.000000
297.919983 389.120026 1064.000000
299.946655 389.120026 1064.000000
301.973328 389.120026 1064.000000
303.142853 388.022858 1061.000000
305.163788 388.022858 1061.000000
307.184753 388.022858 1061.000000
309.205719 388.022858 1061.000000
310.346649 386.925720 1058.000000
311.476196 385.828583 1055.000000
313.485718 385.828583 1055.000000
314.598083 384.731445 1052.000000
316.601898 384.731445 1052.000000
318.605713 384.731445 1052.000000
320.609528 384.731445 1052.000000
322.613342 384.731445 1052.000000
324.617157 384.731445 1052.000000
325.379059 383.268555 1048.000000
327.375244 383.268555 1048.000000
329.371429 383.268555 1048.000000
331.367615 383.268555 1048.000000
333.363800 383.268555 1048.000000
336.640015 384.731445 1052.000000
339.609528 385.828583 1055.000000
342.590485 386.925720 1058.000000
345.582886 388.022858 1061.000000
348.586670 389.120026 1064.000000
351.931427 390.582855 1068.000000
354.959991 391.679993 1071.000000
358.000000 392.777130 1074.000000
361.386658 394.239990 1078.000000
364.451447 395.337128 1081.000000
368.883820 397.897156 1088.000000
371.979065 398.994293 1091.000000
375.428589 400.457153 1095.000000
379.927643 403.017120 1102.000000
382.026672 403.017120 1102.000000
385.171448 404.114288 1105.000000
390.080017 407.040009 1113.000000
394.666687 409.599976 1120.000000
399.279999 412.160004 1127.000000
402.851440 413.622864 1131.000000
406.080017 414.720001 1134.000000
408.239990 414.720001 1134.000000
410.399994 414.720001 1134.000000
414.015228 416.182831 1138.000000
270.034271 394.822876 1074.000000
272.080017 394.822876 1074.000000
274.125732 394.822876 1074.000000
276.171417 394.822876 1074.000000
279.253326 396.293335 1078.000000
281.306641 396.293335 1078.000000
282.308594 394.822876 1074.000000
284.354309 394.822876 1074.000000
286.399994 394.822876 1074.000000
288.445709 394.822876 1074.000000
290.491425 394.822876 1074.000000
292.537140 394.822876 1074.000000
294.582886 394.822876 1074.000000
293.866669 391.146667 1064.000000
295.893341 391.146667 1064.000000
297.919983 391.146667 1064.000000
299.100952 390.043823 1061.000000
301.121918 390.043823 1061.000000
303.142853 390.043823 1061.000000
305.163788 390.043823 1061.000000
307.184753 390.043823 1061.000000
309.205719 390.043823 1061.000000
310.346649 388.940948 1058.000000
311.476196 387.838104 1055.000000
312.594299 386.735229 1052.000000
314.598083 386.735229 1052.000000
316.601898 386.735229 1052.000000
318.605713 386.735229 1052.000000
319.390472 385.264740 1048.000000
321.386658 385.264740 1048.000000
323.382843 385.264740 1048.000000
325.379059 385.264740 1048.000000
327.375244 385.264740 1048.000000
329.371429 385.264740 1048.000000
331.367615 385.264740 1048.000000
333.363800 385.264740 1048.000000
336.640015 386.735229 1052.000000
339.609528 387.838104 1055.000000
343.561920 390.043823 1061.000000
345.582886 390.043823 1061.000000
348.586670 391.146667 1064.000000
351.931427 392.617126 1068.000000
354.959991 393.720001 1071.000000
358.000000 394.822876 1074.000000
361.386658 396.293335 1078.000000
364.451447 397.396210 1081.000000
368.883820 399.969513 1088.000000
371.979065 401.072388 1091.000000
375.428589 402.542847 1095.000000
378.548553 403.645721 1098.000000
382.026672 405.116211 1102.000000
385.171448 406.219025 1105.000000
390.080017 409.159973 1113.000000
394.666687 411.733337 1120.000000
397.862854 412.836182 1123.000000
402.851440 415.777161 1131.000000
405.005737 415.777161 1131.000000
408.239990 416.880005 1134.000000
410.399994 416.880005 1134.000000
412.560028 416.880005 1134.000000
270.034271 396.868591 1074.000000
272.080017 396.868591 1074.000000
274.125732 396.868591 1074.000000
276.171417 396.868591 1074.000000
279.253326 398.346649 1078.000000
281.306641 398.346649 1078.000000
282.308594 396.868591 1074.000000
284.354309 396.868591 1074.000000
286.399994 396.868591 1074.000000
288.445709 396.868591 1074.000000
290.491425 396.868591 1074.000000
292.537140 396.868591 1074.000000
293.760010 395.760010 1071.000000
293.866669 393.173340 1064.000000
295.893341 393.173340 1064.000000
297.919983 393.173340 1064.000000
299.100952 392.064758 1061.000000
301.121918 392.064758 1061.000000
303.142853 392.064758 1061.000000
305.163788 392.064758 1061.000000
307.184753 392.064758 1061.000000
309.205719 392.064758 1061.000000
309.466675 389.847626 1055.000000
310.590485 388.739044 1052.000000
312.594299 388.739044 1052.000000
314.598083 388.739044 1052.000000
316.601898 388.739044 1052.000000
317.394287 387.260956 1048.000000
319.390472 387.260956 1048.000000
321.386658 387.260956 1048.000000
323.382843 387.260956 1048.000000
325.379059 387.260956 1048.000000
327.375244 387.260956 1048.000000
329.371429 387.260956 1048.000000
331.367615 387.260956 1048.000000
333.363800 387.260956 1048.000000
335.359985 387.260956 1048.000000
338.643829 388.739044 1052.000000
343.561920 392.064758 1061.000000
345.582886 392.064758 1061.000000
348.586670 393.173340 1064.000000
351.931427 394.651428 1068.000000
354.959991 395.760010 1071.000000
358.000000 396.868591 1074.000000
361.386658 398.346649 1078.000000
364.451447 399.455261 1081.000000
368.883820 402.041901 1088.000000
371.979065 403.150482 1091.000000
374.057129 403.150482 1091.000000
377.514313 404.628571 1095.000000
382.026672 407.215240 1102.000000
385.171448 408.323822 1105.000000
390.080017 411.279999 1113.000000
394.666687 413.866669 1120.000000
397.862854 414.975220 1123.000000
402.851440 417.931427 1131.000000
405.005737 417.931427 1131.000000
408.239990 419.040009 1134.000000
410.399994 419.040009 1134.000000
412.560028 419.040009 1134.000000
270.034271 398.914276 1074.000000
272.080017 398.914276 1074.000000
274.125732 398.914276 1074.000000
277.200012 400.400024 1078.000000
279.253326 400.400024 1078.000000
281.306641 400.400024 1078.000000
282.308594 398.914276 1074.000000
284.354309 398.914276 1074.000000
286.399994 398.914276 1074.000000
288.445709 398.914276 1074.000000
290.491425 398.914276 1074.000000
292.537140 398.914276 1074.000000
293.760010 397.799988 1071.000000
293.866669 395.200012 1064.000000
295.893341 395.200012 1064.000000
297.919983 395.200012 1064.000000
299.946655 395.200012 1064.000000
301.121918 394.085693 1061.000000
303.142853 394.085693 1061.000000
305.163788 394.085693 1061.000000
307.184753 394.085693 1061.000000
309.205719 394.085693 1061.000000
309.466675 391.857147 1055.000000
310.590485 390.742859 1052.000000
312.594299 390.742859 1052.000000
314.598083 390.742859 1052.000000
316.601898 390.742859 1052.000000
317.394287 389.257141 1048.000000
319.390472 389.257141 1048.000000
321.386658 389.257141 1048.000000
323.382843 389.257141 1048.000000
325.379059 389.257141 1048.000000
326.438110 388.142853 1045.000000
328.428558 388.142853 1045.000000
330.419067 388.142853 1045.000000
332.409546 388.142853 1045.000000
335.359985 389.257141 1048.000000
338.643829 390.742859 1052.000000
341.619049 391.857147 1055.000000
344.605713 392.971436 1058.000000
348.586670 395.200012 1064.000000
351.931427 396.685730 1068.000000
354.959991 397.799988 1071.000000
358.000000 398.914276 1074.000000
362.392395 401.514282 1081.000000
364.451447 401.514282 1081.000000
368.883820 404.114288 1088.000000
370.956177 404.114288 1088.000000
374.057129 405.228577 1091.000000
377.514313 406.714294 1095.000000
383.066650 410.428589 1105.000000
385.171448 410.428589 1105.000000
392.533325 416.000000 1120.000000
394.666687 416.000000 1120.000000
397.862854 417.114288 1123.000000
402.851440 420.085724 1131.000000
405.005737 420.085724 1131.000000
408.239990 421.200012 1134.000000
410.399994 421.200012 1134.000000
412.560028 421.200012 1134.000000
414.720001 421.200012 1134.000000
270.034271 400.959991 1074.000000
272.080017 400.959991 1074.000000
274.125732 400.959991 1074.000000
276.171417 400.959991 1074.000000
278.217133 400.959991 1074.000000
280.262848 400.959991 1074.000000
282.308594 400.959991 1074.000000
284.354309 400.959991 1074.000000
286.399994 400.959991 1074.000000
288.445709 400.959991 1074.000000
290.491425 400.959991 1074.000000
291.720001 399.839996 1071.000000
292.937134 398.720001 1068.000000
293.866669 397.226654 1064.000000
295.893341 397.226654 1064.000000
297.080017 396.106659 1061.000000
299.100952 396.106659 1061.000000
301.121918 396.106659 1061.000000
303.142853 396.106659 1061.000000
305.163788 396.106659 1061.000000
307.184753 396.106659 1061.000000
309.205719 396.106659 1061.000000
309.466675 393.866669 1055.000000
310.590485 392.746643 1052.000000
312.594299 392.746643 1052.000000
314.598083 392.746643 1052.000000
316.601898 392.746643 1052.000000
317.394287 391.253326 1048.000000
319.390472 391.253326 1048.000000
321.386658 391.253326 1048.000000
322.457123 390.133331 1045.000000
324.447632 390.133331 1045.000000
326.438110 390.133331 1045.000000
328.428558 390.133331 1045.000000
330.419067 390.133331 1045.000000
332.409546 390.133331 1045.000000
335.359985 391.253326 1048.000000
337.356171 391.253326 1048.000000
341.619049 393.866669 1055.000000
