# .PCD v.5 - Point Cloud Data file format
FIELDS x y z 
SIZE 4 4 4
TYPE F F F
COUNT 1 1 1
WIDTH 1615
HEIGHT 1
POINTS 1615
DATA ascii
0.273198  0.273198  0.767000
0.275733  0.274267  0.770000
0.277200  0.274267  0.770000
0.278667  0.274267  0.770000
0.280133  0.274267  0.770000
0.281600  0.274267  0.770000
0.283802  0.274979  0.772000
0.284533  0.274267  0.770000
0.286000  0.274267  0.770000
0.287467  0.274267  0.770000
0.289684  0.274979  0.772000
0.290400  0.274267  0.770000
0.291867  0.274267  0.770000
0.293333  0.274267  0.770000
0.295566  0.274979  0.772000
0.297036  0.274979  0.772000
0.298893  0.275335  0.773000
0.300366  0.275335  0.773000
-0.462048  0.277524  0.775000
-0.460571  0.277524  0.775000
-0.459095  0.277524  0.775000
-0.457619  0.277524  0.775000
-0.457320  0.278240  0.777000
-0.453493  0.276808  0.773000
-0.452021  0.276808  0.773000
-0.448800  0.275733  0.770000
-0.447333  0.275733  0.770000
-0.445867  0.275733  0.770000
-0.445554  0.276450  0.772000
-0.444084  0.276450  0.772000
-0.441467  0.275733  0.770000
-0.440000  0.275733  0.770000
-0.439672  0.276450  0.772000
-0.438202  0.276450  0.772000
-0.437297  0.276808  0.773000
-0.435825  0.276808  0.773000
-0.434352  0.276808  0.773000
-0.434000  0.277524  0.775000
-0.431408  0.276808  0.773000
-0.429935  0.276808  0.773000
-0.428463  0.276808  0.773000
-0.426990  0.276808  0.773000
-0.425518  0.276808  0.773000
-0.424046  0.276808  0.773000
-0.423667  0.277524  0.775000
-0.423280  0.278240  0.777000
-0.421800  0.278240  0.777000
-0.420320  0.278240  0.777000
-0.418840  0.278240  0.777000
-0.417360  0.278240  0.777000
-0.409457  0.273943  0.765000
-0.408000  0.273943  0.765000
-0.406543  0.273943  0.765000
-0.405086  0.273943  0.765000
-0.405211  0.275017  0.768000
-0.404800  0.275733  0.770000
-0.403333  0.275733  0.770000
-0.402910  0.276450  0.772000
-0.401440  0.276450  0.772000
-0.400488  0.276808  0.773000
-0.400048  0.277524  0.775000
-0.399600  0.278240  0.777000
-0.398120  0.278240  0.777000
-0.397661  0.278956  0.779000
-0.396177  0.278956  0.779000
-0.394693  0.278956  0.779000
-0.393210  0.278956  0.779000
-0.392229  0.279314  0.780000
-0.392747  0.280747  0.784000
-0.391253  0.280747  0.784000
-0.388766  0.280030  0.782000
-0.387276  0.280030  0.782000
-0.384800  0.279314  0.780000
-0.380857  0.277524  0.775000
-0.379381  0.277524  0.775000
-0.376442  0.276450  0.772000
-0.374971  0.276450  0.772000
-0.373985  0.276808  0.773000
-0.372512  0.276808  0.773000
-0.370560  0.276450  0.772000
-0.369090  0.276450  0.772000
-0.367619  0.276450  0.772000
-0.365200  0.275733  0.770000
-0.363733  0.275733  0.770000
-0.363208  0.276450  0.772000
-0.361737  0.276450  0.772000
-0.360267  0.276450  0.772000
-0.358796  0.276450  0.772000
-0.366120  0.283253  0.791000
-0.364613  0.283253  0.791000
-0.364025  0.283970  0.793000
-0.362514  0.283970  0.793000
-0.357817  0.281463  0.786000
-0.355413  0.280747  0.784000
-0.348954  0.276808  0.773000
-0.347482  0.276808  0.773000
-0.346905  0.277524  0.775000
-0.346320  0.278240  0.777000
-0.344840  0.278240  0.777000
-0.343360  0.278240  0.777000
-0.341880  0.278240  0.777000
-0.339524  0.277524  0.775000
-0.337175  0.276808  0.773000
-0.335703  0.276808  0.773000
-0.335095  0.277524  0.775000
-0.333619  0.277524  0.775000
-0.332143  0.277524  0.775000
-0.330667  0.277524  0.775000
-0.329190  0.277524  0.775000
-0.328560  0.278240  0.777000
-0.327080  0.278240  0.777000
-0.324762  0.277524  0.775000
-0.323286  0.277524  0.775000
-0.321810  0.277524  0.775000
-0.321160  0.278240  0.777000
-0.319680  0.278240  0.777000
-0.318200  0.278240  0.777000
-0.316720  0.278240  0.777000
-0.315240  0.278240  0.777000
-0.313760  0.278240  0.777000
-0.313084  0.278956  0.779000
-0.313600  0.280747  0.784000
-0.312903  0.281463  0.786000
-0.311406  0.281463  0.786000
-0.305571  0.277524  0.775000
-0.304095  0.277524  0.775000
-0.302619  0.277524  0.775000
-0.300366  0.276808  0.773000
-0.298507  0.276450  0.772000
-0.297036  0.276450  0.772000
-0.295566  0.276450  0.772000
-0.294095  0.276450  0.772000
-0.292625  0.276450  0.772000
-0.290400  0.275733  0.770000
-0.288933  0.275733  0.770000
-0.288213  0.276450  0.772000
-0.286743  0.276450  0.772000
-0.285272  0.276450  0.772000
-0.283802  0.276450  0.772000
-0.282331  0.276450  0.772000
-0.280861  0.276450  0.772000
-0.279390  0.276450  0.772000
-0.277920  0.276450  0.772000
-0.276450  0.276450  0.772000
-0.275335  0.276808  0.773000
-0.275989  0.278956  0.779000
-0.269571  0.273943  0.765000
-0.268114  0.273943  0.765000
-0.266657  0.273943  0.765000
-0.265893  0.274659  0.767000
-0.266156  0.276450  0.772000
-0.264000  0.275733  0.770000
-0.262533  0.275733  0.770000
-0.261067  0.275733  0.770000
-0.260274  0.276450  0.772000
-0.259810  0.277524  0.775000
-0.258333  0.277524  0.775000
-0.256857  0.277524  0.775000
-0.255381  0.277524  0.775000
-0.254560  0.278240  0.777000
-0.253080  0.278240  0.777000
-0.250305  0.276808  0.773000
-0.248832  0.276808  0.773000
-0.247360  0.276808  0.773000
-0.245888  0.276808  0.773000
-0.244415  0.276808  0.773000
-0.242943  0.276808  0.773000
-0.241470  0.276808  0.773000
-0.239998  0.276808  0.773000
-0.239143  0.277524  0.775000
-0.238280  0.278240  0.777000
-0.236800  0.278240  0.777000
-0.235320  0.278240  0.777000
-0.233840  0.278240  0.777000
-0.232360  0.278240  0.777000
-0.230880  0.278240  0.777000
-0.229990  0.278956  0.779000
-0.228800  0.279314  0.780000
-0.227897  0.280030  0.782000
-0.225539  0.278956  0.779000
-0.224055  0.278956  0.779000
-0.222571  0.278956  0.779000
-0.220520  0.278240  0.777000
-0.215657  0.273943  0.765000
-0.214200  0.273943  0.765000
-0.213299  0.274659  0.767000
-0.212114  0.275017  0.768000
-0.210651  0.275017  0.768000
-0.209733  0.275733  0.770000
-0.208267  0.275733  0.770000
-0.206800  0.275733  0.770000
-0.205867  0.276450  0.772000
-0.204396  0.276450  0.772000
-0.160869  0.219154  0.612000
-0.159703  0.219154  0.612000
-0.158796  0.219512  0.613000
-0.157629  0.219512  0.613000
-0.156716  0.219870  0.614000
-0.155547  0.219870  0.614000
-0.154880  0.220587  0.616000
-0.154705  0.222019  0.620000
-0.153524  0.222019  0.620000
-0.152343  0.222019  0.620000
-0.151162  0.222019  0.620000
-0.149739  0.221661  0.619000
-0.148560  0.221661  0.619000
-0.147381  0.221661  0.619000
-0.146202  0.221661  0.619000
-0.145023  0.221661  0.619000
-0.143611  0.221303  0.618000
-0.142434  0.221303  0.618000
-0.141257  0.221303  0.618000
-0.140080  0.221303  0.618000
-0.138903  0.221303  0.618000
-0.137503  0.220945  0.617000
-0.136328  0.220945  0.617000
-0.135152  0.220945  0.617000
-0.133977  0.220945  0.617000
-0.132802  0.220945  0.617000
-0.131627  0.220945  0.617000
-0.130451  0.220945  0.617000
-0.129276  0.220945  0.617000
-0.127893  0.220587  0.616000
-0.126720  0.220587  0.616000
-0.125547  0.220587  0.616000
-0.124373  0.220587  0.616000
-0.123000  0.220229  0.615000
-0.121630  0.219870  0.614000
-0.120461  0.219870  0.614000
-0.119291  0.219870  0.614000
-0.117930  0.219512  0.613000
-0.116571  0.219154  0.612000
-0.115406  0.219154  0.612000
-0.114427  0.219512  0.613000
-0.113259  0.219512  0.613000
-0.112091  0.219512  0.613000
-0.110924  0.219512  0.613000
-0.109935  0.219870  0.614000
-0.108943  0.220229  0.615000
-0.107947  0.220587  0.616000
-0.106773  0.220587  0.616000
-0.105771  0.220945  0.617000
-0.104596  0.220945  0.617000
-0.103589  0.221303  0.618000
-0.102577  0.221661  0.619000
-0.101562  0.222019  0.620000
-0.100381  0.222019  0.620000
-0.099520  0.222735  0.622000
-0.098493  0.223093  0.623000
-0.097307  0.223093  0.623000
-0.096274  0.223451  0.624000
-0.095238  0.223810  0.625000
-0.094198  0.224168  0.626000
-0.093154  0.224526  0.627000
-0.092107  0.224884  0.628000
-0.091055  0.225242  0.629000
-0.089857  0.225242  0.629000
-0.088659  0.225242  0.629000
-0.087739  0.225958  0.631000
-0.086674  0.226316  0.632000
-0.085741  0.227032  0.634000
-0.084667  0.227390  0.635000
-0.083589  0.227749  0.636000
-0.082636  0.228465  0.638000
-0.081549  0.228823  0.639000
-0.080331  0.228823  0.639000
-0.078686  0.273943  0.765000
-0.077229  0.273943  0.765000
-0.075771  0.273943  0.765000
-0.074509  0.274659  0.767000
-0.073143  0.275017  0.768000
-0.071680  0.275017  0.768000
-0.071497  0.280030  0.782000
-0.069560  0.278240  0.777000
-0.067905  0.277524  0.775000
-0.066257  0.276808  0.773000
-0.064785  0.276808  0.773000
-0.063476  0.277524  0.775000
-0.062000  0.277524  0.775000
-0.060524  0.277524  0.775000
-0.059200  0.278240  0.777000
-0.057720  0.278240  0.777000
-0.056240  0.278240  0.777000
-0.054619  0.277524  0.775000
-0.053143  0.277524  0.775000
-0.051667  0.277524  0.775000
-0.050190  0.277524  0.775000
-0.048589  0.276808  0.773000
-0.047116  0.276808  0.773000
-0.045644  0.276808  0.773000
-0.044171  0.276808  0.773000
-0.042644  0.276450  0.772000
-0.041173  0.276450  0.772000
-0.039703  0.276450  0.772000
-0.037886  0.273943  0.765000
-0.036429  0.273943  0.765000
-0.034971  0.273943  0.765000
-0.033514  0.273943  0.765000
-0.032267  0.275733  0.770000
-0.030800  0.275733  0.770000
-0.029333  0.275733  0.770000
-0.027867  0.275733  0.770000
-0.026400  0.275733  0.770000
-0.024933  0.275733  0.770000
-0.023467  0.275733  0.770000
-0.022086  0.276808  0.773000
-0.020667  0.277524  0.775000
-0.019240  0.278240  0.777000
-0.017760  0.278240  0.777000
-0.016280  0.278240  0.777000
-0.014800  0.278240  0.777000
-0.013320  0.278240  0.777000
-0.011810  0.277524  0.775000
-0.010307  0.276808  0.773000
-0.008834  0.276808  0.773000
-0.007400  0.278240  0.777000
-0.005920  0.278240  0.777000
-0.003840  0.240640  0.672000
-0.002560  0.240640  0.672000
-0.001280  0.240640  0.672000
0.000000  0.240640  0.672000
0.001278  0.240282  0.671000
0.002556  0.240282  0.671000
0.003834  0.240282  0.671000
0.005105  0.239924  0.670000
0.006371  0.239566  0.669000
0.007646  0.239566  0.669000
0.008893  0.238850  0.667000
0.010133  0.238133  0.665000
0.011366  0.237417  0.663000
0.012629  0.237417  0.663000
0.013870  0.237059  0.662000
0.015131  0.237059  0.662000
0.016368  0.236701  0.661000
0.017600  0.236343  0.660000
0.018857  0.236343  0.660000
0.020053  0.235627  0.658000
0.021307  0.235627  0.658000
0.022560  0.235627  0.658000
0.023777  0.235269  0.657000
0.025029  0.235269  0.657000
0.026240  0.234910  0.656000
0.027364  0.233836  0.653000
0.028564  0.233478  0.652000
0.029760  0.233120  0.651000
0.030952  0.232762  0.650000
0.032190  0.232762  0.650000
0.033326  0.232046  0.648000
0.034560  0.232046  0.648000
0.035739  0.231688  0.647000
0.036971  0.231688  0.647000
0.038145  0.231330  0.646000
0.039314  0.230971  0.645000
0.040543  0.230971  0.645000
0.041707  0.230613  0.644000
0.042933  0.230613  0.644000
0.044023  0.229897  0.642000
0.045246  0.229897  0.642000
0.046396  0.229539  0.641000
0.047543  0.229181  0.640000
0.048686  0.228823  0.639000
0.049825  0.228465  0.638000
0.050880  0.227749  0.636000
0.052091  0.227749  0.636000
0.053303  0.227749  0.636000
0.054429  0.227390  0.635000
0.055550  0.227032  0.634000
0.056669  0.226674  0.633000
0.057783  0.226316  0.632000
0.058987  0.226316  0.632000
0.060095  0.225958  0.631000
0.061103  0.225242  0.629000
0.062202  0.224884  0.628000
0.063297  0.224526  0.627000
0.064389  0.224168  0.626000
0.065476  0.223810  0.625000
0.066560  0.223451  0.624000
0.067640  0.223093  0.623000
0.068827  0.223093  0.623000
0.070013  0.223093  0.623000
0.071086  0.222735  0.622000
0.072038  0.222019  0.620000
0.073219  0.222019  0.620000
0.074400  0.222019  0.620000
0.075459  0.221661  0.619000
0.076638  0.221661  0.619000
0.077691  0.221303  0.618000
0.078869  0.221303  0.618000
0.079787  0.220587  0.616000
0.080829  0.220229  0.615000
0.082000  0.220229  0.615000
0.083036  0.219870  0.614000
0.084069  0.219512  0.613000
0.085097  0.219154  0.612000
0.086263  0.219154  0.612000
0.087429  0.219154  0.612000
0.088450  0.218796  0.611000
0.089613  0.218796  0.611000
0.090480  0.218080  0.609000
0.091640  0.218080  0.609000
0.092648  0.217722  0.608000
0.093806  0.217722  0.608000
0.094808  0.217364  0.607000
0.095648  0.216648  0.605000
0.096640  0.216290  0.604000
0.097790  0.216290  0.604000
0.098777  0.215931  0.603000
0.099926  0.215931  0.603000
0.101074  0.215931  0.603000
0.102053  0.215573  0.602000
0.103200  0.215573  0.602000
0.104347  0.215573  0.602000
0.105143  0.214857  0.600000
0.106109  0.214499  0.599000
0.107250  0.214499  0.599000
0.108390  0.214499  0.599000
0.109349  0.214141  0.598000
0.110488  0.214141  0.598000
0.111440  0.213783  0.597000
0.112577  0.213783  0.597000
0.113714  0.213783  0.597000
0.114467  0.213067  0.595000
0.115406  0.212709  0.594000
0.116537  0.212709  0.594000
0.117669  0.212709  0.594000
0.118600  0.212350  0.593000
0.119730  0.212350  0.593000
0.121063  0.212709  0.594000
0.122194  0.212709  0.594000
0.123533  0.213067  0.595000
0.125086  0.213783  0.597000
0.126434  0.214141  0.598000
0.128000  0.214857  0.600000
0.129358  0.215215  0.601000
0.130937  0.215931  0.603000
0.132962  0.217364  0.607000
0.134118  0.217364  0.607000
0.136389  0.219154  0.612000
0.137779  0.219512  0.613000
0.139400  0.220229  0.615000
0.140800  0.220587  0.616000
0.142204  0.220945  0.617000
0.143611  0.221303  0.618000
0.145023  0.221661  0.619000
0.147147  0.223093  0.623000
0.148333  0.223093  0.623000
0.151920  0.226674  0.633000
0.153126  0.226674  0.633000
0.154575  0.227032  0.634000
0.156029  0.227390  0.635000
0.157981  0.228465  0.638000
0.159196  0.228465  0.638000
0.160411  0.228465  0.638000
0.161627  0.228465  0.638000
0.208731  0.272510  0.761000
0.210181  0.272510  0.761000
0.213577  0.275017  0.768000
0.215040  0.275017  0.768000
0.217067  0.275733  0.770000
0.218533  0.275733  0.770000
0.220571  0.276450  0.772000
0.222330  0.276808  0.773000
0.223802  0.276808  0.773000
0.225274  0.276808  0.773000
0.226747  0.276808  0.773000
0.228219  0.276808  0.773000
0.229394  0.276450  0.772000
0.230865  0.276450  0.772000
0.230229  0.273943  0.765000
0.231686  0.273943  0.765000
0.233143  0.273943  0.765000
0.234600  0.273943  0.765000
0.236983  0.275017  0.768000
0.238446  0.275017  0.768000
0.238971  0.273943  0.765000
0.240429  0.273943  0.765000
0.241886  0.273943  0.765000
0.243979  0.274659  0.767000
0.245440  0.274659  0.767000
0.247223  0.275017  0.768000
0.248686  0.275017  0.768000
0.250149  0.275017  0.768000
0.251611  0.275017  0.768000
0.253074  0.275017  0.768000
0.255200  0.275733  0.770000
0.256667  0.275733  0.770000
0.258133  0.275733  0.770000
0.259600  0.275733  0.770000
0.261067  0.275733  0.770000
0.262533  0.275733  0.770000
0.264000  0.275733  0.770000
0.265467  0.275733  0.770000
0.266933  0.275733  0.770000
0.267810  0.272152  0.760000
0.269257  0.272152  0.760000
0.273198  0.274659  0.767000
0.274659  0.274659  0.767000
0.276120  0.274659  0.767000
0.276133  0.273227  0.763000
0.277587  0.273227  0.763000
0.279040  0.273227  0.763000
0.280493  0.273227  0.763000
0.281947  0.273227  0.763000
0.285257  0.275017  0.768000
0.287467  0.275733  0.770000
0.288933  0.275733  0.770000
0.290400  0.275733  0.770000
0.291867  0.275733  0.770000
0.293333  0.275733  0.770000
0.295566  0.276450  0.772000
0.297036  0.276450  0.772000
0.298893  0.276808  0.773000
0.300366  0.276808  0.773000
-0.462048  0.279000  0.775000
-0.460571  0.279000  0.775000
-0.459095  0.279000  0.775000
-0.457619  0.279000  0.775000
-0.446137  0.272880  0.758000
-0.444693  0.272880  0.758000
-0.448512  0.276120  0.767000
-0.447634  0.276480  0.768000
-0.446171  0.276480  0.768000
-0.444130  0.276120  0.767000
-0.442669  0.276120  0.767000
-0.441208  0.276120  0.767000
-0.439747  0.276120  0.767000
-0.438857  0.276480  0.768000
-0.436825  0.276120  0.767000
-0.435364  0.276120  0.767000
-0.434469  0.276480  0.768000
-0.433006  0.276480  0.768000
-0.432667  0.277200  0.770000
-0.432320  0.277920  0.772000
-0.429733  0.277200  0.770000
-0.428267  0.277200  0.770000
-0.426800  0.277200  0.770000
-0.425333  0.277200  0.770000
-0.423867  0.277200  0.770000
-0.423497  0.277920  0.772000
-0.422573  0.278280  0.773000
-0.422190  0.279000  0.775000
-0.421800  0.279720  0.777000
-0.420320  0.279720  0.777000
-0.418840  0.279720  0.777000
-0.417360  0.279720  0.777000
-0.407316  0.273960  0.761000
-0.405867  0.273960  0.761000
-0.405480  0.274680  0.763000
-0.404027  0.274680  0.763000
-0.404684  0.276120  0.767000
-0.403223  0.276120  0.767000
-0.402286  0.276480  0.768000
-0.401867  0.277200  0.770000
-0.401440  0.277920  0.772000
-0.399970  0.277920  0.772000
-0.399015  0.278280  0.773000
-0.398571  0.279000  0.775000
-0.397095  0.279000  0.775000
-0.396640  0.279720  0.777000
-0.395160  0.279720  0.777000
-0.394693  0.280440  0.779000
-0.393210  0.280440  0.779000
-0.392229  0.280800  0.780000
-0.390743  0.280800  0.780000
-0.382770  0.276120  0.767000
-0.381309  0.276120  0.767000
-0.378857  0.275400  0.765000
-0.377400  0.275400  0.765000
-0.376926  0.276120  0.767000
-0.376933  0.277200  0.770000
-0.373029  0.275400  0.765000
-0.371571  0.275400  0.765000
-0.372533  0.277200  0.770000
-0.371067  0.277200  0.770000
-0.369600  0.277200  0.770000
-0.368133  0.277200  0.770000
-0.365238  0.276120  0.767000
-0.363777  0.276120  0.767000
-0.362316  0.276120  0.767000
-0.361326  0.276480  0.768000
-0.359863  0.276480  0.768000
-0.359333  0.277200  0.770000
-0.356472  0.276120  0.767000
-0.354086  0.275400  0.765000
-0.352629  0.275400  0.765000
-0.351171  0.275400  0.765000
-0.349714  0.275400  0.765000
-0.348257  0.275400  0.765000
-0.345893  0.274680  0.763000
-0.344440  0.274680  0.763000
-0.343886  0.275400  0.765000
-0.345562  0.277920  0.772000
-0.346320  0.279720  0.777000
-0.343952  0.279000  0.775000
-0.342476  0.279000  0.775000
-0.341000  0.279000  0.775000
-0.338648  0.278280  0.773000
-0.336739  0.277920  0.772000
-0.335269  0.277920  0.772000
-0.333798  0.277920  0.772000
-0.332328  0.277920  0.772000
-0.331286  0.278280  0.773000
-0.329813  0.278280  0.773000
-0.328341  0.278280  0.773000
-0.327714  0.279000  0.775000
-0.326238  0.279000  0.775000
-0.324762  0.279000  0.775000
-0.323286  0.279000  0.775000
-0.321810  0.279000  0.775000
-0.320333  0.279000  0.775000
-0.318857  0.279000  0.775000
-0.315333  0.277200  0.770000
-0.313867  0.277200  0.770000
-0.315240  0.279720  0.777000
-0.310933  0.277200  0.770000
-0.309467  0.277200  0.770000
-0.308000  0.277200  0.770000
-0.306533  0.277200  0.770000
-0.305067  0.277200  0.770000
-0.304389  0.277920  0.772000
-0.302918  0.277920  0.772000
-0.301448  0.277920  0.772000
-0.299200  0.277200  0.770000
-0.297733  0.277200  0.770000
-0.296267  0.277200  0.770000
-0.294800  0.277200  0.770000
-0.293333  0.277200  0.770000
-0.291867  0.277200  0.770000
-0.290400  0.277200  0.770000
-0.288933  0.277200  0.770000
-0.287467  0.277200  0.770000
-0.286000  0.277200  0.770000
-0.284533  0.277200  0.770000
-0.283067  0.277200  0.770000
-0.281600  0.277200  0.770000
-0.280133  0.277200  0.770000
-0.278667  0.277200  0.770000
-0.276120  0.276120  0.767000
-0.273943  0.275400  0.765000
-0.270705  0.273600  0.760000
-0.269257  0.273600  0.760000
-0.267810  0.273600  0.760000
-0.266362  0.273600  0.760000
-0.264914  0.273600  0.760000
-0.263467  0.273600  0.760000
-0.262019  0.273600  0.760000
-0.261600  0.274680  0.763000
-0.260147  0.274680  0.763000
-0.260050  0.276120  0.767000
-0.258589  0.276120  0.767000
-0.258133  0.277200  0.770000
-0.256667  0.277200  0.770000
-0.255200  0.277200  0.770000
-0.253733  0.277200  0.770000
-0.252267  0.277200  0.770000
-0.251777  0.278280  0.773000
-0.249981  0.277920  0.772000
-0.248510  0.277920  0.772000
-0.247040  0.277920  0.772000
-0.245570  0.277920  0.772000
-0.244099  0.277920  0.772000
-0.242629  0.277920  0.772000
-0.241158  0.277920  0.772000
-0.239688  0.277920  0.772000
-0.238526  0.278280  0.773000
-0.237053  0.278280  0.773000
-0.235581  0.278280  0.773000
-0.234109  0.278280  0.773000
-0.232335  0.277920  0.772000
-0.230267  0.277200  0.770000
-0.228800  0.277200  0.770000
-0.228810  0.279000  0.775000
-0.228800  0.280800  0.780000
-0.227897  0.281520  0.782000
-0.221486  0.275400  0.765000
-0.220029  0.275400  0.765000
-0.218000  0.274680  0.763000
-0.216547  0.274680  0.763000
-0.215093  0.274680  0.763000
-0.213640  0.274680  0.763000
-0.212187  0.274680  0.763000
-0.211286  0.275400  0.765000
-0.210377  0.276120  0.767000
-0.209189  0.276480  0.768000
-0.207726  0.276480  0.768000
-0.206263  0.276480  0.768000
-0.205333  0.277200  0.770000
-0.203867  0.277200  0.770000
-0.160869  0.220320  0.612000
-0.159703  0.220320  0.612000
-0.158537  0.220320  0.612000
-0.157629  0.220680  0.613000
-0.156461  0.220680  0.613000
-0.155293  0.220680  0.613000
-0.154880  0.221760  0.616000
-0.154705  0.223200  0.620000
-0.153524  0.223200  0.620000
-0.152343  0.223200  0.620000
-0.151162  0.223200  0.620000
-0.149739  0.222840  0.619000
-0.148560  0.222840  0.619000
-0.147381  0.222840  0.619000
-0.146202  0.222840  0.619000
-0.145023  0.222840  0.619000
-0.143611  0.222480  0.618000
-0.142434  0.222480  0.618000
-0.141257  0.222480  0.618000
-0.140080  0.222480  0.618000
-0.138903  0.222480  0.618000
-0.137503  0.222120  0.617000
-0.136328  0.222120  0.617000
-0.135152  0.222120  0.617000
-0.133977  0.222120  0.617000
-0.132802  0.222120  0.617000
-0.131627  0.222120  0.617000
-0.130451  0.222120  0.617000
-0.129067  0.221760  0.616000
-0.127893  0.221760  0.616000
-0.126720  0.221760  0.616000
-0.125750  0.222120  0.617000
-0.124373  0.221760  0.616000
-0.123000  0.221400  0.615000
-0.121829  0.221400  0.615000
-0.120657  0.221400  0.615000
-0.119291  0.221040  0.614000
-0.117930  0.220680  0.613000
-0.116571  0.220320  0.612000
-0.115406  0.220320  0.612000
-0.114427  0.220680  0.613000
-0.113259  0.220680  0.613000
-0.112091  0.220680  0.613000
-0.110924  0.220680  0.613000
-0.109935  0.221040  0.614000
-0.108943  0.221400  0.615000
-0.107947  0.221760  0.616000
-0.106773  0.221760  0.616000
-0.105771  0.222120  0.617000
-0.104596  0.222120  0.617000
-0.103589  0.222480  0.618000
-0.102577  0.222840  0.619000
-0.101562  0.223200  0.620000
-0.100705  0.223920  0.622000
-0.099520  0.223920  0.622000
-0.098493  0.224280  0.623000
-0.097307  0.224280  0.623000
-0.096274  0.224640  0.624000
-0.095238  0.225000  0.625000
-0.094198  0.225360  0.626000
-0.093303  0.226080  0.628000
-0.092107  0.226080  0.628000
-0.091055  0.226440  0.629000
-0.089857  0.226440  0.629000
-0.088659  0.226440  0.629000
-0.087739  0.227160  0.631000
-0.086674  0.227520  0.632000
-0.085741  0.228240  0.634000
-0.084667  0.228600  0.635000
-0.083589  0.228960  0.636000
-0.082636  0.229680  0.638000
-0.081421  0.229680  0.638000
-0.080331  0.230040  0.639000
-0.079114  0.230040  0.639000
-0.079933  0.274680  0.763000
-0.078480  0.274680  0.763000
-0.077229  0.275400  0.765000
-0.075771  0.275400  0.765000
-0.074509  0.276120  0.767000
-0.073048  0.276120  0.767000
-0.071680  0.276480  0.768000
-0.070400  0.277200  0.770000
-0.069112  0.277920  0.772000
-0.067730  0.278280  0.773000
-0.066257  0.278280  0.773000
-0.064785  0.278280  0.773000
-0.063312  0.278280  0.773000
-0.061840  0.278280  0.773000
-0.060368  0.278280  0.773000
-0.058895  0.278280  0.773000
-0.057423  0.278280  0.773000
-0.055589  0.276480  0.768000
-0.054055  0.276120  0.767000
-0.052594  0.276120  0.767000
-0.051000  0.275400  0.765000
-0.049543  0.275400  0.765000
-0.048400  0.277200  0.770000
-0.046933  0.277200  0.770000
-0.045467  0.277200  0.770000
-0.044000  0.277200  0.770000
-0.042533  0.277200  0.770000
-0.041067  0.277200  0.770000
-0.039600  0.277200  0.770000
-0.037886  0.275400  0.765000
-0.036429  0.275400  0.765000
-0.034971  0.275400  0.765000
-0.033514  0.275400  0.765000
-0.032057  0.275400  0.765000
-0.030680  0.276120  0.767000
-0.029257  0.276480  0.768000
-0.027794  0.276480  0.768000
-0.026297  0.276120  0.767000
-0.024836  0.276120  0.767000
-0.023406  0.276480  0.768000
-0.022000  0.277200  0.770000
-0.020587  0.277920  0.772000
-0.019240  0.279720  0.777000
-0.017531  0.276120  0.767000
-0.016070  0.276120  0.767000
-0.014610  0.276120  0.767000
-0.013200  0.277200  0.770000
-0.011779  0.278280  0.773000
-0.010293  0.277920  0.772000
-0.008823  0.277920  0.772000
-0.007352  0.277920  0.772000
-0.005120  0.241920  0.672000
-0.003840  0.241920  0.672000
-0.002560  0.241920  0.672000
-0.001280  0.241920  0.672000
0.000000  0.241920  0.672000
0.001278  0.241560  0.671000
0.002556  0.241560  0.671000
0.003834  0.241560  0.671000
0.005105  0.241200  0.670000
0.006371  0.240840  0.669000
0.007646  0.240840  0.669000
0.008893  0.240120  0.667000
0.010133  0.239400  0.665000
0.011366  0.238680  0.663000
0.012629  0.238680  0.663000
0.013870  0.238320  0.662000
0.015131  0.238320  0.662000
0.016392  0.238320  0.662000
0.017627  0.237960  0.661000
0.018857  0.237600  0.660000
0.020053  0.236880  0.658000
0.021307  0.236880  0.658000
0.022560  0.236880  0.658000
0.023777  0.236520  0.657000
0.025029  0.236520  0.657000
0.026240  0.236160  0.656000
0.027364  0.235080  0.653000
0.028608  0.235080  0.653000
0.029806  0.234720  0.652000
0.030952  0.234000  0.650000
0.032190  0.234000  0.650000
0.033326  0.233280  0.648000
0.034507  0.232920  0.647000
0.035739  0.232920  0.647000
0.036971  0.232920  0.647000
0.038145  0.232560  0.646000
0.039314  0.232200  0.645000
0.040543  0.232200  0.645000
0.041707  0.231840  0.644000
0.042933  0.231840  0.644000
0.044023  0.231120  0.642000
0.045246  0.231120  0.642000
0.046396  0.230760  0.641000
0.047543  0.230400  0.640000
0.048686  0.230040  0.639000
0.049825  0.229680  0.638000
0.051040  0.229680  0.638000
0.052255  0.229680  0.638000
0.053303  0.228960  0.636000
0.054429  0.228600  0.635000
0.055550  0.228240  0.634000
0.056758  0.228240  0.634000
0.057783  0.227520  0.632000
0.058987  0.227520  0.632000
0.060095  0.227160  0.631000
0.061103  0.226440  0.629000
0.062202  0.226080  0.628000
0.063297  0.225720  0.627000
0.064286  0.225000  0.625000
0.065476  0.225000  0.625000
0.066560  0.224640  0.624000
0.067640  0.224280  0.623000
0.068827  0.224280  0.623000
0.070013  0.224280  0.623000
0.071086  0.223920  0.622000
0.072038  0.223200  0.620000
0.073101  0.222840  0.619000
0.074280  0.222840  0.619000
0.075459  0.222840  0.619000
0.076514  0.222480  0.618000
0.077691  0.222480  0.618000
0.078869  0.222480  0.618000
0.079787  0.221760  0.616000
0.080829  0.221400  0.615000
0.082000  0.221400  0.615000
0.083036  0.221040  0.614000
0.084069  0.220680  0.613000
0.085097  0.220320  0.612000
0.086263  0.220320  0.612000
0.087429  0.220320  0.612000
0.088450  0.219960  0.611000
0.089613  0.219960  0.611000
0.090777  0.219960  0.611000
0.091941  0.219960  0.611000
0.092800  0.219240  0.609000
0.093806  0.218880  0.608000
0.094808  0.218520  0.607000
0.095648  0.217800  0.605000
0.096640  0.217440  0.604000
0.097790  0.217440  0.604000
0.098777  0.217080  0.603000
0.099926  0.217080  0.603000
0.101074  0.217080  0.603000
0.102223  0.217080  0.603000
0.103200  0.216720  0.602000
0.104347  0.216720  0.602000
0.105318  0.216360  0.601000
0.106109  0.215640  0.599000
0.107250  0.215640  0.599000
0.108390  0.215640  0.599000
0.109349  0.215280  0.598000
0.110488  0.215280  0.598000
0.111440  0.214920  0.597000
0.112577  0.214920  0.597000
0.113714  0.214920  0.597000
0.114467  0.214200  0.595000
0.115406  0.213840  0.594000
0.116537  0.213840  0.594000
0.117470  0.213480  0.593000
0.118600  0.213480  0.593000
0.119730  0.213480  0.593000
0.121063  0.213840  0.594000
0.122194  0.213840  0.594000
0.123741  0.214560  0.596000
0.125086  0.214920  0.597000
0.126646  0.215640  0.599000
0.128000  0.216000  0.600000
0.129358  0.216360  0.601000
0.130937  0.217080  0.603000
0.132962  0.218520  0.607000
0.134118  0.218520  0.607000
0.136389  0.220320  0.612000
0.137779  0.220680  0.613000
0.139400  0.221400  0.615000
0.140800  0.221760  0.616000
0.142204  0.222120  0.617000
0.143611  0.222480  0.618000
0.145023  0.222840  0.619000
0.147147  0.224280  0.623000
0.148333  0.224280  0.623000
0.151680  0.227520  0.632000
0.152884  0.227520  0.632000
0.154575  0.228240  0.634000
0.156029  0.228600  0.635000
0.157486  0.228960  0.636000
0.158697  0.228960  0.636000
0.160411  0.229680  0.638000
0.161627  0.229680  0.638000
0.205920  0.272160  0.756000
0.207360  0.272160  0.756000
0.209905  0.273600  0.760000
0.211630  0.273960  0.761000
0.214760  0.276120  0.767000
0.216503  0.276480  0.768000
0.218533  0.277200  0.770000
0.220571  0.277920  0.772000
0.222330  0.278280  0.773000
0.223802  0.278280  0.773000
0.225274  0.278280  0.773000
0.226747  0.278280  0.773000
0.228219  0.278280  0.773000
0.228800  0.277200  0.770000
0.228173  0.274680  0.763000
0.229627  0.274680  0.763000
0.231080  0.274680  0.763000
0.232533  0.274680  0.763000
0.233987  0.274680  0.763000
0.236057  0.275400  0.765000
0.237514  0.275400  0.765000
0.238971  0.275400  0.765000
0.240429  0.275400  0.765000
0.241886  0.275400  0.765000
0.243343  0.275400  0.765000
0.244800  0.275400  0.765000
0.246901  0.276120  0.767000
0.248686  0.276480  0.768000
0.249171  0.275400  0.765000
0.250629  0.275400  0.765000
0.252086  0.275400  0.765000
0.253543  0.275400  0.765000
0.254333  0.274680  0.763000
0.255787  0.274680  0.763000
0.258589  0.276120  0.767000
0.260389  0.276480  0.768000
0.261851  0.276480  0.768000
0.263314  0.276480  0.768000
0.264777  0.276480  0.768000
0.266240  0.276480  0.768000
0.267810  0.273600  0.760000
0.269257  0.273600  0.760000
0.270705  0.273600  0.760000
0.272510  0.273960  0.761000
0.273600  0.273600  0.760000
0.274324  0.272880  0.758000
0.275768  0.272880  0.758000
0.276480  0.272160  0.756000
0.277920  0.272160  0.756000
0.280099  0.272880  0.758000
0.282657  0.273960  0.761000
0.286347  0.276120  0.767000
0.288183  0.276480  0.768000
0.289646  0.276480  0.768000
0.291867  0.277200  0.770000
0.294095  0.277920  0.772000
0.295566  0.277920  0.772000
0.297421  0.278280  0.773000
0.298893  0.278280  0.773000
0.300366  0.278280  0.773000
-0.451912  0.274324  0.758000
-0.450469  0.274324  0.758000
-0.449025  0.274324  0.758000
-0.446400  0.273600  0.756000
-0.444960  0.273600  0.756000
-0.444693  0.274324  0.758000
-0.444419  0.275048  0.760000
-0.445886  0.276857  0.765000
-0.444429  0.276857  0.765000
-0.442971  0.276857  0.765000
-0.441514  0.276857  0.765000
-0.440057  0.276857  0.765000
-0.438600  0.276857  0.765000
-0.437143  0.276857  0.765000
-0.435686  0.276857  0.765000
-0.434229  0.276857  0.765000
-0.432771  0.276857  0.765000
-0.430187  0.276133  0.763000
-0.428733  0.276133  0.763000
-0.426160  0.275410  0.761000
-0.424710  0.275410  0.761000
-0.425486  0.276857  0.765000
-0.425137  0.277581  0.767000
-0.423676  0.277581  0.767000
-0.422215  0.277581  0.767000
-0.421303  0.277943  0.768000
-0.420933  0.278667  0.770000
-0.422190  0.280476  0.775000
-0.421800  0.281200  0.777000
-0.420320  0.281200  0.777000
-0.419918  0.281924  0.779000
-0.407154  0.274324  0.758000
-0.405710  0.274324  0.758000
-0.404267  0.274324  0.758000
-0.402823  0.274324  0.758000
-0.402438  0.275048  0.760000
-0.400990  0.275048  0.760000
-0.402171  0.276857  0.765000
-0.401762  0.277581  0.767000
-0.401867  0.278667  0.770000
-0.400400  0.278667  0.770000
-0.399970  0.279390  0.772000
-0.398499  0.279390  0.772000
-0.397543  0.279752  0.773000
-0.396070  0.279752  0.773000
-0.389493  0.276133  0.763000
-0.388040  0.276133  0.763000
-0.386587  0.276133  0.763000
-0.381600  0.273600  0.756000
-0.380160  0.273600  0.756000
-0.379722  0.274324  0.758000
-0.379276  0.275048  0.760000
-0.377829  0.275048  0.760000
-0.376381  0.275048  0.760000
-0.374933  0.275048  0.760000
-0.373486  0.275048  0.760000
-0.374486  0.276857  0.765000
-0.373029  0.276857  0.765000
-0.371571  0.276857  0.765000
-0.371082  0.277581  0.767000
-0.369621  0.277581  0.767000
-0.368160  0.277581  0.767000
-0.366699  0.277581  0.767000
-0.364286  0.276857  0.765000
-0.362829  0.276857  0.765000
-0.361371  0.276857  0.765000
-0.360855  0.277581  0.767000
-0.359394  0.277581  0.767000
-0.357000  0.276857  0.765000
-0.355543  0.276857  0.765000
-0.353160  0.276133  0.763000
-0.351707  0.276133  0.763000
-0.350253  0.276133  0.763000
-0.349714  0.276857  0.765000
-0.348257  0.276857  0.765000
-0.345893  0.276133  0.763000
-0.344440  0.276133  0.763000
-0.343886  0.276857  0.765000
-0.342429  0.276857  0.765000
-0.340971  0.276857  0.765000
-0.343065  0.279752  0.773000
-0.341592  0.279752  0.773000
-0.340120  0.279752  0.773000
-0.338210  0.279390  0.772000
-0.335867  0.278667  0.770000
-0.334400  0.278667  0.770000
-0.332069  0.277943  0.768000
-0.330606  0.277943  0.768000
-0.330000  0.278667  0.770000
-0.327680  0.277943  0.768000
-0.326217  0.277943  0.768000
-0.320526  0.274324  0.758000
-0.319082  0.274324  0.758000
-0.318476  0.275048  0.760000
-0.318280  0.276133  0.763000
-0.317657  0.276857  0.765000
-0.316200  0.276857  0.765000
-0.314743  0.276857  0.765000
-0.313286  0.276857  0.765000
-0.311013  0.276133  0.763000
-0.309560  0.276133  0.763000
-0.308914  0.276857  0.765000
-0.305448  0.275048  0.760000
-0.304000  0.275048  0.760000
-0.301756  0.274324  0.758000
-0.300312  0.274324  0.758000
-0.299657  0.275048  0.760000
-0.298210  0.275048  0.760000
-0.297933  0.276133  0.763000
-0.298034  0.277581  0.767000
-0.296573  0.277581  0.767000
-0.295497  0.277943  0.768000
-0.294034  0.277943  0.768000
-0.292571  0.277943  0.768000
-0.291109  0.277943  0.768000
-0.289269  0.277581  0.767000
-0.287808  0.277581  0.767000
-0.286720  0.277943  0.768000
-0.284886  0.277581  0.767000
-0.282686  0.276857  0.765000
-0.281229  0.276857  0.765000
-0.280503  0.277581  0.767000
-0.279042  0.277581  0.767000
-0.277581  0.277581  0.767000
-0.274680  0.276133  0.763000
-0.273227  0.276133  0.763000
-0.270705  0.275048  0.760000
-0.269257  0.275048  0.760000
-0.267810  0.275048  0.760000
-0.266362  0.275048  0.760000
-0.264914  0.275048  0.760000
-0.263467  0.275048  0.760000
-0.262019  0.275048  0.760000
-0.260571  0.275048  0.760000
-0.259124  0.275048  0.760000
-0.259371  0.276857  0.765000
-0.257914  0.276857  0.765000
-0.256457  0.276857  0.765000
-0.255000  0.276857  0.765000
-0.254206  0.277581  0.767000
-0.252745  0.277581  0.767000
-0.251284  0.277581  0.767000
-0.249823  0.277581  0.767000
-0.248362  0.277581  0.767000
-0.247223  0.277943  0.768000
-0.246400  0.278667  0.770000
-0.244933  0.278667  0.770000
-0.243467  0.278667  0.770000
-0.242000  0.278667  0.770000
-0.240533  0.278667  0.770000
-0.239067  0.278667  0.770000
-0.238217  0.279390  0.772000
-0.236747  0.279390  0.772000
-0.235276  0.279390  0.772000
-0.234109  0.279752  0.773000
-0.231131  0.277943  0.768000
-0.226678  0.274324  0.758000
-0.225234  0.274324  0.758000
-0.223790  0.274324  0.758000
-0.222347  0.274324  0.758000
-0.221486  0.275048  0.760000
-0.220328  0.275410  0.761000
-0.218878  0.275410  0.761000
-0.217143  0.275048  0.760000
-0.215695  0.275048  0.760000
-0.214248  0.275048  0.760000
-0.213080  0.275410  0.761000
-0.211630  0.275410  0.761000
-0.210733  0.276133  0.763000
-0.209280  0.276133  0.763000
-0.208371  0.276857  0.765000
-0.207455  0.277581  0.767000
-0.206263  0.277943  0.768000
-0.205333  0.278667  0.770000
-0.203867  0.278667  0.770000
-0.202926  0.279390  0.772000
-0.159703  0.221486  0.612000
-0.158537  0.221486  0.612000
-0.157371  0.221486  0.612000
-0.156206  0.221486  0.612000
-0.155293  0.221848  0.613000
-0.154880  0.222933  0.616000
-0.154705  0.224381  0.620000
-0.153524  0.224381  0.620000
-0.152343  0.224381  0.620000
-0.151162  0.224381  0.620000
-0.149739  0.224019  0.619000
-0.148560  0.224019  0.619000
-0.147619  0.224381  0.620000
-0.146202  0.224019  0.619000
-0.145023  0.224019  0.619000
-0.143844  0.224019  0.619000
-0.142665  0.224019  0.619000
-0.141257  0.223657  0.618000
-0.140080  0.223657  0.618000
-0.138903  0.223657  0.618000
-0.137726  0.223657  0.618000
-0.136328  0.223295  0.617000
-0.135152  0.223295  0.617000
-0.133977  0.223295  0.617000
-0.132802  0.223295  0.617000
-0.131627  0.223295  0.617000
-0.130451  0.223295  0.617000
-0.129067  0.222933  0.616000
-0.127893  0.222933  0.616000
-0.126720  0.222933  0.616000
-0.125547  0.222933  0.616000
-0.124373  0.222933  0.616000
-0.123000  0.222571  0.615000
-0.121829  0.222571  0.615000
-0.120657  0.222571  0.615000
-0.119291  0.222210  0.614000
-0.117930  0.221848  0.613000
-0.116762  0.221848  0.613000
-0.115594  0.221848  0.613000
-0.114427  0.221848  0.613000
-0.113259  0.221848  0.613000
-0.112091  0.221848  0.613000
-0.110924  0.221848  0.613000
-0.109935  0.222210  0.614000
-0.108943  0.222571  0.615000
-0.107947  0.222933  0.616000
-0.106773  0.222933  0.616000
-0.105771  0.223295  0.617000
-0.104596  0.223295  0.617000
-0.103589  0.223657  0.618000
-0.102577  0.224019  0.619000
-0.101562  0.224381  0.620000
-0.100705  0.225105  0.622000
-0.099520  0.225105  0.622000
-0.098493  0.225467  0.623000
-0.097463  0.225829  0.624000
-0.096274  0.225829  0.624000
-0.095238  0.226190  0.625000
-0.094198  0.226552  0.626000
-0.093303  0.227276  0.628000
-0.092107  0.227276  0.628000
-0.091055  0.227638  0.629000
-0.089857  0.227638  0.629000
-0.088659  0.227638  0.629000
-0.087739  0.228362  0.631000
-0.086674  0.228724  0.632000
-0.085741  0.229448  0.634000
-0.084667  0.229810  0.635000
-0.083589  0.230171  0.636000
-0.082636  0.230895  0.638000
-0.081421  0.230895  0.638000
-0.080331  0.231257  0.639000
-0.079114  0.231257  0.639000
-0.078019  0.231619  0.640000
-0.081429  0.271429  0.750000
-0.080000  0.271429  0.750000
-0.079933  0.276133  0.763000
-0.078480  0.276133  0.763000
-0.077027  0.276133  0.763000
-0.075573  0.276133  0.763000
-0.074314  0.276857  0.765000
-0.072857  0.276857  0.765000
-0.071400  0.276857  0.765000
-0.069943  0.276857  0.765000
-0.068754  0.277943  0.768000
-0.067730  0.279752  0.773000
-0.066257  0.279752  0.773000
-0.064785  0.279752  0.773000
-0.063312  0.279752  0.773000
-0.061600  0.278667  0.770000
-0.060133  0.278667  0.770000
-0.058667  0.278667  0.770000
-0.056457  0.275048  0.760000
-0.055010  0.275048  0.760000
-0.053914  0.276857  0.765000
-0.052457  0.276857  0.765000
-0.051000  0.276857  0.765000
-0.049543  0.276857  0.765000
-0.048211  0.277581  0.767000
-0.046811  0.277943  0.768000
-0.045349  0.277943  0.768000
-0.043829  0.277581  0.767000
-0.042368  0.277581  0.767000
-0.040800  0.276857  0.765000
-0.039343  0.276857  0.765000
-0.037787  0.276133  0.763000
-0.036333  0.276133  0.763000
-0.034971  0.276857  0.765000
-0.033514  0.276857  0.765000
-0.032057  0.276857  0.765000
-0.030680  0.277581  0.767000
-0.029219  0.277581  0.767000
-0.027794  0.277943  0.768000
-0.026297  0.277581  0.767000
-0.024836  0.277581  0.767000
-0.023375  0.277581  0.767000
-0.021914  0.277581  0.767000
-0.020400  0.276857  0.765000
-0.018943  0.276857  0.765000
-0.017440  0.276133  0.763000
-0.015987  0.276133  0.763000
-0.014533  0.276133  0.763000
-0.013149  0.277581  0.767000
-0.011688  0.277581  0.767000
-0.010227  0.277581  0.767000
-0.008777  0.277943  0.768000
-0.007314  0.277943  0.768000
-0.005851  0.277943  0.768000
-0.003840  0.243200  0.672000
-0.002560  0.243200  0.672000
-0.001280  0.243200  0.672000
0.000000  0.243200  0.672000
0.001278  0.242838  0.671000
0.002556  0.242838  0.671000
0.003834  0.242838  0.671000
0.005105  0.242476  0.670000
0.006371  0.242114  0.669000
0.007646  0.242114  0.669000
0.008893  0.241390  0.667000
0.010149  0.241029  0.666000
0.011417  0.241029  0.666000
0.012629  0.239943  0.663000
0.013891  0.239943  0.663000
0.015131  0.239581  0.662000
0.016392  0.239581  0.662000
0.017627  0.239219  0.661000
0.018857  0.238857  0.660000
0.020114  0.238857  0.660000
0.021307  0.238133  0.658000
0.022560  0.238133  0.658000
0.023813  0.238133  0.658000
0.025029  0.237771  0.657000
0.026240  0.237410  0.656000
0.027364  0.236324  0.653000
0.028608  0.236324  0.653000
0.029806  0.235962  0.652000
0.030952  0.235238  0.650000
0.032190  0.235238  0.650000
0.033326  0.234514  0.648000
0.034507  0.234152  0.647000
0.035739  0.234152  0.647000
0.036971  0.234152  0.647000
0.038204  0.234152  0.647000
0.039314  0.233429  0.645000
0.040543  0.233429  0.645000
0.041707  0.233067  0.644000
0.042933  0.233067  0.644000
0.044023  0.232343  0.642000
0.045246  0.232343  0.642000
0.046396  0.231981  0.641000
0.047617  0.231981  0.641000
0.048762  0.231619  0.640000
0.049825  0.230895  0.638000
0.051040  0.230895  0.638000
0.052255  0.230895  0.638000
0.053303  0.230171  0.636000
0.054514  0.230171  0.636000
0.055638  0.229810  0.635000
0.056758  0.229448  0.634000
0.057874  0.229086  0.633000
0.059080  0.229086  0.633000
0.060286  0.229086  0.633000
0.061103  0.227638  0.629000
0.062202  0.227276  0.628000
0.063196  0.226552  0.626000
0.064286  0.226190  0.625000
0.065476  0.226190  0.625000
0.066560  0.225829  0.624000
0.067640  0.225467  0.623000
0.068827  0.225467  0.623000
0.070013  0.225467  0.623000
0.071086  0.225105  0.622000
0.071922  0.224019  0.619000
0.073101  0.224019  0.619000
0.074280  0.224019  0.619000
0.075459  0.224019  0.619000
0.076514  0.223657  0.618000
0.077691  0.223657  0.618000
0.078869  0.223657  0.618000
0.079916  0.223295  0.617000
0.080829  0.222571  0.615000
0.081867  0.222210  0.614000
0.083036  0.222210  0.614000
0.084069  0.221848  0.613000
0.085097  0.221486  0.612000
0.086263  0.221486  0.612000
0.087429  0.221486  0.612000
0.088594  0.221486  0.612000
0.089613  0.221124  0.611000
0.090777  0.221124  0.611000
0.091941  0.221124  0.611000
0.092800  0.220400  0.609000
0.093806  0.220038  0.608000
0.094808  0.219676  0.607000
0.095806  0.219314  0.606000
0.096800  0.218952  0.605000
0.097790  0.218590  0.604000
0.098777  0.218229  0.603000
0.099926  0.218229  0.603000
0.101074  0.218229  0.603000
0.102223  0.218229  0.603000
0.103200  0.217867  0.602000
0.104347  0.217867  0.602000
0.105318  0.217505  0.601000
0.106109  0.216781  0.599000
0.107250  0.216781  0.599000
0.108390  0.216781  0.599000
0.109349  0.216419  0.598000
0.110488  0.216419  0.598000
0.111440  0.216057  0.597000
0.112577  0.216057  0.597000
0.113714  0.216057  0.597000
0.114467  0.215333  0.595000
0.115406  0.214971  0.594000
0.116537  0.214971  0.594000
0.117470  0.214610  0.593000
0.118600  0.214610  0.593000
0.119730  0.214610  0.593000
0.121063  0.214971  0.594000
0.122194  0.214971  0.594000
0.123741  0.215695  0.596000
0.125295  0.216419  0.598000
0.126646  0.216781  0.599000
0.128000  0.217143  0.600000
0.129573  0.217867  0.602000
0.131154  0.218590  0.604000
0.133181  0.220038  0.608000
0.134339  0.220038  0.608000
0.136389  0.221486  0.612000
0.137554  0.221486  0.612000
0.139627  0.222933  0.616000
0.141029  0.223295  0.617000
0.142434  0.223657  0.618000
0.143844  0.224019  0.619000
0.145257  0.224381  0.620000
0.147147  0.225467  0.623000
0.148333  0.225467  0.623000
0.151680  0.228724  0.632000
0.152884  0.228724  0.632000
0.154575  0.229448  0.634000
0.156029  0.229810  0.635000
0.157486  0.230171  0.636000
0.158697  0.230171  0.636000
0.160411  0.230895  0.638000
0.161627  0.230895  0.638000
0.205920  0.273600  0.756000
0.207360  0.273600  0.756000
0.208800  0.273600  0.756000
0.211352  0.275048  0.760000
0.214200  0.276857  0.765000
0.216503  0.277943  0.768000
0.217966  0.277943  0.768000
0.220571  0.279390  0.772000
0.222042  0.279390  0.772000
0.223512  0.279390  0.772000
0.224983  0.279390  0.772000
0.226747  0.279752  0.773000
0.228219  0.279752  0.773000
0.228800  0.278667  0.770000
0.228173  0.276133  0.763000
0.229627  0.276133  0.763000
0.231080  0.276133  0.763000
0.232533  0.276133  0.763000
0.233987  0.276133  0.763000
0.236057  0.276857  0.765000
0.237514  0.276857  0.765000
0.238971  0.276857  0.765000
0.240429  0.276857  0.765000
0.241253  0.276133  0.763000
0.242707  0.276133  0.763000
0.244800  0.276857  0.765000
0.246257  0.276857  0.765000
0.247067  0.276133  0.763000
0.247869  0.275410  0.761000
0.249318  0.275410  0.761000
0.250768  0.275410  0.761000
0.252217  0.275410  0.761000
0.252667  0.274324  0.758000
0.254110  0.274324  0.758000
0.255554  0.274324  0.758000
0.260050  0.277581  0.767000
0.261510  0.277581  0.767000
0.259200  0.273600  0.756000
0.260640  0.273600  0.756000
0.262080  0.273600  0.756000
0.263171  0.273238  0.755000
0.266400  0.273600  0.756000
0.267840  0.273600  0.756000
0.269280  0.273600  0.756000
0.272510  0.275410  0.761000
0.272880  0.274324  0.758000
0.273600  0.273600  0.756000
0.275040  0.273600  0.756000
0.276480  0.273600  0.756000
0.277920  0.273600  0.756000
0.279360  0.273600  0.756000
0.280800  0.273600  0.756000
0.286347  0.277581  0.767000
0.288183  0.277943  0.768000
0.289646  0.277943  0.768000
0.291867  0.278667  0.770000
0.293333  0.278667  0.770000
0.287909  0.272152  0.752000
0.290495  0.273238  0.755000
0.292320  0.273600  0.756000
0.293760  0.273600  0.756000
0.295200  0.273600  0.756000
0.296640  0.273600  0.756000
0.298080  0.273600  0.756000
-0.451912  0.275768  0.758000
-0.450469  0.275768  0.758000
-0.449025  0.275768  0.758000
-0.446400  0.275040  0.756000
-0.444960  0.275040  0.756000
-0.444693  0.275768  0.758000
-0.443250  0.275768  0.758000
-0.445886  0.278314  0.765000
-0.444429  0.278314  0.765000
-0.442971  0.278314  0.765000
-0.440360  0.277587  0.763000
-0.438907  0.277587  0.763000
-0.438600  0.278314  0.765000
-0.437143  0.278314  0.765000
-0.435686  0.278314  0.765000
-0.434229  0.278314  0.765000
-0.431640  0.277587  0.763000
-0.428495  0.276495  0.760000
-0.427048  0.276495  0.760000
-0.425600  0.276495  0.760000
-0.423036  0.275768  0.758000
-0.421592  0.275768  0.758000
-0.422920  0.277587  0.763000
-0.421467  0.277587  0.763000
-0.420013  0.277587  0.763000
-0.418560  0.277587  0.763000
-0.417107  0.277587  0.763000
-0.415653  0.277587  0.763000
-0.409857  0.274676  0.755000
-0.410042  0.275768  0.758000
-0.408598  0.275768  0.758000
-0.407154  0.275768  0.758000
-0.404640  0.275040  0.756000
-0.403200  0.275040  0.756000
-0.402823  0.275768  0.758000
-0.401379  0.275768  0.758000
-0.399935  0.275768  0.758000
-0.397440  0.275040  0.756000
-0.393905  0.273585  0.752000
-0.392472  0.273585  0.752000
-0.388440  0.271766  0.747000
-0.387017  0.271766  0.747000
-0.389724  0.274676  0.755000
-0.388286  0.274676  0.755000
-0.387360  0.275040  0.756000
-0.386941  0.275768  0.758000
-0.385497  0.275768  0.758000
-0.383040  0.275040  0.756000
-0.381600  0.275040  0.756000
-0.380160  0.275040  0.756000
-0.379722  0.275768  0.758000
-0.378278  0.275768  0.758000
-0.375840  0.275040  0.756000
-0.374400  0.275040  0.756000
-0.372960  0.275040  0.756000
-0.371520  0.275040  0.756000
-0.371059  0.275768  0.758000
-0.370590  0.276495  0.760000
-0.369629  0.276859  0.761000
-0.368179  0.276859  0.761000
-0.367693  0.277587  0.763000
-0.367200  0.278314  0.765000
-0.365743  0.278314  0.765000
-0.364286  0.278314  0.765000
-0.361880  0.277587  0.763000
-0.360427  0.277587  0.763000
-0.359914  0.278314  0.765000
-0.358457  0.278314  0.765000
-0.357000  0.278314  0.765000
-0.353684  0.276859  0.761000
-0.352234  0.276859  0.761000
-0.351707  0.277587  0.763000
-0.350253  0.277587  0.763000
-0.348800  0.277587  0.763000
-0.348257  0.278314  0.765000
-0.344987  0.276859  0.761000
-0.343537  0.276859  0.761000
-0.342987  0.277587  0.763000
-0.340190  0.276495  0.760000
-0.338743  0.276495  0.760000
-0.337295  0.276495  0.760000
-0.335848  0.276495  0.760000
-0.339680  0.280861  0.772000
-0.337333  0.280133  0.770000
-0.335867  0.280133  0.770000
-0.334400  0.280133  0.770000
-0.331636  0.279042  0.767000
-0.330175  0.279042  0.767000
-0.329143  0.279406  0.768000
-0.327253  0.279042  0.767000
-0.325792  0.279042  0.767000
-0.320526  0.275768  0.758000
-0.319082  0.275768  0.758000
-0.318476  0.276495  0.760000
-0.317446  0.276859  0.761000
-0.316827  0.277587  0.763000
-0.315373  0.277587  0.763000
-0.313920  0.277587  0.763000
-0.312467  0.277587  0.763000
