# .PCD v.5 - Point Cloud Data file format
FIELDS x y z 
SIZE 4 4 4
TYPE F F F
COUNT 1 1 1
WIDTH 1556
HEIGHT 1
POINTS 1556
DATA ascii
0.053470  -0.106941  0.638000
0.054686  -0.106941  0.638000
0.055901  -0.106941  0.638000
0.057116  -0.106941  0.638000
0.058423  -0.107109  0.639000
0.059733  -0.107276  0.640000
0.061048  -0.107444  0.641000
0.062560  -0.107947  0.644000
0.063985  -0.108282  0.646000
0.065316  -0.108450  0.647000
0.066651  -0.108617  0.648000
0.068095  -0.108952  0.650000
0.069547  -0.109288  0.652000
0.071114  -0.109790  0.655000
0.072693  -0.110293  0.658000
0.074171  -0.110629  0.660000
0.075543  -0.110796  0.661000
0.077034  -0.111131  0.663000
0.078533  -0.111467  0.665000
0.079800  -0.111467  0.665000
0.081676  -0.112305  0.670000
0.083200  -0.112640  0.672000
0.084857  -0.113143  0.675000
0.086270  -0.113310  0.676000
0.087947  -0.113813  0.679000
0.089634  -0.114316  0.682000
0.091067  -0.114484  0.683000
0.092503  -0.114651  0.684000
0.094080  -0.114987  0.686000
0.095526  -0.115154  0.687000
0.097116  -0.115490  0.689000
0.098571  -0.115657  0.690000
0.156810  -0.155048  0.925000
0.158571  -0.155048  0.925000
0.160333  -0.155048  0.925000
0.162095  -0.155048  0.925000
0.164211  -0.155383  0.927000
0.165977  -0.155383  0.927000
0.167743  -0.155383  0.927000
0.169509  -0.155383  0.927000
0.171274  -0.155383  0.927000
0.173040  -0.155383  0.927000
0.175371  -0.155886  0.930000
0.177524  -0.156221  0.932000
0.179299  -0.156221  0.932000
0.180686  -0.155886  0.930000
0.181476  -0.155048  0.925000
0.183238  -0.155048  0.925000
0.184400  -0.154545  0.922000
0.185147  -0.153707  0.917000
0.186486  -0.153371  0.915000
0.188229  -0.153371  0.915000
0.188933  -0.152533  0.910000
0.190667  -0.152533  0.910000
0.192400  -0.152533  0.910000
-0.523455  -0.148842  0.878000
-0.520000  -0.148333  0.875000
-0.518333  -0.148333  0.875000
-0.511943  -0.146977  0.867000
-0.510291  -0.146977  0.867000
-0.512160  -0.147994  0.873000
-0.511667  -0.148333  0.875000
-0.510000  -0.148333  0.875000
-0.510076  -0.148842  0.878000
-0.500876  -0.146638  0.865000
-0.499229  -0.146638  0.865000
-0.501032  -0.147655  0.871000
-0.499373  -0.147655  0.871000
-0.498857  -0.147994  0.873000
-0.492638  -0.146638  0.865000
-0.490990  -0.146638  0.865000
-0.489343  -0.146638  0.865000
-0.495025  -0.148842  0.878000
-0.494476  -0.149181  0.880000
-0.492800  -0.149181  0.880000
-0.491124  -0.149181  0.880000
-0.489448  -0.149181  0.880000
-0.488880  -0.149520  0.882000
-0.487200  -0.149520  0.882000
-0.485520  -0.149520  0.882000
-0.482743  -0.149181  0.880000
-0.481067  -0.149181  0.880000
-0.479390  -0.149181  0.880000
-0.476629  -0.148842  0.878000
-0.474956  -0.148842  0.878000
-0.473284  -0.148842  0.878000
-0.464629  -0.146638  0.865000
-0.462981  -0.146638  0.865000
-0.461333  -0.146638  0.865000
-0.462874  -0.147655  0.871000
-0.461215  -0.147655  0.871000
-0.459556  -0.147655  0.871000
-0.458949  -0.147994  0.873000
-0.459905  -0.148842  0.878000
-0.458232  -0.148842  0.878000
-0.455000  -0.148333  0.875000
-0.452297  -0.147994  0.873000
-0.450634  -0.147994  0.873000
-0.457200  -0.150707  0.889000
-0.455507  -0.150707  0.889000
-0.451261  -0.149859  0.884000
-0.449577  -0.149859  0.884000
-0.449413  -0.150368  0.887000
-0.447724  -0.150368  0.887000
-0.446034  -0.150368  0.887000
-0.440838  -0.149181  0.880000
-0.439162  -0.149181  0.880000
-0.436491  -0.148842  0.878000
-0.434819  -0.148842  0.878000
-0.433147  -0.148842  0.878000
-0.431474  -0.148842  0.878000
-0.429802  -0.148842  0.878000
-0.428130  -0.148842  0.878000
-0.427429  -0.149181  0.880000
-0.426720  -0.149520  0.882000
-0.425040  -0.149520  0.882000
-0.423360  -0.149520  0.882000
-0.421680  -0.149520  0.882000
-0.419048  -0.149181  0.880000
-0.417371  -0.149181  0.880000
-0.415695  -0.149181  0.880000
-0.414019  -0.149181  0.880000
-0.420777  -0.152232  0.898000
-0.419067  -0.152232  0.898000
-0.405737  -0.147994  0.873000
-0.404074  -0.147994  0.873000
-0.405638  -0.149181  0.880000
-0.401667  -0.148333  0.875000
-0.399086  -0.147994  0.873000
-0.397423  -0.147994  0.873000
-0.406187  -0.151893  0.896000
-0.395000  -0.148333  0.875000
-0.393333  -0.148333  0.875000
-0.391667  -0.148333  0.875000
-0.390000  -0.148333  0.875000
-0.388333  -0.148333  0.875000
-0.386667  -0.148333  0.875000
-0.385000  -0.148333  0.875000
-0.383333  -0.148333  0.875000
-0.382975  -0.148842  0.878000
-0.381303  -0.148842  0.878000
-0.380495  -0.149181  0.880000
-0.378819  -0.149181  0.880000
-0.378000  -0.149520  0.882000
-0.377173  -0.149859  0.884000
-0.375490  -0.149859  0.884000
-0.375920  -0.150707  0.889000
-0.374227  -0.150707  0.889000
-0.372533  -0.150707  0.889000
-0.370840  -0.150707  0.889000
-0.369147  -0.150707  0.889000
-0.367453  -0.150707  0.889000
-0.365760  -0.150707  0.889000
-0.366114  -0.151554  0.894000
-0.365227  -0.151893  0.896000
-0.363520  -0.151893  0.896000
-0.361813  -0.151893  0.896000
-0.360107  -0.151893  0.896000
-0.261200  -0.110699  0.653000
-0.259956  -0.110699  0.653000
-0.258316  -0.110530  0.652000
-0.256680  -0.110360  0.651000
-0.255048  -0.110190  0.650000
-0.253810  -0.110190  0.650000
-0.251794  -0.109851  0.648000
-0.250560  -0.109851  0.648000
-0.248941  -0.109682  0.647000
-0.246943  -0.109343  0.645000
-0.243810  -0.108495  0.640000
-0.241832  -0.108156  0.638000
-0.240617  -0.108156  0.638000
-0.237901  -0.107478  0.634000
-0.235947  -0.107139  0.632000
-0.234743  -0.107139  0.632000
-0.233170  -0.106970  0.631000
-0.231232  -0.106630  0.629000
-0.230034  -0.106630  0.629000
-0.228472  -0.106461  0.628000
-0.227276  -0.106461  0.628000
-0.226080  -0.106461  0.628000
-0.224884  -0.106461  0.628000
-0.223688  -0.106461  0.628000
-0.222491  -0.106461  0.628000
-0.221648  -0.106630  0.629000
-0.220450  -0.106630  0.629000
-0.219251  -0.106630  0.629000
-0.218053  -0.106630  0.629000
-0.216855  -0.106630  0.629000
-0.215657  -0.106630  0.629000
-0.214459  -0.106630  0.629000
-0.213261  -0.106630  0.629000
-0.212063  -0.106630  0.629000
-0.211535  -0.106970  0.631000
-0.210333  -0.106970  0.631000
-0.209131  -0.106970  0.631000
-0.207930  -0.106970  0.631000
-0.206728  -0.106970  0.631000
-0.205526  -0.106970  0.631000
-0.204324  -0.106970  0.631000
-0.203766  -0.107309  0.633000
-0.202880  -0.107478  0.634000
-0.201672  -0.107478  0.634000
-0.200465  -0.107478  0.634000
-0.199257  -0.107478  0.634000
-0.198050  -0.107478  0.634000
-0.196842  -0.107478  0.634000
-0.195634  -0.107478  0.634000
-0.194427  -0.107478  0.634000
-0.193219  -0.107478  0.634000
-0.192011  -0.107478  0.634000
-0.190804  -0.107478  0.634000
-0.189596  -0.107478  0.634000
-0.188389  -0.107478  0.634000
-0.187181  -0.107478  0.634000
-0.185973  -0.107478  0.634000
-0.185057  -0.107648  0.635000
-0.183848  -0.107648  0.635000
-0.182926  -0.107817  0.636000
-0.182571  -0.108326  0.639000
-0.181638  -0.108495  0.640000
-0.180701  -0.108665  0.641000
-0.180320  -0.109173  0.644000
-0.179371  -0.109343  0.645000
-0.178419  -0.109512  0.646000
-0.177737  -0.109851  0.648000
-0.177320  -0.110360  0.651000
-0.176621  -0.110699  0.653000
-0.175914  -0.111038  0.655000
-0.174667  -0.111038  0.655000
-0.174213  -0.111547  0.658000
-0.174011  -0.112225  0.662000
-0.173011  -0.112394  0.663000
-0.172267  -0.112733  0.665000
-0.171257  -0.112903  0.666000
-0.169989  -0.112903  0.666000
-0.168973  -0.113072  0.667000
-0.168206  -0.113411  0.669000
-0.196267  -0.151893  0.896000
-0.194560  -0.151893  0.896000
-0.193284  -0.152232  0.898000
-0.191573  -0.152232  0.898000
-0.190497  -0.152741  0.901000
-0.189200  -0.153080  0.903000
-0.187480  -0.153080  0.903000
-0.185349  -0.152741  0.901000
-0.183632  -0.152741  0.901000
-0.182320  -0.153080  0.903000
-0.180600  -0.153080  0.903000
-0.179276  -0.153419  0.905000
-0.177552  -0.153419  0.905000
-0.175440  -0.153080  0.903000
-0.173720  -0.153080  0.903000
-0.172381  -0.153419  0.905000
-0.170280  -0.153080  0.903000
-0.168560  -0.153080  0.903000
-0.166840  -0.153080  0.903000
-0.165120  -0.153080  0.903000
-0.163400  -0.153080  0.903000
-0.161680  -0.153080  0.903000
-0.159606  -0.152741  0.901000
-0.157890  -0.152741  0.901000
-0.156173  -0.152741  0.901000
-0.154457  -0.152741  0.901000
-0.152741  -0.152741  0.901000
-0.151025  -0.152741  0.901000
-0.149309  -0.152741  0.901000
-0.147592  -0.152741  0.901000
-0.145876  -0.152741  0.901000
-0.144800  -0.153419  0.905000
-0.143076  -0.153419  0.905000
-0.141821  -0.153928  0.908000
-0.140091  -0.153928  0.908000
-0.138362  -0.153928  0.908000
-0.136933  -0.154267  0.910000
-0.135200  -0.154267  0.910000
-0.133907  -0.154775  0.913000
-0.132457  -0.155114  0.915000
-0.130429  -0.154775  0.913000
-0.128267  -0.154267  0.910000
-0.126533  -0.154267  0.910000
-0.125486  -0.155114  0.915000
-0.123743  -0.155114  0.915000
-0.121733  -0.154775  0.913000
-0.118680  -0.153080  0.903000
-0.116701  -0.152741  0.901000
-0.114985  -0.152741  0.901000
-0.113269  -0.152741  0.901000
-0.111181  -0.152232  0.898000
-0.109227  -0.151893  0.896000
-0.107520  -0.151893  0.896000
-0.106050  -0.152232  0.898000
-0.104339  -0.152232  0.898000
-0.102400  -0.151893  0.896000
-0.100693  -0.151893  0.896000
-0.098987  -0.151893  0.896000
-0.099560  -0.155453  0.917000
-0.097813  -0.155453  0.917000
-0.096067  -0.155453  0.917000
-0.094320  -0.155453  0.917000
-0.072282  -0.121379  0.716000
-0.070918  -0.121379  0.716000
-0.069554  -0.121379  0.716000
-0.068000  -0.121040  0.714000
-0.066547  -0.120870  0.713000
-0.065189  -0.120870  0.713000
-0.063651  -0.120531  0.711000
-0.062210  -0.120362  0.710000
-0.060686  -0.120023  0.708000
-0.059253  -0.119853  0.707000
-0.057743  -0.119514  0.705000
-0.056400  -0.119514  0.705000
-0.054979  -0.119345  0.704000
-0.053562  -0.119175  0.703000
-0.052223  -0.119175  0.703000
-0.050739  -0.118836  0.701000
-0.049404  -0.118836  0.701000
-0.048000  -0.118667  0.700000
-0.046533  -0.118328  0.698000
-0.045139  -0.118158  0.697000
-0.043811  -0.118158  0.697000
-0.042484  -0.118158  0.697000
-0.041038  -0.117819  0.695000
-0.039657  -0.117650  0.694000
-0.038280  -0.117480  0.693000
-0.036853  -0.117141  0.691000
-0.035537  -0.117141  0.691000
-0.034171  -0.116971  0.690000
-0.032857  -0.116971  0.690000
-0.031497  -0.116802  0.689000
-0.030185  -0.116802  0.689000
-0.028872  -0.116802  0.689000
-0.027480  -0.116463  0.687000
-0.026133  -0.116293  0.686000
-0.024754  -0.115954  0.684000
-0.023417  -0.115785  0.683000
-0.022116  -0.115785  0.683000
-0.020693  -0.115107  0.679000
-0.019400  -0.115107  0.679000
-0.018080  -0.114937  0.678000
-0.016789  -0.114937  0.678000
-0.015451  -0.114598  0.676000
-0.014164  -0.114598  0.676000
-0.012857  -0.114429  0.675000
-0.011554  -0.114259  0.674000
-0.010270  -0.114259  0.674000
-0.008960  -0.113920  0.672000
-0.007680  -0.113920  0.672000
-0.006390  -0.113750  0.671000
-0.005112  -0.113750  0.671000
-0.003829  -0.113581  0.670000
-0.002549  -0.113411  0.669000
-0.001274  -0.113411  0.669000
0.000000  -0.113072  0.667000
0.001270  -0.113072  0.667000
0.002537  -0.112903  0.666000
0.003800  -0.112733  0.665000
0.005051  -0.112394  0.663000
0.006314  -0.112394  0.663000
0.007577  -0.112394  0.663000
0.008827  -0.112225  0.662000
0.010088  -0.112225  0.662000
0.011331  -0.112055  0.661000
0.012571  -0.111886  0.660000
0.013787  -0.111547  0.658000
0.015017  -0.111377  0.657000
0.016269  -0.111377  0.657000
0.017520  -0.111377  0.657000
0.018714  -0.111038  0.655000
0.019962  -0.111038  0.655000
0.021145  -0.110699  0.653000
0.022389  -0.110699  0.653000
0.023632  -0.110699  0.653000
0.024838  -0.110530  0.652000
0.026080  -0.110530  0.652000
0.027322  -0.110530  0.652000
0.028520  -0.110360  0.651000
0.029714  -0.110190  0.650000
0.030857  -0.109851  0.648000
0.032091  -0.109851  0.648000
0.033274  -0.109682  0.647000
0.034453  -0.109512  0.646000
0.035684  -0.109512  0.646000
0.036914  -0.109512  0.646000
0.038086  -0.109343  0.645000
0.039253  -0.109173  0.644000
0.040480  -0.109173  0.644000
0.041707  -0.109173  0.644000
0.042800  -0.108834  0.642000
0.044023  -0.108834  0.642000
0.045175  -0.108665  0.641000
0.046396  -0.108665  0.641000
0.047543  -0.108495  0.640000
0.048762  -0.108495  0.640000
0.049903  -0.108326  0.639000
0.051040  -0.108156  0.638000
0.052255  -0.108156  0.638000
0.053470  -0.108156  0.638000
0.054686  -0.108156  0.638000
0.055901  -0.108156  0.638000
0.057116  -0.108156  0.638000
0.058423  -0.108326  0.639000
0.059733  -0.108495  0.640000
0.061143  -0.108834  0.642000
0.062560  -0.109173  0.644000
0.063985  -0.109512  0.646000
0.065316  -0.109682  0.647000
0.066651  -0.109851  0.648000
0.068095  -0.110190  0.650000
0.069547  -0.110530  0.652000
0.071114  -0.111038  0.655000
0.072693  -0.111547  0.658000
0.074284  -0.112055  0.661000
0.075771  -0.112394  0.663000
0.077034  -0.112394  0.663000
0.078651  -0.112903  0.666000
0.079920  -0.112903  0.666000
0.081554  -0.113411  0.669000
0.083076  -0.113750  0.671000
0.084857  -0.114429  0.675000
0.086270  -0.114598  0.676000
0.087947  -0.115107  0.679000
0.089634  -0.115615  0.682000
0.091200  -0.115954  0.684000
0.092503  -0.115954  0.684000
0.094080  -0.116293  0.686000
0.095526  -0.116463  0.687000
0.097116  -0.116802  0.689000
0.098571  -0.116971  0.690000
0.100465  -0.117650  0.694000
0.150469  -0.153928  0.908000
0.152198  -0.153928  0.908000
0.153928  -0.153928  0.908000
0.155657  -0.153928  0.908000
0.157733  -0.154267  0.910000
0.160693  -0.155453  0.917000
0.163326  -0.156301  0.922000
0.165082  -0.156301  0.922000
0.166838  -0.156301  0.922000
0.168594  -0.156301  0.922000
0.170350  -0.156301  0.922000
0.172667  -0.156810  0.925000
0.174429  -0.156810  0.925000
0.176571  -0.157149  0.927000
0.179299  -0.157996  0.932000
0.178160  -0.155453  0.917000
0.179907  -0.155453  0.917000
0.181653  -0.155453  0.917000
0.183000  -0.155114  0.915000
0.184339  -0.154775  0.913000
0.186078  -0.154775  0.913000
0.187817  -0.154775  0.913000
0.188933  -0.154267  0.910000
0.190667  -0.154267  0.910000
0.191977  -0.153928  0.908000
0.193067  -0.153419  0.905000
0.194790  -0.153419  0.905000
0.196080  -0.153080  0.903000
0.197800  -0.153080  0.903000
-0.515705  -0.148286  0.865000
-0.514057  -0.148286  0.865000
-0.512410  -0.148286  0.865000
-0.508990  -0.147771  0.862000
-0.507349  -0.147771  0.862000
-0.507467  -0.148286  0.865000
-0.505819  -0.148286  0.865000
-0.504171  -0.148286  0.865000
-0.497295  -0.146743  0.856000
-0.495665  -0.146743  0.856000
-0.495189  -0.147086  0.858000
-0.497581  -0.148286  0.865000
-0.498227  -0.148971  0.869000
-0.497714  -0.149314  0.871000
-0.490930  -0.147771  0.862000
-0.489288  -0.147771  0.862000
-0.487646  -0.147771  0.862000
-0.487695  -0.148286  0.865000
-0.493352  -0.150514  0.878000
-0.482720  -0.147771  0.862000
-0.481078  -0.147771  0.862000
-0.488335  -0.150514  0.878000
-0.486663  -0.150514  0.878000
-0.486095  -0.150857  0.880000
-0.484419  -0.150857  0.880000
-0.482743  -0.150857  0.880000
-0.481067  -0.150857  0.880000
-0.479390  -0.150857  0.880000
-0.476629  -0.150514  0.878000
-0.474956  -0.150514  0.878000
-0.466276  -0.148286  0.865000
-0.464629  -0.148286  0.865000
-0.462981  -0.148286  0.865000
-0.461333  -0.148286  0.865000
-0.459686  -0.148286  0.865000
-0.459097  -0.148629  0.867000
-0.457446  -0.148629  0.867000
-0.455794  -0.148629  0.867000
-0.454143  -0.148629  0.867000
-0.453535  -0.148971  0.869000
-0.451880  -0.148971  0.869000
-0.450225  -0.148971  0.869000
-0.448570  -0.148971  0.869000
-0.444857  -0.148286  0.865000
-0.443210  -0.148286  0.865000
-0.451261  -0.151543  0.884000
-0.449577  -0.151543  0.884000
-0.449413  -0.152057  0.887000
-0.447724  -0.152057  0.887000
-0.446034  -0.152057  0.887000
-0.438333  -0.150000  0.875000
-0.436667  -0.150000  0.875000
-0.435000  -0.150000  0.875000
-0.433333  -0.150000  0.875000
-0.433147  -0.150514  0.878000
-0.431474  -0.150514  0.878000
-0.429802  -0.150514  0.878000
-0.428130  -0.150514  0.878000
-0.426457  -0.150514  0.878000
-0.425752  -0.150857  0.880000
-0.423112  -0.150514  0.878000
-0.421440  -0.150514  0.878000
-0.419768  -0.150514  0.878000
-0.416667  -0.150000  0.875000
-0.414051  -0.149657  0.873000
-0.411444  -0.149314  0.871000
-0.409785  -0.149314  0.871000
-0.408126  -0.149314  0.871000
-0.406467  -0.149314  0.871000
-0.404808  -0.149314  0.871000
-0.403149  -0.149314  0.871000
-0.402411  -0.149657  0.873000
-0.400749  -0.149657  0.873000
-0.399086  -0.149657  0.873000
-0.397423  -0.149657  0.873000
-0.395760  -0.149657  0.873000
-0.394097  -0.149657  0.873000
-0.392434  -0.149657  0.873000
-0.390771  -0.149657  0.873000
-0.389109  -0.149657  0.873000
-0.387446  -0.149657  0.873000
-0.385783  -0.149657  0.873000
-0.384120  -0.149657  0.873000
-0.382457  -0.149657  0.873000
-0.381667  -0.150000  0.875000
-0.380000  -0.150000  0.875000
-0.378333  -0.150000  0.875000
-0.376667  -0.150000  0.875000
-0.377143  -0.150857  0.880000
-0.375467  -0.150857  0.880000
-0.375490  -0.151543  0.884000
-0.375074  -0.152057  0.887000
-0.374227  -0.152400  0.889000
-0.372533  -0.152400  0.889000
-0.370006  -0.152057  0.887000
-0.368316  -0.152057  0.887000
-0.366627  -0.152057  0.887000
-0.364937  -0.152057  0.887000
-0.364067  -0.152400  0.889000
-0.360335  -0.151543  0.884000
-0.358651  -0.151543  0.884000
-0.356968  -0.151543  0.884000
-0.357293  -0.152400  0.889000
-0.358400  -0.153600  0.896000
-0.259558  -0.111771  0.652000
-0.258316  -0.111771  0.652000
-0.256680  -0.111600  0.651000
-0.255048  -0.111429  0.650000
-0.253810  -0.111429  0.650000
-0.251794  -0.111086  0.648000
-0.250560  -0.111086  0.648000
-0.248941  -0.110914  0.647000
-0.247326  -0.110743  0.646000
-0.244190  -0.109886  0.641000
-0.242211  -0.109543  0.639000
-0.240617  -0.109371  0.638000
-0.238276  -0.108857  0.635000
-0.236320  -0.108514  0.633000
-0.235114  -0.108514  0.633000
-0.233170  -0.108171  0.631000
-0.231232  -0.107829  0.629000
-0.229669  -0.107657  0.628000
-0.228472  -0.107657  0.628000
-0.227276  -0.107657  0.628000
-0.226080  -0.107657  0.628000
-0.224884  -0.107657  0.628000
-0.223688  -0.107657  0.628000
-0.222491  -0.107657  0.628000
-0.221648  -0.107829  0.629000
-0.220450  -0.107829  0.629000
-0.219251  -0.107829  0.629000
-0.218053  -0.107829  0.629000
-0.216855  -0.107829  0.629000
-0.215657  -0.107829  0.629000
-0.214459  -0.107829  0.629000
-0.213261  -0.107829  0.629000
-0.212737  -0.108171  0.631000
-0.211535  -0.108171  0.631000
-0.210333  -0.108171  0.631000
-0.209131  -0.108171  0.631000
-0.207930  -0.108171  0.631000
-0.206728  -0.108171  0.631000
-0.205526  -0.108171  0.631000
-0.204324  -0.108171  0.631000
-0.203122  -0.108171  0.631000
-0.201920  -0.108171  0.631000
-0.201354  -0.108514  0.633000
-0.200149  -0.108514  0.633000
-0.199257  -0.108686  0.634000
-0.198050  -0.108686  0.634000
-0.196842  -0.108686  0.634000
-0.195634  -0.108686  0.634000
-0.194427  -0.108686  0.634000
-0.193219  -0.108686  0.634000
-0.192011  -0.108686  0.634000
-0.190804  -0.108686  0.634000
-0.189596  -0.108686  0.634000
-0.188389  -0.108686  0.634000
-0.187181  -0.108686  0.634000
-0.185973  -0.108686  0.634000
-0.185057  -0.108857  0.635000
-0.183848  -0.108857  0.635000
-0.182926  -0.109029  0.636000
-0.182571  -0.109543  0.639000
-0.181638  -0.109714  0.640000
-0.180701  -0.109886  0.641000
-0.180320  -0.110400  0.644000
-0.179371  -0.110571  0.645000
-0.178419  -0.110743  0.646000
-0.178286  -0.111429  0.650000
-0.177592  -0.111771  0.652000
-0.176621  -0.111943  0.653000
-0.175914  -0.112286  0.655000
-0.174933  -0.112457  0.656000
-0.174213  -0.112800  0.658000
-0.174011  -0.113486  0.662000
-0.173011  -0.113657  0.663000
-0.172267  -0.114000  0.665000
-0.171257  -0.114171  0.666000
-0.169989  -0.114171  0.666000
-0.168973  -0.114343  0.667000
-0.168206  -0.114686  0.669000
-0.196267  -0.153600  0.896000
-0.194560  -0.153600  0.896000
-0.192853  -0.153600  0.896000
-0.191573  -0.153943  0.898000
-0.190497  -0.154457  0.901000
-0.188781  -0.154457  0.901000
-0.187065  -0.154457  0.901000
-0.185349  -0.154457  0.901000
-0.183632  -0.154457  0.901000
-0.181916  -0.154457  0.901000
-0.180200  -0.154457  0.901000
-0.178484  -0.154457  0.901000
-0.175787  -0.153600  0.896000
-0.174080  -0.153600  0.896000
-0.173335  -0.154457  0.901000
-0.171619  -0.154457  0.901000
-0.169903  -0.154457  0.901000
-0.168187  -0.154457  0.901000
-0.166470  -0.154457  0.901000
-0.164754  -0.154457  0.901000
-0.163038  -0.154457  0.901000
-0.161322  -0.154457  0.901000
-0.159606  -0.154457  0.901000
-0.157890  -0.154457  0.901000
-0.155653  -0.153943  0.898000
-0.153943  -0.153943  0.898000
-0.152232  -0.153943  0.898000
-0.150522  -0.153943  0.898000
-0.148811  -0.153943  0.898000
-0.146446  -0.153257  0.894000
-0.144743  -0.153257  0.894000
-0.142560  -0.152743  0.891000
-0.140863  -0.152743  0.891000
-0.140259  -0.153943  0.898000
-0.139629  -0.155143  0.905000
-0.137600  -0.154800  0.903000
-0.135880  -0.154800  0.903000
-0.133417  -0.153943  0.898000
-0.131707  -0.153943  0.898000
-0.130430  -0.154457  0.901000
-0.128714  -0.154457  0.901000
-0.126998  -0.154457  0.901000
-0.125282  -0.154457  0.901000
-0.124114  -0.155143  0.905000
-0.122390  -0.155143  0.905000
-0.119733  -0.153943  0.898000
-0.118023  -0.153943  0.898000
-0.116312  -0.153943  0.898000
-0.114602  -0.153943  0.898000
-0.112891  -0.153943  0.898000
-0.110933  -0.153600  0.896000
-0.109227  -0.153600  0.896000
-0.107520  -0.153600  0.896000
-0.105813  -0.153600  0.896000
-0.104107  -0.153600  0.896000
-0.102171  -0.153257  0.894000
-0.100131  -0.152743  0.891000
-0.098434  -0.152743  0.891000
-0.097063  -0.153257  0.894000
-0.097813  -0.157200  0.917000
-0.096067  -0.157200  0.917000
-0.094320  -0.157200  0.917000
-0.072282  -0.122743  0.716000
-0.070918  -0.122743  0.716000
-0.069554  -0.122743  0.716000
-0.068000  -0.122400  0.714000
-0.066547  -0.122229  0.713000
-0.065189  -0.122229  0.713000
-0.063651  -0.121886  0.711000
-0.062210  -0.121714  0.710000
-0.060686  -0.121371  0.708000
-0.059253  -0.121200  0.707000
-0.057743  -0.120857  0.705000
-0.056400  -0.120857  0.705000
-0.054979  -0.120686  0.704000
-0.053562  -0.120514  0.703000
-0.052223  -0.120514  0.703000
-0.050884  -0.120514  0.703000
-0.049404  -0.120171  0.701000
-0.048000  -0.120000  0.700000
-0.046533  -0.119657  0.698000
-0.045139  -0.119486  0.697000
-0.043811  -0.119486  0.697000
-0.042484  -0.119486  0.697000
-0.041038  -0.119143  0.695000
-0.039657  -0.118971  0.694000
-0.038280  -0.118800  0.693000
-0.036853  -0.118457  0.691000
-0.035537  -0.118457  0.691000
-0.034171  -0.118286  0.690000
-0.032857  -0.118286  0.690000
-0.031497  -0.118114  0.689000
-0.030185  -0.118114  0.689000
-0.028872  -0.118114  0.689000
-0.027480  -0.117771  0.687000
-0.026133  -0.117600  0.686000
-0.024754  -0.117257  0.684000
-0.023417  -0.117086  0.683000
-0.022116  -0.117086  0.683000
-0.020724  -0.116571  0.680000
-0.019429  -0.116571  0.680000
-0.018107  -0.116400  0.679000
-0.016789  -0.116229  0.678000
-0.015451  -0.115886  0.676000
-0.014164  -0.115886  0.676000
-0.012857  -0.115714  0.675000
-0.011554  -0.115543  0.674000
-0.010270  -0.115543  0.674000
-0.008960  -0.115200  0.672000
-0.007680  -0.115200  0.672000
-0.006400  -0.115200  0.672000
-0.005112  -0.115029  0.671000
-0.003834  -0.115029  0.671000
-0.002552  -0.114857  0.670000
-0.001274  -0.114686  0.669000
0.000000  -0.114686  0.669000
0.001270  -0.114343  0.667000
0.002537  -0.114171  0.666000
0.003800  -0.114000  0.665000
0.005051  -0.113657  0.663000
0.006314  -0.113657  0.663000
0.007566  -0.113486  0.662000
0.008827  -0.113486  0.662000
0.010088  -0.113486  0.662000
0.011349  -0.113486  0.662000
0.012571  -0.113143  0.660000
0.013787  -0.112800  0.658000
0.015017  -0.112629  0.657000
0.016269  -0.112629  0.657000
0.017520  -0.112629  0.657000
0.018714  -0.112286  0.655000
0.019962  -0.112286  0.655000
0.021145  -0.111943  0.653000
0.022389  -0.111943  0.653000
0.023632  -0.111943  0.653000
0.024876  -0.111943  0.653000
0.026080  -0.111771  0.652000
0.027322  -0.111771  0.652000
0.028520  -0.111600  0.651000
0.029714  -0.111429  0.650000
0.030857  -0.111086  0.648000
0.032091  -0.111086  0.648000
0.033274  -0.110914  0.647000
0.034507  -0.110914  0.647000
0.035684  -0.110743  0.646000
0.036914  -0.110743  0.646000
0.038086  -0.110571  0.645000
0.039314  -0.110571  0.645000
0.040480  -0.110400  0.644000
0.041707  -0.110400  0.644000
0.042800  -0.110057  0.642000
0.044023  -0.110057  0.642000
0.045175  -0.109886  0.641000
0.046396  -0.109886  0.641000
0.047543  -0.109714  0.640000
0.048762  -0.109714  0.640000
0.049903  -0.109543  0.639000
0.051040  -0.109371  0.638000
0.052255  -0.109371  0.638000
0.053470  -0.109371  0.638000
0.054686  -0.109371  0.638000
0.055901  -0.109371  0.638000
0.057116  -0.109371  0.638000
0.058423  -0.109543  0.639000
0.059733  -0.109714  0.640000
0.061143  -0.110057  0.642000
0.062560  -0.110400  0.644000
0.063985  -0.110743  0.646000
0.065316  -0.110914  0.647000
0.066651  -0.111086  0.648000
0.068200  -0.111600  0.651000
0.069547  -0.111771  0.652000
0.071331  -0.112629  0.657000
0.072914  -0.113143  0.660000
0.074396  -0.113486  0.662000
0.075771  -0.113657  0.663000
0.077267  -0.114000  0.665000
0.078651  -0.114171  0.666000
0.079920  -0.114171  0.666000
0.081554  -0.114686  0.669000
0.083076  -0.115029  0.671000
0.084857  -0.115714  0.675000
0.086270  -0.115886  0.676000
0.087947  -0.116400  0.679000
0.089634  -0.116914  0.682000
0.091200  -0.117257  0.684000
0.092503  -0.117257  0.684000
0.094080  -0.117600  0.686000
0.095804  -0.118114  0.689000
0.097257  -0.118286  0.690000
0.098571  -0.118286  0.690000
0.100030  -0.118457  0.691000
0.149971  -0.155143  0.905000
0.151695  -0.155143  0.905000
0.153928  -0.155657  0.908000
0.155657  -0.155657  0.908000
0.157733  -0.156000  0.910000
0.160343  -0.156857  0.915000
0.162971  -0.157714  0.920000
0.164724  -0.157714  0.920000
0.166476  -0.157714  0.920000
0.168594  -0.158057  0.922000
0.170350  -0.158057  0.922000
0.172107  -0.158057  0.922000
0.173863  -0.158057  0.922000
0.176571  -0.158914  0.927000
0.178337  -0.158914  0.927000
0.177771  -0.156857  0.915000
0.179514  -0.156857  0.915000
0.181257  -0.156857  0.915000
0.182000  -0.156000  0.910000
0.183733  -0.156000  0.910000
0.185467  -0.156000  0.910000
0.187200  -0.156000  0.910000
0.188933  -0.156000  0.910000
0.190248  -0.155657  0.908000
0.191977  -0.155657  0.908000
0.193067  -0.155143  0.905000
0.194790  -0.155143  0.905000
0.195646  -0.154457  0.901000
0.197362  -0.154457  0.901000
0.199520  -0.154800  0.903000
0.201240  -0.154800  0.903000
0.202960  -0.154800  0.903000
-0.512724  -0.149067  0.860000
-0.511086  -0.149067  0.860000
-0.509448  -0.149067  0.860000
-0.506629  -0.148720  0.858000
-0.503817  -0.148373  0.856000
-0.502187  -0.148373  0.856000
-0.501726  -0.148720  0.858000
-0.498926  -0.148373  0.856000
-0.497295  -0.148373  0.856000
-0.495665  -0.148373  0.856000
-0.494034  -0.148373  0.856000
-0.493554  -0.148720  0.858000
-0.491920  -0.148720  0.858000
-0.490286  -0.148720  0.858000
-0.488651  -0.148720  0.858000
-0.487017  -0.148720  0.858000
-0.485383  -0.148720  0.858000
-0.486004  -0.149413  0.862000
-0.482114  -0.148720  0.858000
-0.480480  -0.148720  0.858000
-0.477730  -0.148373  0.856000
-0.476099  -0.148373  0.856000
-0.474469  -0.148373  0.856000
-0.486095  -0.152533  0.880000
-0.484419  -0.152533  0.880000
-0.482743  -0.152533  0.880000
-0.463573  -0.146987  0.848000
-0.469585  -0.149413  0.862000
-0.467943  -0.149413  0.862000
-0.466301  -0.149413  0.862000
-0.464659  -0.149413  0.862000
-0.464629  -0.149933  0.865000
-0.462981  -0.149933  0.865000
-0.461333  -0.149933  0.865000
-0.459686  -0.149933  0.865000
-0.458038  -0.149933  0.865000
-0.457446  -0.150280  0.867000
-0.454743  -0.149933  0.865000
-0.453095  -0.149933  0.865000
-0.451448  -0.149933  0.865000
-0.449800  -0.149933  0.865000
-0.448152  -0.149933  0.865000
-0.444956  -0.149413  0.862000
-0.443314  -0.149413  0.862000
-0.441672  -0.149413  0.862000
-0.440030  -0.149413  0.862000
-0.438389  -0.149413  0.862000
-0.436747  -0.149413  0.862000
-0.435105  -0.149413  0.862000
-0.435977  -0.150280  0.867000
-0.434326  -0.150280  0.867000
-0.434670  -0.150973  0.871000
-0.434006  -0.151320  0.873000
-0.433333  -0.151667  0.875000
-0.431667  -0.151667  0.875000
-0.430000  -0.151667  0.875000
-0.428333  -0.151667  0.875000
-0.426667  -0.151667  0.875000
-0.426457  -0.152187  0.878000
-0.424785  -0.152187  0.878000
-0.421667  -0.151667  0.875000
-0.420000  -0.151667  0.875000
-0.418333  -0.151667  0.875000
-0.415714  -0.151320  0.873000
-0.414051  -0.151320  0.873000
-0.411444  -0.150973  0.871000
-0.409785  -0.150973  0.871000
-0.408126  -0.150973  0.871000
-0.406467  -0.150973  0.871000
-0.404808  -0.150973  0.871000
-0.403149  -0.150973  0.871000
-0.401490  -0.150973  0.871000
-0.399830  -0.150973  0.871000
-0.398171  -0.150973  0.871000
-0.396512  -0.150973  0.871000
-0.395760  -0.151320  0.873000
-0.393194  -0.150973  0.871000
-0.391535  -0.150973  0.871000
-0.389876  -0.150973  0.871000
-0.388217  -0.150973  0.871000
-0.386558  -0.150973  0.871000
-0.384899  -0.150973  0.871000
-0.384120  -0.151320  0.873000
-0.382457  -0.151320  0.873000
-0.380794  -0.151320  0.873000
-0.379131  -0.151320  0.873000
-0.377469  -0.151320  0.873000
-0.375806  -0.151320  0.873000
-0.375000  -0.151667  0.875000
-0.374613  -0.152187  0.878000
-0.373790  -0.152533  0.880000
-0.372960  -0.152880  0.882000
-0.371280  -0.152880  0.882000
-0.368762  -0.152533  0.880000
-0.367086  -0.152533  0.880000
-0.365410  -0.152533  0.880000
-0.364560  -0.152880  0.882000
-0.362880  -0.152880  0.882000
-0.359562  -0.152187  0.878000
-0.357890  -0.152187  0.878000
-0.356217  -0.152187  0.878000
-0.354545  -0.152187  0.878000
-0.353676  -0.152533  0.880000
-0.358400  -0.155307  0.896000
-0.259558  -0.113013  0.652000
-0.258316  -0.113013  0.652000
-0.256680  -0.112840  0.651000
-0.255048  -0.112667  0.650000
-0.253810  -0.112667  0.650000
-0.251794  -0.112320  0.648000
-0.250560  -0.112320  0.648000
-0.248941  -0.112147  0.647000
-0.246943  -0.111800  0.645000
-0.244190  -0.111107  0.641000
-0.242211  -0.110760  0.639000
-0.240617  -0.110587  0.638000
-0.238276  -0.110067  0.635000
-0.236693  -0.109893  0.634000
-0.235114  -0.109720  0.633000
-0.233170  -0.109373  0.631000
-0.231232  -0.109027  0.629000
-0.229669  -0.108853  0.628000
-0.228472  -0.108853  0.628000
-0.227276  -0.108853  0.628000
-0.226080  -0.108853  0.628000
-0.224884  -0.108853  0.628000
-0.223688  -0.108853  0.628000
-0.222491  -0.108853  0.628000
-0.221648  -0.109027  0.629000
-0.220450  -0.109027  0.629000
-0.219251  -0.109027  0.629000
-0.218053  -0.109027  0.629000
-0.216855  -0.109027  0.629000
-0.215657  -0.109027  0.629000
-0.214459  -0.109027  0.629000
-0.213939  -0.109373  0.631000
-0.212737  -0.109373  0.631000
-0.211535  -0.109373  0.631000
-0.210333  -0.109373  0.631000
-0.209131  -0.109373  0.631000
-0.207930  -0.109373  0.631000
-0.206728  -0.109373  0.631000
-0.205526  -0.109373  0.631000
-0.204324  -0.109373  0.631000
-0.203122  -0.109373  0.631000
-0.201920  -0.109373  0.631000
-0.201354  -0.109720  0.633000
-0.200149  -0.109720  0.633000
-0.198943  -0.109720  0.633000
-0.197737  -0.109720  0.633000
-0.196842  -0.109893  0.634000
-0.195634  -0.109893  0.634000
-0.194427  -0.109893  0.634000
-0.193219  -0.109893  0.634000
-0.192011  -0.109893  0.634000
-0.190804  -0.109893  0.634000
-0.189596  -0.109893  0.634000
-0.188389  -0.109893  0.634000
-0.187181  -0.109893  0.634000
-0.186267  -0.110067  0.635000
-0.185057  -0.110067  0.635000
-0.183848  -0.110067  0.635000
-0.182926  -0.110240  0.636000
-0.182571  -0.110760  0.639000
-0.181638  -0.110933  0.640000
-0.180701  -0.111107  0.641000
-0.180320  -0.111627  0.644000
-0.179371  -0.111800  0.645000
-0.178419  -0.111973  0.646000
-0.177737  -0.112320  0.648000
-0.177320  -0.112840  0.651000
-0.176621  -0.113187  0.653000
-0.175914  -0.113533  0.655000
-0.174933  -0.113707  0.656000
-0.174213  -0.114053  0.658000
-0.173749  -0.114573  0.661000
-0.173011  -0.114920  0.663000
-0.172267  -0.115267  0.665000
-0.171257  -0.115440  0.666000
-0.169989  -0.115440  0.666000
-0.168973  -0.115613  0.667000
-0.168206  -0.115960  0.669000
-0.196267  -0.155307  0.896000
-0.194126  -0.154960  0.894000
-0.191777  -0.154440  0.891000
-0.190080  -0.154440  0.891000
-0.189863  -0.155653  0.898000
-0.188152  -0.155653  0.898000
-0.186442  -0.155653  0.898000
-0.184731  -0.155653  0.898000
-0.182613  -0.155307  0.896000
-0.179493  -0.154093  0.889000
-0.177800  -0.154093  0.889000
-0.175710  -0.153747  0.887000
-0.174021  -0.153747  0.887000
-0.172720  -0.154093  0.889000
-0.171989  -0.154960  0.894000
-0.170667  -0.155307  0.896000
-0.168960  -0.155307  0.896000
-0.167627  -0.155653  0.898000
-0.165916  -0.155653  0.898000
-0.164206  -0.155653  0.898000
-0.162495  -0.155653  0.898000
-0.160785  -0.155653  0.898000
-0.159074  -0.155653  0.898000
-0.157364  -0.155653  0.898000
-0.155653  -0.155653  0.898000
-0.153600  -0.155307  0.896000
-0.151893  -0.155307  0.896000
-0.149851  -0.154960  0.894000
-0.147651  -0.154440  0.891000
-0.145954  -0.154440  0.891000
-0.143933  -0.154093  0.889000
-0.142240  -0.154093  0.889000
-0.140863  -0.154440  0.891000
-0.139166  -0.154440  0.891000
-0.137931  -0.154960  0.894000
-0.136229  -0.154960  0.894000
-0.134074  -0.154440  0.891000
-0.132377  -0.154440  0.891000
-0.131413  -0.155307  0.896000
-0.129707  -0.155307  0.896000
-0.128000  -0.155307  0.896000
-0.126011  -0.154960  0.894000
-0.123891  -0.154440  0.891000
-0.122194  -0.154440  0.891000
-0.120903  -0.154960  0.894000
-0.118533  -0.154093  0.889000
-0.116840  -0.154093  0.889000
-0.116053  -0.155307  0.896000
-0.114347  -0.155307  0.896000
-0.112640  -0.155307  0.896000
-0.110686  -0.154960  0.894000
-0.108983  -0.154960  0.894000
-0.107280  -0.154960  0.894000
-0.105577  -0.154960  0.894000
-0.103526  -0.154440  0.891000
-0.101829  -0.154440  0.891000
-0.099907  -0.154093  0.889000
-0.098213  -0.154093  0.889000
-0.096520  -0.154093  0.889000
-0.094827  -0.154093  0.889000
-0.093133  -0.154093  0.889000
-0.091646  -0.154440  0.891000
-0.089949  -0.154440  0.891000
-0.071017  -0.124280  0.717000
-0.069554  -0.124107  0.716000
-0.068000  -0.123760  0.714000
-0.066547  -0.123587  0.713000
-0.065189  -0.123587  0.713000
-0.063651  -0.123240  0.711000
-0.062210  -0.123067  0.710000
-0.060686  -0.122720  0.708000
-0.059253  -0.122547  0.707000
-0.057743  -0.122200  0.705000
-0.056400  -0.122200  0.705000
-0.054979  -0.122027  0.704000
-0.053638  -0.122027  0.704000
-0.052223  -0.121853  0.703000
-0.050884  -0.121853  0.703000
-0.049404  -0.121507  0.701000
-0.048000  -0.121333  0.700000
-0.046533  -0.120987  0.698000
-0.045204  -0.120987  0.698000
-0.043811  -0.120813  0.697000
-0.042484  -0.120813  0.697000
-0.041038  -0.120467  0.695000
-0.039657  -0.120293  0.694000
-0.038280  -0.120120  0.693000
-0.036853  -0.119773  0.691000
-0.035537  -0.119773  0.691000
-0.034171  -0.119600  0.690000
-0.032857  -0.119600  0.690000
-0.031497  -0.119427  0.689000
-0.030185  -0.119427  0.689000
-0.028872  -0.119427  0.689000
-0.027480  -0.119080  0.687000
-0.026133  -0.118907  0.686000
-0.024754  -0.118560  0.684000
-0.023417  -0.118387  0.683000
-0.022116  -0.118387  0.683000
-0.020724  -0.117867  0.680000
-0.019429  -0.117867  0.680000
-0.018080  -0.117520  0.678000
-0.016789  -0.117520  0.678000
-0.015451  -0.117173  0.676000
-0.014164  -0.117173  0.676000
-0.012857  -0.117000  0.675000
-0.011554  -0.116827  0.674000
-0.010270  -0.116827  0.674000
-0.008960  -0.116480  0.672000
-0.007680  -0.116480  0.672000
-0.006400  -0.116480  0.672000
-0.005112  -0.116307  0.671000
-0.003834  -0.116307  0.671000
-0.002552  -0.116133  0.670000
-0.001274  -0.115960  0.669000
0.000000  -0.115960  0.669000
0.001270  -0.115613  0.667000
0.002541  -0.115613  0.667000
0.003800  -0.115267  0.665000
0.005051  -0.114920  0.663000
0.006314  -0.114920  0.663000
0.007566  -0.114747  0.662000
0.008827  -0.114747  0.662000
0.010088  -0.114747  0.662000
0.011331  -0.114573  0.661000
0.012571  -0.114400  0.660000
0.013787  -0.114053  0.658000
0.015017  -0.113880  0.657000
0.016269  -0.113880  0.657000
0.017520  -0.113880  0.657000
0.018714  -0.113533  0.655000
0.019962  -0.113533  0.655000
0.021145  -0.113187  0.653000
0.022389  -0.113187  0.653000
0.023632  -0.113187  0.653000
0.024838  -0.113013  0.652000
0.026080  -0.113013  0.652000
0.027322  -0.113013  0.652000
0.028520  -0.112840  0.651000
0.029714  -0.112667  0.650000
0.030857  -0.112320  0.648000
0.032091  -0.112320  0.648000
0.033274  -0.112147  0.647000
0.034507  -0.112147  0.647000
0.035739  -0.112147  0.647000
0.036914  -0.111973  0.646000
0.038086  -0.111800  0.645000
0.039314  -0.111800  0.645000
0.040543  -0.111800  0.645000
0.041707  -0.111627  0.644000
0.042933  -0.111627  0.644000
0.044023  -0.111280  0.642000
0.045246  -0.111280  0.642000
0.046469  -0.111280  0.642000
0.047691  -0.111280  0.642000
0.048838  -0.111107  0.641000
0.049903  -0.110760  0.639000
0.051040  -0.110587  0.638000
0.052255  -0.110587  0.638000
0.053470  -0.110587  0.638000
0.054686  -0.110587  0.638000
0.055901  -0.110587  0.638000
0.057116  -0.110587  0.638000
0.058423  -0.110760  0.639000
0.059733  -0.110933  0.640000
0.061143  -0.111280  0.642000
0.062560  -0.111627  0.644000
0.063985  -0.111973  0.646000
0.065316  -0.112147  0.647000
0.066857  -0.112667  0.650000
0.068200  -0.112840  0.651000
0.069547  -0.113013  0.652000
0.071223  -0.113707  0.656000
0.072914  -0.114400  0.660000
0.074396  -0.114747  0.662000
0.075771  -0.114920  0.663000
0.077267  -0.115267  0.665000
0.078651  -0.115440  0.666000
0.080040  -0.115613  0.667000
0.081676  -0.116133  0.670000
0.083200  -0.116480  0.672000
0.084731  -0.116827  0.674000
0.086270  -0.117173  0.676000
0.087947  -0.117693  0.679000
0.089371  -0.117867  0.680000
0.091067  -0.118387  0.683000
0.092503  -0.118560  0.684000
0.094080  -0.118907  0.686000
0.095526  -0.119080  0.687000
0.097257  -0.119600  0.690000
0.098571  -0.119600  0.690000
0.100030  -0.119773  0.691000
0.149971  -0.156867  0.905000
0.151695  -0.156867  0.905000
0.153419  -0.156867  0.905000
0.155657  -0.157387  0.908000
0.157387  -0.157387  0.908000
0.159116  -0.157387  0.908000
0.161200  -0.157733  0.910000
0.164724  -0.159467  0.920000
0.166476  -0.159467  0.920000
0.168594  -0.159813  0.922000
0.170350  -0.159813  0.922000
0.172107  -0.159813  0.922000
0.173863  -0.159813  0.922000
0.175619  -0.159813  0.922000
0.173335  -0.156173  0.901000
0.175051  -0.156173  0.901000
0.177552  -0.156867  0.905000
0.179276  -0.156867  0.905000
0.181000  -0.156867  0.905000
0.183330  -0.157387  0.908000
0.185059  -0.157387  0.908000
0.186789  -0.157387  0.908000
0.188933  -0.157733  0.910000
0.190248  -0.157387  0.908000
0.191343  -0.156867  0.905000
0.193067  -0.156867  0.905000
0.194360  -0.156520  0.903000
0.195646  -0.156173  0.901000
0.197362  -0.156173  0.901000
0.199078  -0.156173  0.901000
0.200126  -0.155653  0.898000
0.201836  -0.155653  0.898000
-0.511531  -0.150354  0.858000
-0.509897  -0.150354  0.858000
-0.508263  -0.150354  0.858000
-0.504267  -0.149653  0.854000
-0.502640  -0.149653  0.854000
-0.501013  -0.149653  0.854000
-0.499387  -0.149653  0.854000
-0.497760  -0.149653  0.854000
-0.494971  -0.149303  0.852000
-0.493349  -0.149303  0.852000
-0.492880  -0.149653  0.854000
-0.491253  -0.149653  0.854000
-0.489627  -0.149653  0.854000
-0.488000  -0.149653  0.854000
-0.486373  -0.149653  0.854000
-0.484747  -0.149653  0.854000
-0.484251  -0.150004  0.856000
-0.483749  -0.150354  0.858000
-0.480990  -0.150004  0.856000
-0.479360  -0.150004  0.856000
-0.477730  -0.150004  0.856000
-0.474987  -0.149653  0.854000
-0.472251  -0.149303  0.852000
-0.470629  -0.149303  0.852000
-0.470107  -0.149653  0.854000
-0.465189  -0.148602  0.848000
-0.463573  -0.148602  0.848000
-0.463048  -0.148952  0.850000
-0.467943  -0.151055  0.862000
-0.466301  -0.151055  0.862000
-0.464659  -0.151055  0.862000
-0.463017  -0.151055  0.862000
-0.461375  -0.151055  0.862000
-0.459733  -0.151055  0.862000
-0.458091  -0.151055  0.862000
-0.458038  -0.151581  0.865000
-0.456390  -0.151581  0.865000
-0.454743  -0.151581  0.865000
-0.453095  -0.151581  0.865000
-0.451448  -0.151581  0.865000
-0.449800  -0.151581  0.865000
-0.446598  -0.151055  0.862000
-0.443924  -0.150705  0.860000
-0.442286  -0.150705  0.860000
-0.439623  -0.150354  0.858000
-0.437989  -0.150354  0.858000
-0.436354  -0.150354  0.858000
-0.433707  -0.150004  0.856000
-0.432076  -0.150004  0.856000
-0.431451  -0.150354  0.858000
-0.429817  -0.150354  0.858000
-0.432674  -0.151931  0.867000
-0.434006  -0.152983  0.873000
-0.433333  -0.153333  0.875000
-0.431667  -0.153333  0.875000
-0.430000  -0.153333  0.875000
-0.427354  -0.152983  0.873000
-0.425691  -0.152983  0.873000
-0.425000  -0.153333  0.875000
-0.422366  -0.152983  0.873000
-0.419739  -0.152632  0.871000
-0.418080  -0.152632  0.871000
-0.416421  -0.152632  0.871000
-0.414762  -0.152632  0.871000
-0.413103  -0.152632  0.871000
-0.410499  -0.152282  0.869000
-0.408844  -0.152282  0.869000
-0.407189  -0.152282  0.869000
-0.405533  -0.152282  0.869000
-0.404808  -0.152632  0.871000
-0.403149  -0.152632  0.871000
-0.401490  -0.152632  0.871000
-0.399830  -0.152632  0.871000
-0.397257  -0.152282  0.869000
-0.395602  -0.152282  0.869000
-0.394853  -0.152632  0.871000
-0.392291  -0.152282  0.869000
-0.390636  -0.152282  0.869000
-0.388981  -0.152282  0.869000
-0.387326  -0.152282  0.869000
-0.385670  -0.152282  0.869000
-0.384015  -0.152282  0.869000
-0.383240  -0.152632  0.871000
-0.381581  -0.152632  0.871000
-0.379922  -0.152632  0.871000
-0.378263  -0.152632  0.871000
-0.377469  -0.152983  0.873000
-0.375806  -0.152983  0.873000
-0.375000  -0.153333  0.875000
-0.374613  -0.153859  0.878000
-0.373790  -0.154210  0.880000
-0.372114  -0.154210  0.880000
-0.369596  -0.153859  0.878000
-0.365829  -0.152983  0.873000
-0.364166  -0.152983  0.873000
-0.364579  -0.153859  0.878000
-0.354640  -0.150354  0.858000
-0.353006  -0.150354  0.858000
-0.351371  -0.150354  0.858000
-0.349737  -0.150354  0.858000
-0.348103  -0.150354  0.858000
-0.345661  -0.150004  0.856000
-0.344030  -0.150004  0.856000
-0.343200  -0.150354  0.858000
-0.259558  -0.114255  0.652000
-0.258316  -0.114255  0.652000
-0.256680  -0.114080  0.651000
-0.255048  -0.113905  0.650000
-0.253810  -0.113905  0.650000
-0.251794  -0.113554  0.648000
-0.250560  -0.113554  0.648000
-0.248941  -0.113379  0.647000
-0.246943  -0.113029  0.645000
-0.244190  -0.112328  0.641000
-0.241832  -0.111802  0.638000
-0.239863  -0.111451  0.636000
-0.238276  -0.111276  0.635000
-0.236693  -0.111101  0.634000
-0.235114  -0.110926  0.633000
-0.233170  -0.110575  0.631000
-0.231232  -0.110225  0.629000
-0.229669  -0.110050  0.628000
-0.228472  -0.110050  0.628000
-0.227276  -0.110050  0.628000
-0.226080  -0.110050  0.628000
-0.224884  -0.110050  0.628000
-0.223688  -0.110050  0.628000
-0.222491  -0.110050  0.628000
-0.221648  -0.110225  0.629000
-0.220450  -0.110225  0.629000
-0.219251  -0.110225  0.629000
-0.218053  -0.110225  0.629000
-0.216855  -0.110225  0.629000
-0.215657  -0.110225  0.629000
-0.215141  -0.110575  0.631000
-0.213939  -0.110575  0.631000
-0.212737  -0.110575  0.631000
-0.211535  -0.110575  0.631000
-0.210333  -0.110575  0.631000
-0.209463  -0.110750  0.632000
-0.207930  -0.110575  0.631000
-0.206728  -0.110575  0.631000
-0.205526  -0.110575  0.631000
-0.204324  -0.110575  0.631000
-0.203122  -0.110575  0.631000
-0.201920  -0.110575  0.631000
-0.201036  -0.110750  0.632000
-0.199832  -0.110750  0.632000
-0.198943  -0.110926  0.633000
-0.197737  -0.110926  0.633000
-0.196531  -0.110926  0.633000
-0.195326  -0.110926  0.633000
-0.194120  -0.110926  0.633000
-0.192914  -0.110926  0.633000
-0.191709  -0.110926  0.633000
-0.190804  -0.111101  0.634000
-0.189596  -0.111101  0.634000
-0.188389  -0.111101  0.634000
-0.187476  -0.111276  0.635000
-0.186267  -0.111276  0.635000
-0.185057  -0.111276  0.635000
-0.184137  -0.111451  0.636000
-0.183501  -0.111802  0.638000
-0.182571  -0.111977  0.639000
-0.181638  -0.112152  0.640000
-0.180983  -0.112503  0.642000
-0.180320  -0.112853  0.644000
-0.179371  -0.113029  0.645000
-0.178419  -0.113204  0.646000
-0.177737  -0.113554  0.648000
-0.177048  -0.113905  0.650000
-0.176350  -0.114255  0.652000
-0.175377  -0.114430  0.653000
-0.174667  -0.114781  0.655000
-0.174213  -0.115307  0.658000
-0.173749  -0.115832  0.661000
-0.173011  -0.116183  0.663000
-0.172267  -0.116533  0.665000
-0.171257  -0.116709  0.666000
-0.169989  -0.116709  0.666000
-0.168973  -0.116884  0.667000
-0.168206  -0.117234  0.669000
-0.167181  -0.117410  0.670000
-0.194126  -0.156663  0.894000
-0.190916  -0.155436  0.887000
-0.189227  -0.155436  0.887000
-0.189863  -0.157364  0.898000
-0.188152  -0.157364  0.898000
-0.186442  -0.157364  0.898000
-0.184320  -0.157013  0.896000
-0.180168  -0.154910  0.884000
-0.178484  -0.154910  0.884000
-0.176400  -0.154560  0.882000
-0.174720  -0.154560  0.882000
-0.173432  -0.154910  0.884000
-0.172331  -0.155436  0.887000
-0.170642  -0.155436  0.887000
-0.169333  -0.155787  0.889000
-0.167263  -0.155436  0.887000
-0.165573  -0.155436  0.887000
-0.165547  -0.157013  0.896000
-0.164206  -0.157364  0.898000
-0.162133  -0.157013  0.896000
-0.160427  -0.157013  0.896000
-0.159074  -0.157364  0.898000
-0.154910  -0.154910  0.884000
-0.153227  -0.154910  0.884000
-0.151543  -0.154910  0.884000
-0.149859  -0.154910  0.884000
-0.148678  -0.155436  0.887000
-0.146989  -0.155436  0.887000
-0.145627  -0.155787  0.889000
-0.143933  -0.155787  0.889000
-0.142240  -0.155787  0.889000
-0.140547  -0.155787  0.889000
-0.138853  -0.155787  0.889000
-0.137160  -0.155787  0.889000
-0.135467  -0.155787  0.889000
-0.133472  -0.155436  0.887000
-0.131783  -0.155436  0.887000
-0.130387  -0.155787  0.889000
-0.128404  -0.155436  0.887000
-0.126714  -0.155436  0.887000
-0.125307  -0.155787  0.889000
-0.123613  -0.155787  0.889000
-0.121646  -0.155436  0.887000
-0.119956  -0.155436  0.887000
-0.118267  -0.155436  0.887000
-0.116840  -0.155787  0.889000
-0.115147  -0.155787  0.889000
-0.114347  -0.157013  0.896000
-0.112640  -0.157013  0.896000
-0.110686  -0.156663  0.894000
-0.108617  -0.156137  0.891000
-0.106920  -0.156137  0.891000
-0.104987  -0.155787  0.889000
-0.103293  -0.155787  0.889000
-0.101371  -0.155436  0.887000
-0.099682  -0.155436  0.887000
-0.097992  -0.155436  0.887000
-0.096303  -0.155436  0.887000
-0.094613  -0.155436  0.887000
-0.092924  -0.155436  0.887000
-0.091234  -0.155436  0.887000
-0.089545  -0.155436  0.887000
-0.071017  -0.125646  0.717000
-0.069554  -0.125470  0.716000
-0.068000  -0.125120  0.714000
-0.066547  -0.124945  0.713000
-0.065189  -0.124945  0.713000
-0.063830  -0.124945  0.713000
-0.062210  -0.124419  0.710000
-0.060686  -0.124069  0.708000
-0.059253  -0.123893  0.707000
-0.057743  -0.123543  0.705000
-0.056400  -0.123543  0.705000
-0.054979  -0.123368  0.704000
-0.053638  -0.123368  0.704000
-0.052223  -0.123192  0.703000
-0.050884  -0.123192  0.703000
-0.049404  -0.122842  0.701000
-0.048069  -0.122842  0.701000
-0.046667  -0.122667  0.700000
-0.045204  -0.122316  0.698000
-0.043811  -0.122141  0.697000
-0.042484  -0.122141  0.697000
-0.041038  -0.121790  0.695000
-0.039657  -0.121615  0.694000
-0.038280  -0.121440  0.693000
-0.036853  -0.121090  0.691000
-0.035537  -0.121090  0.691000
-0.034171  -0.120914  0.690000
-0.032857  -0.120914  0.690000
-0.031497  -0.120739  0.689000
-0.030185  -0.120739  0.689000
-0.028872  -0.120739  0.689000
-0.027480  -0.120389  0.687000
-0.026133  -0.120213  0.686000
-0.024754  -0.119863  0.684000
-0.023451  -0.119863  0.684000
-0.022116  -0.119688  0.683000
-0.020693  -0.118987  0.679000
-0.019371  -0.118811  0.678000
-0.018080  -0.118811  0.678000
-0.016789  -0.118811  0.678000
-0.015497  -0.118811  0.678000
