# .PCD v.5 - Point Cloud Data file format
FIELDS x y z 
SIZE 4 4 4
TYPE F F F
COUNT 1 1 1
WIDTH 1562
HEIGHT 1
POINTS 1562
DATA ascii
-0.063830  -0.158897  0.713000
-0.062472  -0.158897  0.713000
-0.061114  -0.158897  0.713000
-0.059589  -0.158451  0.711000
-0.058234  -0.158451  0.711000
-0.056800  -0.158229  0.710000
-0.055291  -0.157783  0.708000
-0.053867  -0.157560  0.707000
-0.052371  -0.157114  0.705000
-0.051029  -0.157114  0.705000
-0.049615  -0.156891  0.704000
-0.048206  -0.156669  0.703000
-0.046867  -0.156669  0.703000
-0.045398  -0.156223  0.701000
-0.044063  -0.156223  0.701000
-0.042667  -0.156000  0.700000
-0.041215  -0.155554  0.698000
-0.039886  -0.155554  0.698000
-0.038501  -0.155331  0.697000
-0.037067  -0.154886  0.695000
-0.035743  -0.154886  0.695000
-0.034320  -0.154440  0.693000
-0.032905  -0.153994  0.691000
-0.031589  -0.153994  0.691000
-0.030272  -0.153994  0.691000
-0.028914  -0.153771  0.690000
-0.027560  -0.153549  0.689000
-0.026248  -0.153549  0.689000
-0.024935  -0.153549  0.689000
-0.023554  -0.153103  0.687000
-0.022213  -0.152880  0.686000
-0.020907  -0.152880  0.686000
-0.019543  -0.152434  0.684000
-0.018240  -0.152434  0.684000
-0.016912  -0.152211  0.683000
-0.015611  -0.152211  0.683000
-0.014290  -0.151989  0.682000
-0.012952  -0.151543  0.680000
-0.011640  -0.151320  0.679000
-0.010331  -0.151097  0.678000
-0.009013  -0.150651  0.676000
-0.007726  -0.150651  0.676000
-0.006429  -0.150429  0.675000
-0.005135  -0.150206  0.674000
-0.003851  -0.150206  0.674000
-0.002571  -0.150429  0.675000
-0.001284  -0.150206  0.674000
0.000000  -0.150206  0.674000
0.001280  -0.149760  0.672000
0.002556  -0.149537  0.671000
0.003829  -0.149314  0.670000
0.005097  -0.149091  0.669000
0.006371  -0.149091  0.669000
0.007623  -0.148646  0.667000
0.008893  -0.148646  0.667000
0.010164  -0.148646  0.667000
0.011417  -0.148423  0.666000
0.012667  -0.148200  0.665000
0.013933  -0.148200  0.665000
0.015154  -0.147754  0.663000
0.016417  -0.147754  0.663000
0.017653  -0.147531  0.662000
0.018914  -0.147531  0.662000
0.020145  -0.147309  0.661000
0.021371  -0.147086  0.660000
0.022560  -0.146640  0.658000
0.023813  -0.146640  0.658000
0.025067  -0.146640  0.658000
0.026240  -0.146194  0.656000
0.027490  -0.146194  0.656000
0.028739  -0.146194  0.656000
0.029943  -0.145971  0.655000
0.031095  -0.145526  0.653000
0.032339  -0.145526  0.653000
0.033531  -0.145303  0.652000
0.034773  -0.145303  0.652000
0.035960  -0.145080  0.651000
0.037143  -0.144857  0.650000
0.038381  -0.144857  0.650000
0.039497  -0.144411  0.648000
0.040731  -0.144411  0.648000
0.041901  -0.144189  0.647000
0.043133  -0.144189  0.647000
0.044297  -0.143966  0.646000
0.045528  -0.143966  0.646000
0.046758  -0.143966  0.646000
0.047914  -0.143743  0.645000
0.049143  -0.143743  0.645000
0.050371  -0.143743  0.645000
0.051520  -0.143520  0.644000
0.052747  -0.143520  0.644000
0.053973  -0.143520  0.644000
0.055200  -0.143520  0.644000
0.056514  -0.143743  0.645000
0.057743  -0.143743  0.645000
0.059063  -0.143966  0.646000
0.060387  -0.144189  0.647000
0.061619  -0.144189  0.647000
0.062949  -0.144411  0.648000
0.064381  -0.144857  0.650000
0.065619  -0.144857  0.650000
0.066960  -0.145080  0.651000
0.068305  -0.145303  0.652000
0.069547  -0.145303  0.652000
0.072417  -0.148646  0.667000
0.073688  -0.148646  0.667000
0.075183  -0.149091  0.669000
0.076457  -0.149091  0.669000
0.077848  -0.149314  0.670000
0.079242  -0.149537  0.671000
0.080520  -0.149537  0.671000
0.082164  -0.150206  0.674000
0.084067  -0.151320  0.679000
0.085989  -0.152434  0.684000
0.087291  -0.152434  0.684000
0.088983  -0.153103  0.687000
0.090554  -0.153549  0.689000
0.092133  -0.153994  0.691000
0.093450  -0.153994  0.691000
0.095040  -0.154440  0.693000
0.096360  -0.154440  0.693000
0.097821  -0.154663  0.694000
0.099286  -0.154886  0.695000
0.100610  -0.154886  0.695000
0.118213  -0.179623  0.806000
0.119749  -0.179623  0.806000
0.121284  -0.179623  0.806000
0.122819  -0.179623  0.806000
0.119880  -0.173160  0.777000
0.121829  -0.173829  0.780000
0.123314  -0.173829  0.780000
0.124800  -0.173829  0.780000
0.126610  -0.174274  0.782000
0.128427  -0.174720  0.784000
0.129589  -0.174274  0.782000
0.131078  -0.174274  0.782000
0.132059  -0.173606  0.779000
0.133543  -0.173606  0.779000
0.135200  -0.173829  0.780000
0.137387  -0.174720  0.784000
0.139766  -0.175834  0.789000
0.141269  -0.175834  0.789000
0.142771  -0.175834  0.789000
0.144274  -0.175834  0.789000
0.145777  -0.175834  0.789000
0.147280  -0.175834  0.789000
0.149160  -0.176280  0.791000
0.148381  -0.173606  0.779000
0.149865  -0.173606  0.779000
0.151349  -0.173606  0.779000
0.152832  -0.173606  0.779000
0.154316  -0.173606  0.779000
0.156000  -0.173829  0.780000
0.157486  -0.173829  0.780000
0.158971  -0.173829  0.780000
0.162309  -0.175834  0.789000
0.163811  -0.175834  0.789000
0.165733  -0.176280  0.791000
0.167240  -0.176280  0.791000
0.168747  -0.176280  0.791000
0.169823  -0.175834  0.789000
0.171326  -0.175834  0.789000
0.172829  -0.175834  0.789000
0.174331  -0.175834  0.789000
0.175834  -0.175834  0.789000
0.176663  -0.175166  0.786000
0.178160  -0.175166  0.786000
0.179657  -0.175166  0.786000
0.181154  -0.175166  0.786000
0.182187  -0.174720  0.784000
0.183680  -0.174720  0.784000
0.185173  -0.174720  0.784000
0.186667  -0.174720  0.784000
0.188160  -0.174720  0.784000
0.190137  -0.175166  0.786000
0.190659  -0.174274  0.782000
0.192149  -0.174274  0.782000
0.193638  -0.174274  0.782000
0.195128  -0.174274  0.782000
0.197623  -0.175166  0.786000
0.199120  -0.175166  0.786000
0.200617  -0.175166  0.786000
0.202114  -0.175166  0.786000
0.204130  -0.175611  0.788000
0.205630  -0.175611  0.788000
0.207394  -0.175834  0.789000
0.208897  -0.175834  0.789000
0.210400  -0.175834  0.789000
0.209217  -0.173606  0.779000
0.210701  -0.173606  0.779000
0.212457  -0.173829  0.780000
0.213943  -0.173829  0.780000
-0.447248  -0.169695  0.755000
-0.445810  -0.169695  0.755000
-0.444371  -0.169695  0.755000
-0.442933  -0.169695  0.755000
-0.441495  -0.169695  0.755000
-0.438891  -0.169246  0.753000
-0.435714  -0.168571  0.750000
-0.434286  -0.168571  0.750000
-0.434011  -0.169021  0.752000
-0.432579  -0.169021  0.752000
-0.431147  -0.169021  0.752000
-0.429714  -0.169021  0.752000
-0.427143  -0.168571  0.750000
-0.425714  -0.168571  0.750000
-0.425983  -0.169246  0.753000
-0.424549  -0.169246  0.753000
-0.420305  -0.168122  0.748000
-0.418320  -0.167897  0.747000
-0.416897  -0.167897  0.747000
-0.415474  -0.167897  0.747000
-0.412943  -0.167448  0.745000
-0.411524  -0.167448  0.745000
-0.411206  -0.167897  0.747000
-0.408686  -0.167448  0.745000
-0.407267  -0.167448  0.745000
-0.405848  -0.167448  0.745000
-0.404429  -0.167448  0.745000
-0.403010  -0.167448  0.745000
-0.401590  -0.167448  0.745000
-0.400171  -0.167448  0.745000
-0.398752  -0.167448  0.745000
-0.397333  -0.167448  0.745000
-0.395914  -0.167448  0.745000
-0.394495  -0.167448  0.745000
-0.394131  -0.167897  0.747000
-0.393234  -0.168122  0.748000
-0.391810  -0.168122  0.748000
-0.390385  -0.168122  0.748000
-0.390000  -0.168571  0.750000
-0.388571  -0.168571  0.750000
-0.388175  -0.169021  0.752000
-0.386743  -0.169021  0.752000
-0.385823  -0.169246  0.753000
-0.384389  -0.169246  0.753000
-0.382954  -0.169246  0.753000
-0.382533  -0.169695  0.755000
-0.378571  -0.168571  0.750000
-0.377143  -0.168571  0.750000
-0.375714  -0.168571  0.750000
-0.375284  -0.169021  0.752000
-0.373851  -0.169021  0.752000
-0.372914  -0.169246  0.753000
-0.370987  -0.169021  0.752000
-0.369554  -0.169021  0.752000
-0.368122  -0.169021  0.752000
-0.367177  -0.169246  0.753000
-0.365743  -0.169246  0.753000
-0.365276  -0.169695  0.755000
-0.362874  -0.169246  0.753000
-0.361440  -0.169246  0.753000
-0.360962  -0.169695  0.755000
-0.359524  -0.169695  0.755000
-0.358560  -0.169920  0.756000
-0.357120  -0.169920  0.756000
-0.355680  -0.169920  0.756000
-0.354240  -0.169920  0.756000
-0.352333  -0.169695  0.755000
-0.350895  -0.169695  0.755000
-0.349457  -0.169695  0.755000
-0.348019  -0.169695  0.755000
-0.299758  -0.146770  0.653000
-0.298514  -0.146770  0.653000
-0.298181  -0.147219  0.655000
-0.296933  -0.147219  0.655000
-0.338571  -0.168571  0.750000
-0.338042  -0.169021  0.752000
-0.293638  -0.147444  0.656000
-0.292389  -0.147444  0.656000
-0.291139  -0.147444  0.656000
-0.292099  -0.148568  0.661000
-0.289080  -0.147669  0.657000
-0.287829  -0.147669  0.657000
-0.286577  -0.147669  0.657000
-0.285326  -0.147669  0.657000
-0.283642  -0.147444  0.656000
-0.282392  -0.147444  0.656000
-0.281143  -0.147444  0.656000
-0.279467  -0.147219  0.655000
-0.278219  -0.147219  0.655000
-0.276971  -0.147219  0.655000
-0.274882  -0.146770  0.653000
-0.272381  -0.146095  0.650000
-0.269474  -0.145196  0.646000
-0.267829  -0.144971  0.645000
-0.266600  -0.144971  0.645000
-0.264960  -0.144747  0.644000
-0.262914  -0.144297  0.642000
-0.261284  -0.144072  0.641000
-0.259657  -0.143848  0.640000
-0.258034  -0.143623  0.639000
-0.256415  -0.143398  0.638000
-0.254400  -0.142949  0.636000
-0.252790  -0.142724  0.635000
-0.251185  -0.142499  0.634000
-0.249977  -0.142499  0.634000
-0.248377  -0.142274  0.633000
-0.246390  -0.141825  0.631000
-0.244023  -0.141150  0.628000
-0.242053  -0.140701  0.626000
-0.240476  -0.140476  0.625000
-0.238520  -0.140027  0.623000
-0.236952  -0.139802  0.622000
-0.235010  -0.139352  0.620000
-0.233829  -0.139352  0.620000
-0.232272  -0.139128  0.619000
-0.231093  -0.139128  0.619000
-0.229914  -0.139128  0.619000
-0.228735  -0.139128  0.619000
-0.227556  -0.139128  0.619000
-0.226377  -0.139128  0.619000
-0.225562  -0.139352  0.620000
-0.224381  -0.139352  0.620000
-0.223200  -0.139352  0.620000
-0.222735  -0.139802  0.622000
-0.221550  -0.139802  0.622000
-0.220720  -0.140027  0.623000
-0.219533  -0.140027  0.623000
-0.218697  -0.140251  0.624000
-0.217857  -0.140476  0.625000
-0.217360  -0.140926  0.627000
-0.216166  -0.140926  0.627000
-0.215314  -0.141150  0.628000
-0.214459  -0.141375  0.629000
-0.213261  -0.141375  0.629000
-0.212737  -0.141825  0.631000
-0.211870  -0.142050  0.632000
-0.211000  -0.142274  0.633000
-0.210126  -0.142499  0.634000
-0.208918  -0.142499  0.634000
-0.208038  -0.142724  0.635000
-0.207154  -0.142949  0.636000
-0.206590  -0.143398  0.638000
-0.205697  -0.143623  0.639000
-0.204800  -0.143848  0.640000
-0.203899  -0.144072  0.641000
-0.202994  -0.144297  0.642000
-0.202400  -0.144747  0.644000
-0.201486  -0.144971  0.645000
-0.200568  -0.145196  0.646000
-0.199646  -0.145421  0.647000
-0.198413  -0.145421  0.647000
-0.197486  -0.145646  0.648000
-0.196251  -0.145646  0.648000
-0.195619  -0.146095  0.650000
-0.194979  -0.146545  0.652000
-0.193737  -0.146545  0.652000
-0.192790  -0.146770  0.653000
-0.192133  -0.147219  0.655000
-0.191177  -0.147444  0.656000
-0.190217  -0.147669  0.657000
-0.188966  -0.147669  0.657000
-0.188000  -0.147893  0.658000
-0.186747  -0.147893  0.658000
-0.186057  -0.148343  0.660000
-0.185080  -0.148568  0.661000
-0.184099  -0.148792  0.662000
-0.183667  -0.149467  0.665000
-0.182674  -0.149691  0.666000
-0.181678  -0.149916  0.667000
-0.180949  -0.150366  0.669000
-0.179674  -0.150366  0.669000
-0.178400  -0.150366  0.669000
-0.177655  -0.150815  0.671000
-0.176640  -0.151040  0.672000
-0.176143  -0.151714  0.675000
-0.175116  -0.151939  0.676000
-0.174343  -0.152389  0.678000
-0.173051  -0.152389  0.678000
-0.172013  -0.152613  0.679000
-0.170720  -0.152613  0.679000
-0.169676  -0.152838  0.680000
-0.168876  -0.153288  0.682000
-0.168069  -0.153737  0.684000
-0.167497  -0.154411  0.687000
-0.166914  -0.155086  0.690000
-0.165600  -0.155086  0.690000
-0.164524  -0.155310  0.691000
-0.163916  -0.155985  0.694000
-0.162829  -0.156210  0.695000
-0.161970  -0.156659  0.697000
-0.160872  -0.156884  0.698000
-0.160000  -0.157333  0.700000
-0.158893  -0.157558  0.701000
-0.158008  -0.158008  0.703000
-0.157114  -0.158457  0.705000
-0.156213  -0.158907  0.707000
-0.155086  -0.159131  0.708000
-0.154171  -0.159581  0.710000
-0.153034  -0.159806  0.711000
-0.151680  -0.159806  0.711000
-0.150749  -0.160255  0.713000
-0.149390  -0.160255  0.713000
-0.148240  -0.160480  0.714000
-0.146880  -0.160480  0.714000
-0.145928  -0.160930  0.716000
-0.144564  -0.160930  0.716000
-0.143800  -0.161604  0.719000
-0.142629  -0.161829  0.720000
-0.141257  -0.161829  0.720000
-0.139886  -0.161829  0.720000
-0.143810  -0.169695  0.755000
-0.142560  -0.169920  0.756000
-0.141120  -0.169920  0.756000
-0.139680  -0.169920  0.756000
-0.140251  -0.172392  0.767000
-0.138790  -0.172392  0.767000
-0.136613  -0.171493  0.763000
-0.135160  -0.171493  0.763000
-0.134057  -0.171943  0.765000
-0.132600  -0.171943  0.765000
-0.130800  -0.171493  0.763000
-0.129347  -0.171493  0.763000
-0.127390  -0.170819  0.760000
-0.125943  -0.170819  0.760000
-0.124659  -0.171044  0.761000
-0.122724  -0.170370  0.758000
-0.121280  -0.170370  0.758000
-0.119836  -0.170370  0.758000
-0.118705  -0.170819  0.760000
-0.118337  -0.172392  0.767000
-0.116876  -0.172392  0.767000
-0.115566  -0.172617  0.768000
-0.113954  -0.172392  0.767000
-0.112493  -0.172392  0.767000
-0.111177  -0.172617  0.768000
-0.109571  -0.172392  0.767000
-0.107829  -0.171943  0.765000
-0.106371  -0.171943  0.765000
-0.104640  -0.171493  0.763000
-0.103187  -0.171493  0.763000
-0.101733  -0.171493  0.763000
-0.100280  -0.171493  0.763000
-0.098827  -0.171493  0.763000
-0.097373  -0.171493  0.763000
-0.095920  -0.171493  0.763000
-0.094467  -0.171493  0.763000
-0.093501  -0.172392  0.767000
-0.092040  -0.172392  0.767000
-0.090579  -0.172392  0.767000
-0.089118  -0.172392  0.767000
-0.087771  -0.172617  0.768000
-0.086309  -0.172617  0.768000
-0.084846  -0.172617  0.768000
-0.083383  -0.172617  0.768000
-0.081920  -0.172617  0.768000
-0.080352  -0.172392  0.767000
-0.078891  -0.172392  0.767000
-0.077229  -0.171943  0.765000
-0.070918  -0.160930  0.716000
-0.069360  -0.160480  0.714000
-0.067905  -0.160255  0.713000
-0.066547  -0.160255  0.713000
-0.065189  -0.160255  0.713000
-0.063830  -0.160255  0.713000
-0.062560  -0.160480  0.714000
-0.061114  -0.160255  0.713000
-0.059589  -0.159806  0.711000
-0.058234  -0.159806  0.711000
-0.056800  -0.159581  0.710000
-0.055448  -0.159581  0.710000
-0.053867  -0.158907  0.707000
-0.052520  -0.158907  0.707000
-0.051029  -0.158457  0.705000
-0.049615  -0.158232  0.704000
-0.048206  -0.158008  0.703000
-0.046867  -0.158008  0.703000
-0.045398  -0.157558  0.701000
-0.044063  -0.157558  0.701000
-0.042667  -0.157333  0.700000
-0.041215  -0.156884  0.698000
-0.039886  -0.156884  0.698000
-0.038501  -0.156659  0.697000
-0.037067  -0.156210  0.695000
-0.035743  -0.156210  0.695000
-0.034370  -0.155985  0.694000
-0.033000  -0.155760  0.693000
-0.031680  -0.155760  0.693000
-0.030360  -0.155760  0.693000
-0.028914  -0.155086  0.690000
-0.027560  -0.154861  0.689000
-0.026248  -0.154861  0.689000
-0.024935  -0.154861  0.689000
-0.023554  -0.154411  0.687000
-0.022213  -0.154187  0.686000
-0.020907  -0.154187  0.686000
-0.019600  -0.154187  0.686000
-0.018240  -0.153737  0.684000
-0.016937  -0.153737  0.684000
-0.015611  -0.153512  0.683000
-0.014248  -0.152838  0.680000
-0.012952  -0.152838  0.680000
-0.011640  -0.152613  0.679000
-0.010331  -0.152389  0.678000
-0.009013  -0.151939  0.676000
-0.007726  -0.151939  0.676000
-0.006429  -0.151714  0.675000
-0.005135  -0.151490  0.674000
-0.003851  -0.151490  0.674000
-0.002571  -0.151714  0.675000
-0.001284  -0.151490  0.674000
0.000000  -0.151490  0.674000
0.001280  -0.151040  0.672000
0.002556  -0.150815  0.671000
0.003829  -0.150590  0.670000
0.005097  -0.150366  0.669000
0.006371  -0.150366  0.669000
0.007623  -0.149916  0.667000
0.008893  -0.149916  0.667000
0.010164  -0.149916  0.667000
0.011417  -0.149691  0.666000
0.012686  -0.149691  0.666000
0.013933  -0.149467  0.665000
0.015154  -0.149017  0.663000
0.016417  -0.149017  0.663000
0.017653  -0.148792  0.662000
0.018914  -0.148792  0.662000
0.020145  -0.148568  0.661000
0.021371  -0.148343  0.660000
0.022560  -0.147893  0.658000
0.023813  -0.147893  0.658000
0.025029  -0.147669  0.657000
0.026280  -0.147669  0.657000
0.027490  -0.147444  0.656000
0.028739  -0.147444  0.656000
0.029943  -0.147219  0.655000
0.031095  -0.146770  0.653000
0.032339  -0.146770  0.653000
0.033583  -0.146770  0.653000
0.034773  -0.146545  0.652000
0.035960  -0.146320  0.651000
0.037143  -0.146095  0.650000
0.038381  -0.146095  0.650000
0.039497  -0.145646  0.648000
0.040731  -0.145646  0.648000
0.041901  -0.145421  0.647000
0.043133  -0.145421  0.647000
0.044297  -0.145196  0.646000
0.045528  -0.145196  0.646000
0.046686  -0.144971  0.645000
0.047914  -0.144971  0.645000
0.049143  -0.144971  0.645000
0.050371  -0.144971  0.645000
0.051520  -0.144747  0.644000
0.052747  -0.144747  0.644000
0.053973  -0.144747  0.644000
0.055200  -0.144747  0.644000
0.056514  -0.144971  0.645000
0.057743  -0.144971  0.645000
0.059063  -0.145196  0.646000
0.060293  -0.145196  0.646000
0.061619  -0.145421  0.647000
0.062949  -0.145646  0.648000
0.064381  -0.146095  0.650000
0.065619  -0.146095  0.650000
0.066960  -0.146320  0.651000
0.068305  -0.146545  0.652000
0.069547  -0.146545  0.652000
0.072417  -0.149916  0.667000
0.073688  -0.149916  0.667000
0.075183  -0.150366  0.669000
0.076571  -0.150590  0.670000
0.077848  -0.150590  0.670000
0.079242  -0.150815  0.671000
0.080520  -0.150815  0.671000
0.082286  -0.151714  0.675000
0.084067  -0.152613  0.679000
0.085737  -0.153288  0.682000
0.087164  -0.153512  0.683000
0.088983  -0.154411  0.687000
0.090554  -0.154861  0.689000
0.092133  -0.155310  0.691000
0.093450  -0.155310  0.691000
0.095177  -0.155985  0.694000
0.096499  -0.155985  0.694000
0.097962  -0.156210  0.695000
0.099286  -0.156210  0.695000
0.100610  -0.156210  0.695000
0.101933  -0.156210  0.695000
0.112914  -0.170819  0.760000
0.116168  -0.173516  0.772000
0.117638  -0.173516  0.772000
0.119880  -0.174640  0.777000
0.121360  -0.174640  0.777000
0.122840  -0.174640  0.777000
0.124640  -0.175090  0.779000
0.126286  -0.175314  0.780000
0.128427  -0.176213  0.784000
0.129257  -0.175314  0.780000
0.130743  -0.175314  0.780000
0.131381  -0.174190  0.775000
0.132857  -0.174190  0.775000
0.135027  -0.175090  0.779000
0.136686  -0.175314  0.780000
0.137994  -0.175090  0.779000
0.138404  -0.173741  0.773000
0.139876  -0.173741  0.773000
0.142080  -0.174640  0.777000
0.143560  -0.174640  0.777000
0.145413  -0.175090  0.779000
0.145766  -0.173741  0.773000
0.147238  -0.173741  0.773000
0.148710  -0.173741  0.773000
0.150183  -0.173741  0.773000
0.152048  -0.174190  0.775000
0.153524  -0.174190  0.775000
0.155000  -0.174190  0.775000
0.156880  -0.174640  0.777000
0.158360  -0.174640  0.777000
0.160251  -0.175090  0.779000
0.163811  -0.177337  0.789000
0.165733  -0.177787  0.791000
0.167240  -0.177787  0.791000
0.168747  -0.177787  0.791000
0.169823  -0.177337  0.789000
0.171326  -0.177337  0.789000
0.172829  -0.177337  0.789000
0.173669  -0.176663  0.786000
0.175166  -0.176663  0.786000
0.176213  -0.176213  0.784000
0.177707  -0.176213  0.784000
0.179200  -0.176213  0.784000
0.180232  -0.175764  0.782000
0.181257  -0.175314  0.780000
0.182743  -0.175314  0.780000
0.184701  -0.175764  0.782000
0.186190  -0.175764  0.782000
0.187680  -0.175764  0.782000
0.189170  -0.175764  0.782000
0.190659  -0.175764  0.782000
0.192149  -0.175764  0.782000
0.193638  -0.175764  0.782000
0.195128  -0.175764  0.782000
0.197120  -0.176213  0.784000
0.198613  -0.176213  0.784000
0.200107  -0.176213  0.784000
0.201600  -0.176213  0.784000
0.203611  -0.176663  0.786000
0.205109  -0.176663  0.786000
0.206606  -0.176663  0.786000
0.208103  -0.176663  0.786000
0.208533  -0.175764  0.782000
0.209217  -0.175090  0.779000
0.210701  -0.175090  0.779000
0.212185  -0.175090  0.779000
0.213669  -0.175090  0.779000
0.215152  -0.175090  0.779000
-0.439177  -0.167507  0.739000
-0.436585  -0.167053  0.737000
-0.435181  -0.167053  0.737000
-0.434954  -0.167507  0.739000
-0.433547  -0.167507  0.739000
-0.432139  -0.167507  0.739000
-0.437143  -0.170000  0.750000
-0.435714  -0.170000  0.750000
-0.434286  -0.170000  0.750000
-0.434011  -0.170453  0.752000
-0.432579  -0.170453  0.752000
-0.428280  -0.169320  0.747000
-0.426857  -0.169320  0.747000
-0.425434  -0.169320  0.747000
-0.421741  -0.168413  0.743000
-0.419760  -0.168187  0.742000
-0.418347  -0.168187  0.742000
-0.416933  -0.168187  0.742000
-0.415520  -0.168187  0.742000
-0.412990  -0.167733  0.740000
-0.411581  -0.167733  0.740000
-0.411280  -0.168187  0.742000
-0.409867  -0.168187  0.742000
-0.408453  -0.168187  0.742000
-0.407040  -0.168187  0.742000
-0.406173  -0.168413  0.743000
-0.404213  -0.168187  0.742000
-0.402800  -0.168187  0.742000
-0.401928  -0.168413  0.743000
-0.400512  -0.168413  0.743000
-0.399097  -0.168413  0.743000
-0.398752  -0.168867  0.745000
-0.397333  -0.168867  0.745000
-0.395914  -0.168867  0.745000
-0.394495  -0.168867  0.745000
-0.393076  -0.168867  0.745000
-0.392709  -0.169320  0.747000
-0.391286  -0.169320  0.747000
-0.390385  -0.169547  0.748000
-0.388960  -0.169547  0.748000
-0.387535  -0.169547  0.748000
-0.387143  -0.170000  0.750000
-0.385714  -0.170000  0.750000
-0.384286  -0.170000  0.750000
-0.382857  -0.170000  0.750000
-0.382446  -0.170453  0.752000
-0.382533  -0.171133  0.755000
-0.378571  -0.170000  0.750000
-0.376137  -0.169547  0.748000
-0.374712  -0.169547  0.748000
-0.374286  -0.170000  0.750000
-0.373851  -0.170453  0.752000
-0.371429  -0.170000  0.750000
-0.369013  -0.169547  0.748000
-0.367589  -0.169547  0.748000
-0.366164  -0.169547  0.748000
-0.365714  -0.170000  0.750000
-0.365257  -0.170453  0.752000
-0.362857  -0.170000  0.750000
-0.361429  -0.170000  0.750000
-0.360960  -0.170453  0.752000
-0.360006  -0.170680  0.753000
-0.358571  -0.170680  0.753000
-0.358086  -0.171133  0.755000
-0.356648  -0.171133  0.755000
-0.355210  -0.171133  0.755000
-0.354240  -0.171360  0.756000
-0.350933  -0.170453  0.752000
-0.347177  -0.169320  0.747000
-0.345754  -0.169320  0.747000
-0.345714  -0.170000  0.750000
-0.299758  -0.148013  0.653000
-0.298514  -0.148013  0.653000
-0.297270  -0.148013  0.653000
-0.296933  -0.148467  0.655000
-0.338571  -0.170000  0.750000
-0.338042  -0.170453  0.752000
-0.293638  -0.148693  0.656000
-0.292389  -0.148693  0.656000
-0.291139  -0.148693  0.656000
-0.290773  -0.149147  0.658000
-0.289080  -0.148920  0.657000
-0.287829  -0.148920  0.657000
-0.286577  -0.148920  0.657000
-0.285326  -0.148920  0.657000
-0.283642  -0.148693  0.656000
-0.282392  -0.148693  0.656000
-0.281143  -0.148693  0.656000
-0.279893  -0.148693  0.656000
-0.278644  -0.148693  0.656000
-0.276971  -0.148467  0.655000
-0.274882  -0.148013  0.653000
-0.273638  -0.148013  0.653000
-0.269474  -0.146427  0.646000
-0.267829  -0.146200  0.645000
-0.266600  -0.146200  0.645000
-0.264960  -0.145973  0.644000
-0.262914  -0.145520  0.642000
-0.261284  -0.145293  0.641000
-0.259657  -0.145067  0.640000
-0.258034  -0.144840  0.639000
-0.256415  -0.144613  0.638000
-0.254400  -0.144160  0.636000
-0.252790  -0.143933  0.635000
-0.251185  -0.143707  0.634000
-0.249977  -0.143707  0.634000
-0.248377  -0.143480  0.633000
-0.246390  -0.143027  0.631000
-0.244023  -0.142347  0.628000
-0.241667  -0.141667  0.625000
-0.240091  -0.141440  0.624000
-0.238520  -0.141213  0.623000
-0.236952  -0.140987  0.622000
-0.235010  -0.140533  0.620000
-0.233451  -0.140307  0.619000
-0.232272  -0.140307  0.619000
-0.231093  -0.140307  0.619000
-0.229914  -0.140307  0.619000
-0.228735  -0.140307  0.619000
-0.227556  -0.140307  0.619000
-0.226377  -0.140307  0.619000
-0.225198  -0.140307  0.619000
-0.224381  -0.140533  0.620000
-0.223200  -0.140533  0.620000
-0.222019  -0.140533  0.620000
-0.221550  -0.140987  0.622000
-0.220720  -0.141213  0.623000
-0.219533  -0.141213  0.623000
-0.218697  -0.141440  0.624000
-0.217857  -0.141667  0.625000
-0.217013  -0.141893  0.626000
-0.216166  -0.142120  0.627000
-0.215314  -0.142347  0.628000
-0.214118  -0.142347  0.628000
-0.213261  -0.142573  0.629000
-0.212737  -0.143027  0.631000
-0.211535  -0.143027  0.631000
-0.210667  -0.143253  0.632000
-0.209794  -0.143480  0.633000
-0.208918  -0.143707  0.634000
-0.208038  -0.143933  0.635000
-0.207154  -0.144160  0.636000
-0.206590  -0.144613  0.638000
-0.205697  -0.144840  0.639000
-0.204480  -0.144840  0.639000
-0.203899  -0.145293  0.641000
-0.202994  -0.145520  0.642000
-0.202400  -0.145973  0.644000
-0.201486  -0.146200  0.645000
-0.200568  -0.146427  0.646000
-0.199646  -0.146653  0.647000
-0.198413  -0.146653  0.647000
-0.197486  -0.146880  0.648000
-0.196251  -0.146880  0.648000
-0.195619  -0.147333  0.650000
-0.194979  -0.147787  0.652000
-0.193737  -0.147787  0.652000
-0.193381  -0.148467  0.655000
-0.192427  -0.148693  0.656000
-0.191177  -0.148693  0.656000
-0.190217  -0.148920  0.657000
-0.188966  -0.148920  0.657000
-0.188000  -0.149147  0.658000
-0.186747  -0.149147  0.658000
-0.186339  -0.149827  0.661000
-0.185360  -0.150053  0.662000
-0.184377  -0.150280  0.663000
-0.183943  -0.150960  0.666000
-0.182949  -0.151187  0.667000
-0.181678  -0.151187  0.667000
-0.180949  -0.151640  0.669000
-0.179674  -0.151640  0.669000
-0.178667  -0.151867  0.670000
-0.177920  -0.152320  0.672000
-0.177166  -0.152773  0.674000
-0.176404  -0.153227  0.676000
-0.175116  -0.153227  0.676000
-0.174343  -0.153680  0.678000
-0.173051  -0.153680  0.678000
-0.172013  -0.153907  0.679000
-0.170720  -0.153907  0.679000
-0.169676  -0.154133  0.680000
-0.169371  -0.155040  0.684000
-0.169297  -0.156173  0.689000
-0.168229  -0.156400  0.690000
-0.166914  -0.156400  0.690000
-0.165840  -0.156627  0.691000
-0.165000  -0.157080  0.693000
-0.163916  -0.157307  0.694000
-0.162829  -0.157533  0.695000
-0.162202  -0.158213  0.698000
-0.161333  -0.158667  0.700000
-0.160229  -0.158893  0.701000
-0.159347  -0.159347  0.703000
-0.158457  -0.159800  0.705000
-0.157560  -0.160253  0.707000
-0.156213  -0.160253  0.707000
-0.155086  -0.160480  0.708000
-0.154389  -0.161160  0.711000
-0.153034  -0.161160  0.711000
-0.151680  -0.161160  0.711000
-0.150749  -0.161613  0.713000
-0.149600  -0.161840  0.714000
-0.148240  -0.161840  0.714000
-0.147291  -0.162293  0.716000
-0.146131  -0.162520  0.717000
-0.144766  -0.162520  0.717000
-0.143400  -0.162520  0.717000
-0.142430  -0.162973  0.719000
-0.141061  -0.162973  0.719000
-0.143810  -0.171133  0.755000
-0.142371  -0.171133  0.755000
-0.140933  -0.171133  0.755000
-0.139680  -0.171360  0.756000
-0.138240  -0.171360  0.756000
-0.136800  -0.171360  0.756000
-0.135718  -0.171813  0.758000
-0.134274  -0.171813  0.758000
-0.132830  -0.171813  0.758000
-0.131387  -0.171813  0.758000
-0.129943  -0.171813  0.758000
-0.128499  -0.171813  0.758000
-0.127055  -0.171813  0.758000
-0.125611  -0.171813  0.758000
-0.124168  -0.171813  0.758000
-0.122724  -0.171813  0.758000
-0.120960  -0.171360  0.756000
-0.119520  -0.171360  0.756000
-0.118392  -0.171813  0.758000
-0.117720  -0.172947  0.763000
-0.116267  -0.172947  0.763000
-0.115566  -0.174080  0.768000
-0.113657  -0.173400  0.765000
-0.112200  -0.173400  0.765000
-0.111177  -0.174080  0.768000
-0.109571  -0.173853  0.767000
-0.107829  -0.173400  0.765000
-0.106093  -0.172947  0.763000
-0.104640  -0.172947  0.763000
-0.103187  -0.172947  0.763000
-0.101733  -0.172947  0.763000
-0.100280  -0.172947  0.763000
-0.098568  -0.172493  0.761000
-0.096990  -0.172267  0.760000
-0.095291  -0.171813  0.758000
-0.093848  -0.171813  0.758000
-0.092404  -0.171813  0.758000
-0.091320  -0.172493  0.761000
-0.090107  -0.172947  0.763000
-0.088886  -0.173400  0.765000
-0.087657  -0.173853  0.767000
-0.086196  -0.173853  0.767000
-0.084846  -0.174080  0.768000
-0.083383  -0.174080  0.768000
-0.081920  -0.174080  0.768000
-0.080352  -0.173853  0.767000
-0.078686  -0.173400  0.765000
-0.077027  -0.172947  0.763000
-0.075375  -0.172493  0.761000
-0.073634  -0.171813  0.758000
-0.068000  -0.161840  0.714000
-0.066547  -0.161613  0.713000
-0.065189  -0.161613  0.713000
-0.063830  -0.161613  0.713000
-0.062560  -0.161840  0.714000
-0.061114  -0.161613  0.713000
-0.059589  -0.161160  0.711000
-0.058234  -0.161160  0.711000
-0.056800  -0.160933  0.710000
-0.055291  -0.160480  0.708000
-0.053867  -0.160253  0.707000
-0.052520  -0.160253  0.707000
-0.051029  -0.159800  0.705000
-0.049686  -0.159800  0.705000
-0.048274  -0.159573  0.704000
-0.046933  -0.159573  0.704000
-0.045528  -0.159347  0.703000
-0.044063  -0.158893  0.701000
-0.042728  -0.158893  0.701000
-0.041333  -0.158667  0.700000
-0.039886  -0.158213  0.698000
-0.038501  -0.157987  0.697000
-0.037067  -0.157533  0.695000
-0.035743  -0.157533  0.695000
-0.034370  -0.157307  0.694000
-0.033000  -0.157080  0.693000
-0.031680  -0.157080  0.693000
-0.030360  -0.157080  0.693000
-0.028956  -0.156627  0.691000
-0.027600  -0.156400  0.690000
-0.026248  -0.156173  0.689000
-0.024935  -0.156173  0.689000
-0.023554  -0.155720  0.687000
-0.022246  -0.155720  0.687000
-0.020907  -0.155493  0.686000
-0.019600  -0.155493  0.686000
-0.018240  -0.155040  0.684000
-0.016937  -0.155040  0.684000
-0.015611  -0.154813  0.683000
-0.014248  -0.154133  0.680000
-0.012952  -0.154133  0.680000
-0.011640  -0.153907  0.679000
-0.010331  -0.153680  0.678000
-0.009040  -0.153680  0.678000
-0.007726  -0.153227  0.676000
-0.006429  -0.153000  0.675000
-0.005143  -0.153000  0.675000
-0.003857  -0.153000  0.675000
-0.002571  -0.153000  0.675000
-0.001286  -0.153000  0.675000
0.000000  -0.152773  0.674000
0.001280  -0.152320  0.672000
0.002556  -0.152093  0.671000
0.003829  -0.151867  0.670000
0.005097  -0.151640  0.669000
0.006371  -0.151640  0.669000
0.007623  -0.151187  0.667000
0.008893  -0.151187  0.667000
0.010164  -0.151187  0.667000
0.011417  -0.150960  0.666000
0.012667  -0.150733  0.665000
0.013933  -0.150733  0.665000
0.015154  -0.150280  0.663000
0.016392  -0.150053  0.662000
0.017653  -0.150053  0.662000
0.018886  -0.149827  0.661000
0.020145  -0.149827  0.661000
0.021371  -0.149600  0.660000
0.022629  -0.149600  0.660000
0.023886  -0.149600  0.660000
0.025029  -0.148920  0.657000
0.026280  -0.148920  0.657000
0.027490  -0.148693  0.656000
0.028739  -0.148693  0.656000
0.029943  -0.148467  0.655000
0.031190  -0.148467  0.655000
0.032339  -0.148013  0.653000
0.033531  -0.147787  0.652000
0.034773  -0.147787  0.652000
0.035960  -0.147560  0.651000
0.037143  -0.147333  0.650000
0.038381  -0.147333  0.650000
0.039497  -0.146880  0.648000
0.040731  -0.146880  0.648000
0.041901  -0.146653  0.647000
0.043133  -0.146653  0.647000
0.044297  -0.146427  0.646000
0.045457  -0.146200  0.645000
0.046686  -0.146200  0.645000
0.047914  -0.146200  0.645000
0.049143  -0.146200  0.645000
0.050371  -0.146200  0.645000
0.051520  -0.145973  0.644000
0.052747  -0.145973  0.644000
0.053973  -0.145973  0.644000
0.055200  -0.145973  0.644000
0.056514  -0.146200  0.645000
0.057743  -0.146200  0.645000
0.059063  -0.146427  0.646000
0.060293  -0.146427  0.646000
0.061619  -0.146653  0.647000
0.062949  -0.146880  0.648000
0.064381  -0.147333  0.650000
0.065619  -0.147333  0.650000
0.066960  -0.147560  0.651000
0.068410  -0.148013  0.653000
0.070400  -0.149600  0.660000
0.071983  -0.150280  0.663000
0.073577  -0.150960  0.666000
0.075183  -0.151640  0.669000
0.076571  -0.151867  0.670000
0.077848  -0.151867  0.670000
0.079360  -0.152320  0.672000
0.080880  -0.152773  0.674000
0.082408  -0.153227  0.676000
0.084067  -0.153907  0.679000
0.085737  -0.154587  0.682000
0.087164  -0.154813  0.683000
0.088983  -0.155720  0.687000
0.090554  -0.156173  0.689000
0.092133  -0.156627  0.691000
0.093720  -0.157080  0.693000
0.095177  -0.157307  0.694000
0.096499  -0.157307  0.694000
0.097962  -0.157533  0.695000
0.099571  -0.157987  0.697000
0.100899  -0.157987  0.697000
0.111467  -0.172267  0.760000
0.112914  -0.172267  0.760000
0.116168  -0.174987  0.772000
0.117638  -0.174987  0.772000
0.119109  -0.174987  0.772000
0.120735  -0.175213  0.773000
0.122208  -0.175213  0.773000
0.124320  -0.176120  0.777000
0.126124  -0.176573  0.779000
0.127608  -0.176573  0.779000
0.129091  -0.176573  0.779000
0.130575  -0.176573  0.779000
0.131381  -0.175667  0.775000
0.132857  -0.175667  0.775000
0.134333  -0.175667  0.775000
0.135810  -0.175667  0.775000
0.136931  -0.175213  0.773000
0.138225  -0.174987  0.772000
0.139695  -0.174987  0.772000
0.141166  -0.174987  0.772000
0.142821  -0.175213  0.773000
0.144107  -0.174987  0.772000
0.145577  -0.174987  0.772000
0.147048  -0.174987  0.772000
0.148518  -0.174987  0.772000
0.149989  -0.174987  0.772000
0.151655  -0.175213  0.773000
0.153128  -0.175213  0.773000
0.154600  -0.175213  0.773000
0.156072  -0.175213  0.773000
0.157952  -0.175667  0.775000
0.159429  -0.175667  0.775000
0.160490  -0.175213  0.773000
0.161752  -0.174987  0.772000
0.163223  -0.174987  0.772000
0.164693  -0.174987  0.772000
0.166164  -0.174987  0.772000
0.167634  -0.174987  0.772000
0.168229  -0.174080  0.768000
0.169691  -0.174080  0.768000
0.172046  -0.174987  0.772000
0.175090  -0.176573  0.779000
0.176800  -0.176800  0.780000
0.178286  -0.176800  0.780000
0.179771  -0.176800  0.780000
0.181257  -0.176800  0.780000
0.182743  -0.176800  0.780000
0.184701  -0.177253  0.782000
0.186190  -0.177253  0.782000
0.187680  -0.177253  0.782000
0.189170  -0.177253  0.782000
0.190659  -0.177253  0.782000
0.192149  -0.177253  0.782000
0.193143  -0.176800  0.780000
0.194629  -0.176800  0.780000
0.196617  -0.177253  0.782000
0.198107  -0.177253  0.782000
0.199596  -0.177253  0.782000
0.201086  -0.177253  0.782000
0.203093  -0.177707  0.784000
0.204587  -0.177707  0.784000
0.206080  -0.177707  0.784000
0.208103  -0.178160  0.786000
0.208000  -0.176800  0.780000
0.209217  -0.176573  0.779000
0.210160  -0.176120  0.777000
0.211640  -0.176120  0.777000
0.213120  -0.176120  0.777000
0.215152  -0.176573  0.779000
-0.437989  -0.168457  0.737000
-0.436585  -0.168457  0.737000
-0.435181  -0.168457  0.737000
-0.433777  -0.168457  0.737000
-0.433547  -0.168914  0.739000
-0.432139  -0.168914  0.739000
-0.430731  -0.168914  0.739000
-0.414219  -0.162971  0.713000
-0.412861  -0.162971  0.713000
-0.428817  -0.169829  0.743000
-0.427402  -0.169829  0.743000
-0.425987  -0.169829  0.743000
-0.424000  -0.169600  0.742000
-0.422587  -0.169600  0.742000
-0.421173  -0.169600  0.742000
-0.418063  -0.168914  0.739000
-0.416655  -0.168914  0.739000
-0.415248  -0.168914  0.739000
-0.413840  -0.168914  0.739000
-0.412432  -0.168914  0.739000
-0.411025  -0.168914  0.739000
-0.410171  -0.169143  0.740000
-0.408762  -0.169143  0.740000
-0.406802  -0.168914  0.739000
-0.405394  -0.168914  0.739000
-0.404533  -0.169143  0.740000
-0.403124  -0.169143  0.740000
-0.401714  -0.169143  0.740000
-0.401387  -0.169600  0.742000
-0.399973  -0.169600  0.742000
-0.399097  -0.169829  0.743000
-0.397682  -0.169829  0.743000
-0.396267  -0.169829  0.743000
-0.394851  -0.169829  0.743000
-0.393436  -0.169829  0.743000
-0.393076  -0.170286  0.745000
-0.391657  -0.170286  0.745000
-0.391286  -0.170743  0.747000
-0.389863  -0.170743  0.747000
-0.388440  -0.170743  0.747000
-0.387017  -0.170743  0.747000
-0.386110  -0.170971  0.748000
-0.384686  -0.170971  0.748000
-0.383261  -0.170971  0.748000
-0.381836  -0.170971  0.748000
-0.379903  -0.170743  0.747000
-0.378480  -0.170743  0.747000
-0.377057  -0.170743  0.747000
-0.376137  -0.170971  0.748000
-0.374712  -0.170971  0.748000
-0.373288  -0.170971  0.748000
-0.371863  -0.170971  0.748000
-0.370438  -0.170971  0.748000
-0.368520  -0.170743  0.747000
-0.366114  -0.170286  0.745000
-0.364695  -0.170286  0.745000
-0.364251  -0.170743  0.747000
-0.363314  -0.170971  0.748000
-0.361890  -0.170971  0.748000
-0.360465  -0.170971  0.748000
-0.360960  -0.171886  0.752000
-0.359528  -0.171886  0.752000
-0.358095  -0.171886  0.752000
-0.357137  -0.172114  0.753000
-0.350979  -0.169829  0.743000
-0.349093  -0.169600  0.742000
-0.347680  -0.169600  0.742000
-0.346267  -0.169600  0.742000
-0.345318  -0.169829  0.743000
-0.343903  -0.169829  0.743000
-0.300541  -0.149029  0.652000
-0.299299  -0.149029  0.652000
-0.298514  -0.149257  0.653000
-0.297270  -0.149257  0.653000
-0.296933  -0.149714  0.655000
-0.338571  -0.171429  0.750000
-0.338042  -0.171886  0.752000
-0.332581  -0.169829  0.743000
-0.331166  -0.169829  0.743000
-0.329750  -0.169829  0.743000
-0.290773  -0.150400  0.658000
-0.289520  -0.150400  0.658000
-0.288267  -0.150400  0.658000
-0.287013  -0.150400  0.658000
-0.285326  -0.150171  0.657000
-0.284074  -0.150171  0.657000
-0.282823  -0.150171  0.657000
-0.281143  -0.149943  0.656000
-0.279893  -0.149943  0.656000
-0.278644  -0.149943  0.656000
-0.276971  -0.149714  0.655000
-0.274882  -0.149257  0.653000
-0.273638  -0.149257  0.653000
-0.269891  -0.147886  0.647000
-0.267829  -0.147429  0.645000
-0.266600  -0.147429  0.645000
-0.264960  -0.147200  0.644000
-0.263733  -0.147200  0.644000
-0.261691  -0.146743  0.642000
-0.260063  -0.146514  0.641000
-0.258438  -0.146286  0.640000
-0.256817  -0.146057  0.639000
-0.254400  -0.145371  0.636000
-0.253189  -0.145371  0.636000
-0.251581  -0.145143  0.635000
-0.250371  -0.145143  0.635000
-0.248770  -0.144914  0.634000
-0.246781  -0.144457  0.632000
-0.243634  -0.143314  0.627000
-0.241667  -0.142857  0.625000
-0.240091  -0.142629  0.624000
-0.238520  -0.142400  0.623000
-0.237333  -0.142400  0.623000
-0.236147  -0.142400  0.623000
-0.233451  -0.141486  0.619000
-0.232272  -0.141486  0.619000
-0.231093  -0.141486  0.619000
-0.229914  -0.141486  0.619000
-0.228735  -0.141486  0.619000
-0.227556  -0.141486  0.619000
-0.226377  -0.141486  0.619000
-0.225198  -0.141486  0.619000
-0.224381  -0.141714  0.620000
-0.223200  -0.141714  0.620000
-0.222019  -0.141714  0.620000
-0.221550  -0.142171  0.622000
-0.220720  -0.142400  0.623000
-0.219533  -0.142400  0.623000
-0.218697  -0.142629  0.624000
-0.217857  -0.142857  0.625000
-0.217013  -0.143086  0.626000
-0.215821  -0.143086  0.626000
-0.214971  -0.143314  0.627000
-0.214118  -0.143543  0.628000
-0.213261  -0.143771  0.629000
-0.212063  -0.143771  0.629000
-0.211535  -0.144229  0.631000
-0.210667  -0.144457  0.632000
-0.209794  -0.144686  0.633000
-0.208918  -0.144914  0.634000
-0.208038  -0.145143  0.635000
-0.207154  -0.145371  0.636000
-0.206590  -0.145829  0.638000
-0.205697  -0.146057  0.639000
-0.204480  -0.146057  0.639000
-0.203899  -0.146514  0.641000
-0.202994  -0.146743  0.642000
-0.202400  -0.147200  0.644000
-0.201486  -0.147429  0.645000
-0.200568  -0.147657  0.646000
-0.199646  -0.147886  0.647000
-0.198413  -0.147886  0.647000
-0.197486  -0.148114  0.648000
-0.196251  -0.148114  0.648000
-0.195920  -0.148800  0.651000
-0.194979  -0.149029  0.652000
-0.194034  -0.149257  0.653000
-0.193381  -0.149714  0.655000
-0.192427  -0.149943  0.656000
-0.191469  -0.150171  0.657000
-0.190217  -0.150171  0.657000
-0.189253  -0.150400  0.658000
-0.188000  -0.150400  0.658000
-0.187314  -0.150857  0.660000
-0.186339  -0.151086  0.661000
-0.185640  -0.151543  0.663000
-0.185211  -0.152229  0.666000
-0.184219  -0.152457  0.667000
-0.182949  -0.152457  0.667000
-0.182223  -0.152914  0.669000
-0.180949  -0.152914  0.669000
-0.179943  -0.153143  0.670000
-0.178933  -0.153371  0.671000
-0.178450  -0.154057  0.674000
-0.177429  -0.154286  0.675000
-0.176404  -0.154514  0.676000
-0.175634  -0.154971  0.678000
-0.174600  -0.155200  0.679000
-0.173307  -0.155200  0.679000
-0.172267  -0.155429  0.680000
-0.170971  -0.155429  0.680000
-0.170674  -0.156343  0.684000
-0.170114  -0.157029  0.687000
-0.169543  -0.157714  0.690000
-0.168472  -0.157943  0.691000
-0.167156  -0.157943  0.691000
-0.166320  -0.158400  0.693000
-0.165238  -0.158629  0.694000
-0.164152  -0.158857  0.695000
-0.163531  -0.159543  0.698000
-0.162667  -0.160000  0.700000
-0.161333  -0.160000  0.700000
-0.160229  -0.160229  0.701000
-0.159573  -0.160914  0.704000
-0.158457  -0.161143  0.705000
-0.157560  -0.161600  0.707000
-0.157539  -0.162971  0.713000
-0.156181  -0.162971  0.713000
-0.154823  -0.162971  0.713000
-0.152819  -0.162286  0.710000
-0.151467  -0.162286  0.710000
-0.150749  -0.162971  0.713000
-0.149390  -0.162971  0.713000
-0.148032  -0.162971  0.713000
-0.146880  -0.163200  0.714000
-0.145928  -0.163657  0.716000
-0.144766  -0.163886  0.717000
-0.143400  -0.163886  0.717000
-0.142430  -0.164343  0.719000
-0.141061  -0.164343  0.719000
-0.139691  -0.164343  0.719000
-0.144286  -0.171429  0.750000
-0.143810  -0.172571  0.755000
-0.142371  -0.172571  0.755000
-0.140933  -0.172571  0.755000
-0.139495  -0.172571  0.755000
-0.138057  -0.172571  0.755000
-0.136800  -0.172800  0.756000
-0.135718  -0.173257  0.758000
-0.134274  -0.173257  0.758000
-0.132830  -0.173257  0.758000
-0.131387  -0.173257  0.758000
-0.129943  -0.173257  0.758000
-0.128499  -0.173257  0.758000
-0.126720  -0.172800  0.756000
-0.125280  -0.172800  0.756000
-0.123840  -0.172800  0.756000
-0.122724  -0.173257  0.758000
-0.120960  -0.172800  0.756000
-0.119520  -0.172800  0.756000
-0.118080  -0.172800  0.756000
-0.116949  -0.173257  0.758000
-0.115505  -0.173257  0.758000
-0.115566  -0.175543  0.768000
-0.112617  -0.173257  0.758000
-0.111173  -0.173257  0.758000
-0.111177  -0.175543  0.768000
-0.109571  -0.175314  0.767000
-0.107829  -0.174857  0.765000
-0.106093  -0.174400  0.763000
-0.104640  -0.174400  0.763000
-0.103187  -0.174400  0.763000
-0.101733  -0.174400  0.763000
-0.099623  -0.173257  0.758000
-0.098179  -0.173257  0.758000
-0.096480  -0.172800  0.756000
-0.095040  -0.172800  0.756000
-0.093600  -0.172800  0.756000
-0.092160  -0.172800  0.756000
-0.090960  -0.173257  0.758000
-0.089870  -0.173943  0.761000
-0.088886  -0.174857  0.765000
-0.087657  -0.175314  0.767000
-0.086196  -0.175314  0.767000
-0.084735  -0.175314  0.767000
-0.083383  -0.175543  0.768000
-0.078480  -0.174400  0.763000
-0.077027  -0.174400  0.763000
-0.075573  -0.174400  0.763000
-0.073634  -0.173257  0.758000
-0.068000  -0.163200  0.714000
-0.066640  -0.163200  0.714000
-0.065189  -0.162971  0.713000
-0.063830  -0.162971  0.713000
-0.062472  -0.162971  0.713000
-0.061114  -0.162971  0.713000
-0.059589  -0.162514  0.711000
-0.058234  -0.162514  0.711000
-0.056800  -0.162286  0.710000
-0.055291  -0.161829  0.708000
-0.053867  -0.161600  0.707000
-0.052520  -0.161600  0.707000
-0.051029  -0.161143  0.705000
-0.049615  -0.160914  0.704000
-0.048274  -0.160914  0.704000
-0.046867  -0.160686  0.703000
-0.045398  -0.160229  0.701000
-0.044063  -0.160229  0.701000
-0.042728  -0.160229  0.701000
-0.041333  -0.160000  0.700000
-0.039886  -0.159543  0.698000
-0.038501  -0.159314  0.697000
-0.037173  -0.159314  0.697000
-0.035743  -0.158857  0.695000
-0.034370  -0.158629  0.694000
-0.033048  -0.158629  0.694000
-0.031726  -0.158629  0.694000
-0.030360  -0.158400  0.693000
-0.028956  -0.157943  0.691000
-0.027600  -0.157714  0.690000
-0.026248  -0.157486  0.689000
-0.024935  -0.157486  0.689000
-0.023554  -0.157029  0.687000
-0.022246  -0.157029  0.687000
-0.020907  -0.156800  0.686000
-0.019600  -0.156800  0.686000
-0.018293  -0.156800  0.686000
-0.016937  -0.156343  0.684000
-0.015611  -0.156114  0.683000
-0.014290  -0.155886  0.682000
-0.012952  -0.155429  0.680000
-0.011640  -0.155200  0.679000
-0.010331  -0.154971  0.678000
-0.009040  -0.154971  0.678000
-0.007726  -0.154514  0.676000
-0.006438  -0.154514  0.676000
-0.005143  -0.154286  0.675000
-0.003857  -0.154286  0.675000
-0.002571  -0.154286  0.675000
-0.001286  -0.154286  0.675000
0.000000  -0.154286  0.675000
0.001284  -0.154057  0.674000
0.002560  -0.153600  0.672000
0.003829  -0.153143  0.670000
0.005097  -0.152914  0.669000
0.006371  -0.152914  0.669000
0.007623  -0.152457  0.667000
0.008893  -0.152457  0.667000
0.010164  -0.152457  0.667000
0.011417  -0.152229  0.666000
0.012667  -0.152000  0.665000
0.013933  -0.152000  0.665000
0.015154  -0.151543  0.663000
0.016392  -0.151314  0.662000
0.017653  -0.151314  0.662000
0.018886  -0.151086  0.661000
0.020145  -0.151086  0.661000
0.021371  -0.150857  0.660000
0.022629  -0.150857  0.660000
0.023886  -0.150857  0.660000
0.025067  -0.150400  0.658000
0.026280  -0.150171  0.657000
0.027490  -0.149943  0.656000
0.028739  -0.149943  0.656000
0.029943  -0.149714  0.655000
0.031095  -0.149257  0.653000
0.032339  -0.149257  0.653000
0.033531  -0.149029  0.652000
0.034720  -0.148800  0.651000
0.035960  -0.148800  0.651000
0.037143  -0.148571  0.650000
0.038381  -0.148571  0.650000
0.039497  -0.148114  0.648000
0.040731  -0.148114  0.648000
0.041901  -0.147886  0.647000
0.043133  -0.147886  0.647000
0.044297  -0.147657  0.646000
0.045457  -0.147429  0.645000
0.046686  -0.147429  0.645000
0.047914  -0.147429  0.645000
0.049143  -0.147429  0.645000
0.050371  -0.147429  0.645000
0.051520  -0.147200  0.644000
0.052747  -0.147200  0.644000
0.053973  -0.147200  0.644000
0.055200  -0.147200  0.644000
0.056514  -0.147429  0.645000
0.057743  -0.147429  0.645000
0.059063  -0.147657  0.646000
0.060387  -0.147886  0.647000
0.061619  -0.147886  0.647000
0.062949  -0.148114  0.648000
0.064381  -0.148571  0.650000
0.065619  -0.148571  0.650000
0.066960  -0.148800  0.651000
0.068829  -0.150171  0.657000
0.070400  -0.150857  0.660000
0.071983  -0.151543  0.663000
0.073577  -0.152229  0.666000
0.075183  -0.152914  0.669000
0.076571  -0.153143  0.670000
0.077964  -0.153371  0.671000
0.079596  -0.154057  0.674000
0.081120  -0.154514  0.676000
0.082651  -0.154971  0.678000
0.084190  -0.155429  0.680000
0.085737  -0.155886  0.682000
0.087164  -0.156114  0.683000
0.088983  -0.157029  0.687000
0.090554  -0.157486  0.689000
0.092133  -0.157943  0.691000
0.093720  -0.158400  0.693000
0.095177  -0.158629  0.694000
0.096638  -0.158857  0.695000
0.098244  -0.159314  0.697000
0.099571  -0.159314  0.697000
0.100899  -0.159314  0.697000
0.111467  -0.173714  0.760000
0.112914  -0.173714  0.760000
0.114512  -0.173943  0.761000
0.116267  -0.174400  0.763000
0.118491  -0.175543  0.768000
0.120267  -0.176000  0.770000
0.121733  -0.176000  0.770000
0.124000  -0.177143  0.775000
0.125800  -0.177600  0.777000
0.127280  -0.177600  0.777000
0.128760  -0.177600  0.777000
0.129905  -0.177143  0.775000
0.131042  -0.176686  0.773000
0.132514  -0.176686  0.773000
0.133987  -0.176686  0.773000
0.135284  -0.176457  0.772000
0.136754  -0.176457  0.772000
0.137867  -0.176000  0.770000
0.139333  -0.176000  0.770000
0.140800  -0.176000  0.770000
0.142636  -0.176457  0.772000
0.144107  -0.176457  0.772000
0.145200  -0.176000  0.770000
0.146667  -0.176000  0.770000
0.148518  -0.176457  0.772000
0.149989  -0.176457  0.772000
0.151459  -0.176457  0.772000
0.152930  -0.176457  0.772000
0.154400  -0.176457  0.772000
0.155870  -0.176457  0.772000
0.157341  -0.176457  0.772000
0.159017  -0.176686  0.773000
0.160490  -0.176686  0.773000
0.161752  -0.176457  0.772000
0.163223  -0.176457  0.772000
0.164693  -0.176457  0.772000
0.166164  -0.176457  0.772000
0.167634  -0.176457  0.772000
0.168229  -0.175543  0.768000
0.169691  -0.175543  0.768000
0.172046  -0.176457  0.772000
0.174190  -0.177143  0.775000
0.175213  -0.176686  0.773000
0.176686  -0.176686  0.773000
0.178158  -0.176686  0.773000
0.181025  -0.178057  0.779000
0.182509  -0.178057  0.779000
0.184701  -0.178743  0.782000
0.186667  -0.179200  0.784000
0.187680  -0.178743  0.782000
0.189170  -0.178743  0.782000
0.188221  -0.176457  0.772000
0.189691  -0.176457  0.772000
0.192400  -0.177600  0.777000
0.192632  -0.176457  0.772000
0.194103  -0.176457  0.772000
0.195827  -0.176686  0.773000
0.197299  -0.176686  0.773000
0.201086  -0.178743  0.782000
0.202575  -0.178743  0.782000
0.203543  -0.178286  0.780000
0.204766  -0.178057  0.779000
0.206250  -0.178057  0.779000
0.207200  -0.177600  0.777000
0.208680  -0.177600  0.777000
0.209619  -0.177143  0.775000
0.211095  -0.177143  0.775000
0.212571  -0.177143  0.775000
-0.437604  -0.169170  0.734000
-0.436206  -0.169170  0.734000
-0.435992  -0.169630  0.736000
