# .PCD v.5 - Point Cloud Data file format
FIELDS x y z 
SIZE 4 4 4
TYPE F F F
COUNT 1 1 1
WIDTH 1564
HEIGHT 1
POINTS 1564
DATA ascii
-0.083349  -0.185640  0.663000
-0.082086  -0.185640  0.663000
-0.080823  -0.185640  0.663000
-0.079560  -0.185640  0.663000
-0.078179  -0.185360  0.662000
-0.076686  -0.184800  0.660000
-0.075429  -0.184800  0.660000
-0.074171  -0.184800  0.660000
-0.072914  -0.184800  0.660000
-0.071657  -0.184800  0.660000
-0.070400  -0.184800  0.660000
-0.069248  -0.185080  0.661000
-0.067989  -0.185080  0.661000
-0.066830  -0.185360  0.662000
-0.065570  -0.185360  0.662000
-0.064406  -0.185640  0.663000
-0.063143  -0.185640  0.663000
-0.061880  -0.185640  0.663000
-0.060800  -0.186200  0.665000
-0.059533  -0.186200  0.665000
-0.058267  -0.186200  0.665000
-0.057000  -0.186200  0.665000
-0.055817  -0.186480  0.666000
-0.054467  -0.186200  0.665000
-0.053200  -0.186200  0.665000
-0.051933  -0.186200  0.665000
-0.050743  -0.186480  0.666000
-0.049474  -0.186480  0.666000
-0.048278  -0.186760  0.667000
-0.047149  -0.187320  0.669000
-0.045874  -0.187320  0.669000
-0.044800  -0.188160  0.672000
-0.043520  -0.188160  0.672000
-0.042240  -0.188160  0.672000
-0.041143  -0.189000  0.675000
-0.035840  -0.188160  0.672000
-0.034560  -0.188160  0.672000
-0.033280  -0.188160  0.672000
-0.032095  -0.188720  0.674000
-0.030811  -0.188720  0.674000
-0.029528  -0.188720  0.674000
-0.021533  -0.186200  0.665000
-0.020267  -0.186200  0.665000
-0.019000  -0.186200  0.665000
-0.017733  -0.186200  0.665000
-0.016467  -0.186200  0.665000
-0.015200  -0.186200  0.665000
-0.013933  -0.186200  0.665000
-0.012705  -0.186760  0.667000
-0.011520  -0.188160  0.672000
-0.010240  -0.188160  0.672000
-0.008987  -0.188720  0.674000
-0.007703  -0.188720  0.674000
-0.006419  -0.188720  0.674000
-0.005143  -0.189000  0.675000
-0.003863  -0.189280  0.676000
-0.002537  -0.186480  0.666000
-0.001269  -0.186480  0.666000
0.000000  -0.186480  0.666000
0.001269  -0.186480  0.666000
0.002541  -0.186760  0.667000
0.003829  -0.187600  0.670000
0.005120  -0.188160  0.672000
0.006400  -0.188160  0.672000
0.007680  -0.188160  0.672000
0.008960  -0.188160  0.672000
0.010270  -0.188720  0.674000
0.011554  -0.188720  0.674000
0.012838  -0.188720  0.674000
0.014080  -0.188160  0.672000
0.015360  -0.188160  0.672000
0.016640  -0.188160  0.672000
0.017973  -0.188720  0.674000
0.019200  -0.188160  0.672000
0.020450  -0.187880  0.671000
0.021695  -0.187600  0.670000
0.022971  -0.187600  0.670000
0.024284  -0.187880  0.671000
0.025562  -0.187880  0.671000
0.026840  -0.187880  0.671000
0.028160  -0.188160  0.672000
0.029440  -0.188160  0.672000
0.030720  -0.188160  0.672000
0.032095  -0.188720  0.674000
0.033429  -0.189000  0.675000
0.034560  -0.188160  0.672000
0.035787  -0.187880  0.671000
0.037065  -0.187880  0.671000
0.038229  -0.187320  0.669000
0.039385  -0.186760  0.667000
0.040594  -0.186480  0.666000
0.041863  -0.186480  0.666000
0.043067  -0.186200  0.665000
0.044333  -0.186200  0.665000
0.045669  -0.186480  0.666000
0.047008  -0.186760  0.667000
0.048423  -0.187320  0.669000
0.049846  -0.187880  0.671000
0.051352  -0.188720  0.674000
0.052714  -0.189000  0.675000
0.054080  -0.189280  0.676000
0.055368  -0.189280  0.676000
0.056571  -0.189000  0.675000
0.057857  -0.189000  0.675000
0.059143  -0.189000  0.675000
0.060429  -0.189000  0.675000
0.061714  -0.189000  0.675000
0.063000  -0.189000  0.675000
0.064286  -0.189000  0.675000
0.065571  -0.189000  0.675000
0.066857  -0.189000  0.675000
0.068042  -0.188720  0.674000
0.069017  -0.187880  0.671000
0.070295  -0.187880  0.671000
0.071573  -0.187880  0.671000
0.072851  -0.187880  0.671000
0.074019  -0.187600  0.670000
0.075295  -0.187600  0.670000
0.076571  -0.187600  0.670000
0.077964  -0.187880  0.671000
0.079124  -0.187600  0.670000
0.080400  -0.187600  0.670000
0.081676  -0.187600  0.670000
0.082952  -0.187600  0.670000
0.084229  -0.187600  0.670000
0.085632  -0.187880  0.671000
0.087429  -0.189000  0.675000
0.089109  -0.189840  0.678000
0.090533  -0.190120  0.679000
0.091962  -0.190400  0.680000
0.093120  -0.190120  0.679000
0.094413  -0.190120  0.679000
0.095707  -0.190120  0.679000
0.097000  -0.190120  0.679000
0.098872  -0.191240  0.683000
0.098267  -0.187600  0.670000
0.099543  -0.187600  0.670000
0.100819  -0.187600  0.670000
0.102248  -0.187880  0.671000
0.103526  -0.187880  0.671000
0.105272  -0.188720  0.674000
0.106556  -0.188720  0.674000
0.107840  -0.188720  0.674000
0.109286  -0.189000  0.675000
0.111063  -0.189840  0.678000
0.112686  -0.190400  0.680000
0.113981  -0.190400  0.680000
0.114598  -0.189280  0.676000
0.115714  -0.189000  0.675000
0.117000  -0.189000  0.675000
0.117760  -0.188160  0.672000
0.118863  -0.187880  0.671000
0.120141  -0.187880  0.671000
0.121419  -0.187880  0.671000
0.122697  -0.187880  0.671000
0.123975  -0.187880  0.671000
0.125253  -0.187880  0.671000
0.126531  -0.187880  0.671000
0.127810  -0.187880  0.671000
0.130434  -0.189840  0.678000
0.131726  -0.189840  0.678000
0.133410  -0.190400  0.680000
0.134705  -0.190400  0.680000
0.136000  -0.190400  0.680000
0.137901  -0.191240  0.683000
0.137571  -0.189000  0.675000
0.138857  -0.189000  0.675000
0.141181  -0.190400  0.680000
0.143105  -0.191240  0.683000
0.141446  -0.187320  0.669000
0.142720  -0.187320  0.669000
0.144210  -0.187600  0.670000
0.145486  -0.187600  0.670000
0.151143  -0.193200  0.690000
0.152457  -0.193200  0.690000
0.150206  -0.188720  0.674000
0.151490  -0.188720  0.674000
0.152773  -0.188720  0.674000
0.154286  -0.189000  0.675000
0.156724  -0.190400  0.680000
0.158019  -0.190400  0.680000
0.159314  -0.190400  0.680000
0.160610  -0.190400  0.680000
0.161667  -0.190120  0.679000
0.162720  -0.189840  0.678000
0.164011  -0.189840  0.678000
0.165303  -0.189840  0.678000
0.166594  -0.189840  0.678000
0.167886  -0.189840  0.678000
0.169177  -0.189840  0.678000
0.170469  -0.189840  0.678000
0.171760  -0.189840  0.678000
0.173051  -0.189840  0.678000
0.173829  -0.189280  0.676000
0.175116  -0.189280  0.676000
0.176404  -0.189280  0.676000
0.177429  -0.189000  0.675000
0.178714  -0.189000  0.675000
0.180267  -0.189280  0.676000
0.181554  -0.189280  0.676000
0.183653  -0.190120  0.679000
0.185219  -0.190400  0.680000
0.186514  -0.190400  0.680000
0.187810  -0.190400  0.680000
0.189105  -0.190400  0.680000
0.190960  -0.190960  0.682000
0.192259  -0.190960  0.682000
0.193842  -0.191240  0.683000
0.194000  -0.190120  0.679000
0.195293  -0.190120  0.679000
0.196587  -0.190120  0.679000
0.198171  -0.190400  0.680000
0.199467  -0.190400  0.680000
0.200762  -0.190400  0.680000
0.202651  -0.190960  0.682000
0.203950  -0.190960  0.682000
0.205250  -0.190960  0.682000
0.206549  -0.190960  0.682000
0.207848  -0.190960  0.682000
0.209147  -0.190960  0.682000
0.210446  -0.190960  0.682000
0.212055  -0.191240  0.683000
0.213356  -0.191240  0.683000
0.214657  -0.191240  0.683000
0.215958  -0.191240  0.683000
0.217259  -0.191240  0.683000
0.218560  -0.191240  0.683000
0.219861  -0.191240  0.683000
0.221162  -0.191240  0.683000
0.222463  -0.191240  0.683000
0.223764  -0.191240  0.683000
0.225065  -0.191240  0.683000
0.226366  -0.191240  0.683000
0.227667  -0.191240  0.683000
0.229303  -0.191520  0.684000
0.230269  -0.191240  0.683000
0.231570  -0.191240  0.683000
0.233211  -0.191520  0.684000
0.234514  -0.191520  0.684000
-0.385735  -0.182392  0.647000
-0.384503  -0.182392  0.647000
-0.383270  -0.182392  0.647000
-0.382038  -0.182392  0.647000
-0.380217  -0.182110  0.646000
-0.377813  -0.181547  0.644000
-0.376587  -0.181547  0.644000
-0.375360  -0.181547  0.644000
-0.374133  -0.181547  0.644000
-0.372907  -0.181547  0.644000
-0.371680  -0.181547  0.644000
-0.371604  -0.182110  0.646000
-0.370947  -0.182392  0.647000
-0.370286  -0.182674  0.648000
-0.370190  -0.183238  0.650000
-0.367817  -0.182674  0.648000
-0.366583  -0.182674  0.648000
-0.365349  -0.182674  0.648000
-0.364114  -0.182674  0.648000
-0.362320  -0.182392  0.647000
-0.360530  -0.182110  0.646000
-0.359299  -0.182110  0.646000
-0.358623  -0.182392  0.647000
-0.357390  -0.182392  0.647000
-0.354507  -0.181547  0.644000
-0.353280  -0.181547  0.644000
-0.352053  -0.181547  0.644000
-0.352461  -0.182392  0.647000
-0.351771  -0.182674  0.648000
-0.348914  -0.181829  0.645000
-0.347686  -0.181829  0.645000
-0.346457  -0.181829  0.645000
-0.346834  -0.182674  0.648000
-0.345600  -0.182674  0.648000
-0.344366  -0.182674  0.648000
-0.341543  -0.181829  0.645000
-0.340314  -0.181829  0.645000
-0.339611  -0.182110  0.646000
-0.337333  -0.181547  0.644000
-0.336107  -0.181547  0.644000
-0.336960  -0.182674  0.648000
-0.335726  -0.182674  0.648000
-0.334491  -0.182674  0.648000
-0.333257  -0.182674  0.648000
-0.332023  -0.182674  0.648000
-0.331810  -0.183238  0.650000
-0.330571  -0.183238  0.650000
-0.329333  -0.183238  0.650000
-0.328095  -0.183238  0.650000
-0.327863  -0.183802  0.652000
-0.327122  -0.184084  0.653000
-0.326876  -0.184648  0.655000
-0.325629  -0.184648  0.655000
-0.324381  -0.184648  0.655000
-0.323133  -0.184648  0.655000
-0.320903  -0.184084  0.653000
-0.319170  -0.183802  0.652000
-0.317928  -0.183802  0.652000
-0.317171  -0.184084  0.653000
-0.315928  -0.184084  0.653000
-0.315648  -0.184648  0.655000
-0.314400  -0.184648  0.655000
-0.314109  -0.185211  0.657000
-0.313333  -0.185493  0.658000
-0.312080  -0.185493  0.658000
-0.311771  -0.186057  0.660000
-0.309573  -0.185493  0.658000
-0.307851  -0.185211  0.657000
-0.306600  -0.185211  0.657000
-0.305349  -0.185211  0.657000
-0.304097  -0.185211  0.657000
-0.302846  -0.185211  0.657000
-0.301135  -0.184930  0.656000
-0.299886  -0.184930  0.656000
-0.298636  -0.184930  0.656000
-0.297387  -0.184930  0.656000
-0.296589  -0.185211  0.657000
-0.295337  -0.185211  0.657000
-0.294533  -0.185493  0.658000
-0.293280  -0.185493  0.658000
-0.292027  -0.185493  0.658000
-0.292983  -0.186903  0.663000
-0.284680  -0.182392  0.647000
-0.283448  -0.182392  0.647000
-0.282651  -0.182674  0.648000
-0.287063  -0.186339  0.661000
-0.285804  -0.186339  0.661000
-0.282392  -0.184930  0.656000
-0.281143  -0.184930  0.656000
-0.278613  -0.184084  0.653000
-0.277370  -0.184084  0.653000
-0.276126  -0.184084  0.653000
-0.274882  -0.184084  0.653000
-0.272381  -0.183238  0.650000
-0.270309  -0.182674  0.648000
-0.269074  -0.182674  0.648000
-0.267840  -0.182674  0.648000
-0.266606  -0.182674  0.648000
-0.264962  -0.182392  0.647000
-0.263730  -0.182392  0.647000
-0.262091  -0.182110  0.646000
-0.260457  -0.181829  0.645000
-0.258023  -0.180983  0.642000
-0.256800  -0.180983  0.642000
-0.255179  -0.180701  0.641000
-0.253958  -0.180701  0.641000
-0.252737  -0.180701  0.641000
-0.251516  -0.180701  0.641000
-0.249905  -0.180419  0.640000
-0.248297  -0.180137  0.639000
-0.247080  -0.180137  0.639000
-0.245863  -0.180137  0.639000
-0.244263  -0.179855  0.638000
-0.243048  -0.179855  0.638000
-0.241832  -0.179855  0.638000
-0.240994  -0.180137  0.639000
-0.239402  -0.179855  0.638000
-0.238187  -0.179855  0.638000
-0.236971  -0.179855  0.638000
-0.235756  -0.179855  0.638000
-0.234541  -0.179855  0.638000
-0.233326  -0.179855  0.638000
-0.232110  -0.179855  0.638000
-0.230171  -0.179291  0.636000
-0.228960  -0.179291  0.636000
-0.227749  -0.179291  0.636000
-0.226537  -0.179291  0.636000
-0.225326  -0.179291  0.636000
-0.224819  -0.179855  0.638000
-0.223604  -0.179855  0.638000
-0.222389  -0.179855  0.638000
-0.221520  -0.180137  0.639000
-0.220648  -0.180419  0.640000
-0.219771  -0.180701  0.641000
-0.218550  -0.180701  0.641000
-0.217330  -0.180701  0.641000
-0.216446  -0.180983  0.642000
-0.215223  -0.180983  0.642000
-0.214000  -0.180983  0.642000
-0.212777  -0.180983  0.642000
-0.211554  -0.180983  0.642000
-0.210331  -0.180983  0.642000
-0.209760  -0.181547  0.644000
-0.208533  -0.181547  0.644000
-0.207629  -0.181829  0.645000
-0.207040  -0.182392  0.647000
-0.205808  -0.182392  0.647000
-0.204891  -0.182674  0.648000
-0.203657  -0.182674  0.648000
-0.203048  -0.183238  0.650000
-0.202120  -0.183520  0.651000
-0.200880  -0.183520  0.651000
-0.199947  -0.183802  0.652000
-0.198705  -0.183802  0.652000
-0.197463  -0.183802  0.652000
-0.196221  -0.183802  0.652000
-0.195278  -0.184084  0.653000
-0.194034  -0.184084  0.653000
-0.192790  -0.184084  0.653000
-0.192720  -0.185211  0.657000
-0.191760  -0.185493  0.658000
-0.191086  -0.186057  0.660000
-0.189829  -0.186057  0.660000
-0.188857  -0.186339  0.661000
-0.187882  -0.186621  0.662000
-0.186621  -0.186621  0.662000
-0.182840  -0.184084  0.653000
-0.181596  -0.184084  0.653000
-0.180352  -0.184084  0.653000
-0.179931  -0.184930  0.656000
-0.178682  -0.184930  0.656000
-0.177432  -0.184930  0.656000
-0.176720  -0.185493  0.658000
-0.175467  -0.185493  0.658000
-0.174743  -0.186057  0.660000
-0.173486  -0.186057  0.660000
-0.172229  -0.186057  0.660000
-0.170971  -0.186057  0.660000
-0.171257  -0.187749  0.666000
-0.170244  -0.188030  0.667000
-0.168973  -0.188030  0.667000
-0.163931  -0.183802  0.652000
-0.162190  -0.183238  0.650000
-0.157143  -0.186057  0.660000
-0.155886  -0.186057  0.660000
-0.154160  -0.185493  0.658000
-0.152674  -0.185211  0.657000
-0.151423  -0.185211  0.657000
-0.149943  -0.184930  0.656000
-0.148693  -0.184930  0.656000
-0.147444  -0.184930  0.656000
-0.146417  -0.185211  0.657000
-0.145387  -0.185493  0.658000
-0.144133  -0.185493  0.658000
-0.142880  -0.185493  0.658000
-0.142057  -0.186057  0.660000
-0.142080  -0.187749  0.666000
-0.141023  -0.188030  0.667000
-0.139752  -0.188030  0.667000
-0.138482  -0.188030  0.667000
-0.137211  -0.188030  0.667000
-0.135941  -0.188030  0.667000
-0.131844  -0.184084  0.653000
-0.130600  -0.184084  0.653000
-0.128703  -0.188594  0.669000
-0.127429  -0.188594  0.669000
-0.125777  -0.188030  0.667000
-0.124507  -0.188030  0.667000
-0.123790  -0.188876  0.670000
-0.121966  -0.188030  0.667000
-0.120695  -0.188030  0.667000
-0.119425  -0.188030  0.667000
-0.116383  -0.185211  0.657000
-0.110366  -0.187749  0.666000
-0.109097  -0.187749  0.666000
-0.107667  -0.187467  0.665000
-0.106080  -0.186903  0.663000
-0.104817  -0.186903  0.663000
-0.103554  -0.186903  0.663000
-0.102291  -0.186903  0.663000
-0.101333  -0.187467  0.665000
-0.100217  -0.187749  0.666000
-0.098949  -0.187749  0.666000
-0.097827  -0.188030  0.667000
-0.096556  -0.188030  0.667000
-0.095571  -0.188594  0.669000
-0.094297  -0.188594  0.669000
-0.093023  -0.188594  0.669000
-0.091749  -0.188594  0.669000
-0.090474  -0.188594  0.669000
-0.089200  -0.188594  0.669000
-0.087137  -0.186903  0.663000
-0.085874  -0.186903  0.663000
-0.084611  -0.186903  0.663000
-0.083349  -0.186903  0.663000
-0.081962  -0.186621  0.662000
-0.080701  -0.186621  0.662000
-0.079440  -0.186621  0.662000
-0.078061  -0.186339  0.661000
-0.076686  -0.186057  0.660000
-0.075200  -0.185493  0.658000
-0.073947  -0.185493  0.658000
-0.072693  -0.185493  0.658000
-0.071440  -0.185493  0.658000
-0.070400  -0.186057  0.660000
-0.069143  -0.186057  0.660000
-0.067886  -0.186057  0.660000
-0.066730  -0.186339  0.661000
-0.065470  -0.186339  0.661000
-0.064309  -0.186621  0.662000
-0.063048  -0.186621  0.662000
-0.061787  -0.186621  0.662000
-0.060617  -0.186903  0.663000
-0.059354  -0.186903  0.663000
-0.058004  -0.186621  0.662000
-0.056743  -0.186621  0.662000
-0.055566  -0.186903  0.663000
-0.054303  -0.186903  0.663000
-0.053040  -0.186903  0.663000
-0.051933  -0.187467  0.665000
-0.050743  -0.187749  0.666000
-0.049474  -0.187749  0.666000
-0.048278  -0.188030  0.667000
-0.047008  -0.188030  0.667000
-0.045874  -0.188594  0.669000
-0.044800  -0.189440  0.672000
-0.043520  -0.189440  0.672000
-0.042240  -0.189440  0.672000
-0.023705  -0.184648  0.655000
-0.021533  -0.187467  0.665000
-0.020267  -0.187467  0.665000
-0.019000  -0.187467  0.665000
-0.017733  -0.187467  0.665000
-0.016417  -0.186903  0.663000
-0.015154  -0.186903  0.663000
-0.013933  -0.187467  0.665000
-0.012686  -0.187749  0.666000
-0.011520  -0.189440  0.672000
-0.010240  -0.189440  0.672000
-0.008987  -0.190004  0.674000
-0.007703  -0.190004  0.674000
-0.006419  -0.190004  0.674000
-0.005143  -0.190286  0.675000
-0.003874  -0.191131  0.678000
-0.002533  -0.187467  0.665000
-0.001267  -0.187467  0.665000
0.000000  -0.187467  0.665000
0.001267  -0.187467  0.665000
0.002537  -0.187749  0.666000
0.003806  -0.187749  0.666000
0.005097  -0.188594  0.669000
0.006371  -0.188594  0.669000
0.007646  -0.188594  0.669000
0.008920  -0.188594  0.669000
0.010210  -0.188876  0.670000
0.011486  -0.188876  0.670000
0.012762  -0.188876  0.670000
0.014038  -0.188876  0.670000
0.015314  -0.188876  0.670000
0.016590  -0.188876  0.670000
0.017840  -0.188594  0.669000
0.019114  -0.188594  0.669000
0.020389  -0.188594  0.669000
0.021663  -0.188594  0.669000
0.022937  -0.188594  0.669000
0.024211  -0.188594  0.669000
0.025486  -0.188594  0.669000
0.026760  -0.188594  0.669000
0.028034  -0.188594  0.669000
0.029352  -0.188876  0.670000
0.030629  -0.188876  0.670000
0.032000  -0.189440  0.672000
0.033181  -0.188876  0.670000
0.034457  -0.188876  0.670000
0.035680  -0.188594  0.669000
0.036954  -0.188594  0.669000
0.038057  -0.187749  0.666000
0.039326  -0.187749  0.666000
0.040594  -0.187749  0.666000
0.041863  -0.187749  0.666000
0.043131  -0.187749  0.666000
0.044400  -0.187749  0.666000
0.045737  -0.188030  0.667000
0.047149  -0.188594  0.669000
0.048423  -0.188594  0.669000
0.049697  -0.188594  0.669000
0.050971  -0.188594  0.669000
0.052324  -0.188876  0.670000
0.053600  -0.188876  0.670000
0.054876  -0.188876  0.670000
0.056152  -0.188876  0.670000
0.057429  -0.188876  0.670000
0.058792  -0.189158  0.671000
0.060070  -0.189158  0.671000
0.061623  -0.190004  0.674000
0.062907  -0.190004  0.674000
0.064190  -0.190004  0.674000
0.065474  -0.190004  0.674000
0.066758  -0.190004  0.674000
0.067840  -0.189440  0.672000
0.069017  -0.189158  0.671000
0.070295  -0.189158  0.671000
0.071467  -0.188876  0.670000
0.072743  -0.188876  0.670000
0.073909  -0.188594  0.669000
0.075183  -0.188594  0.669000
0.076571  -0.188876  0.670000
0.077848  -0.188876  0.670000
0.079124  -0.188876  0.670000
0.080280  -0.188594  0.669000
0.081554  -0.188594  0.669000
0.082952  -0.188876  0.670000
0.084229  -0.188876  0.670000
0.085505  -0.188876  0.670000
0.086910  -0.189158  0.671000
0.088583  -0.190004  0.674000
0.090400  -0.191131  0.678000
0.091691  -0.191131  0.678000
0.092983  -0.191131  0.678000
0.093718  -0.190004  0.674000
0.094720  -0.189440  0.672000
0.095714  -0.188876  0.670000
0.096846  -0.188594  0.669000
0.098120  -0.188594  0.669000
0.099394  -0.188594  0.669000
0.100669  -0.188594  0.669000
0.102095  -0.188876  0.670000
0.103371  -0.188876  0.670000
0.104648  -0.188876  0.670000
0.110095  -0.191695  0.680000
0.111390  -0.191695  0.680000
0.113017  -0.192259  0.682000
0.114316  -0.192259  0.682000
0.114259  -0.190004  0.674000
0.115543  -0.190004  0.674000
0.116827  -0.190004  0.674000
0.117760  -0.189440  0.672000
0.118863  -0.189158  0.671000
0.120141  -0.189158  0.671000
0.121238  -0.188876  0.670000
0.122514  -0.188876  0.670000
0.123790  -0.188876  0.670000
0.125067  -0.188876  0.670000
0.126343  -0.188876  0.670000
0.127619  -0.188876  0.670000
0.130434  -0.191131  0.678000
0.131143  -0.190286  0.675000
0.132429  -0.190286  0.675000
0.133714  -0.190286  0.675000
0.134800  -0.190004  0.674000
0.135276  -0.188876  0.670000
0.136552  -0.188876  0.670000
0.138651  -0.190004  0.674000
0.141181  -0.191695  0.680000
0.143105  -0.192541  0.683000
0.141023  -0.188030  0.667000
0.142293  -0.188030  0.667000
0.143994  -0.188594  0.669000
0.145269  -0.188594  0.669000
0.146762  -0.188876  0.670000
0.148038  -0.188876  0.670000
0.149314  -0.188876  0.670000
0.150815  -0.189158  0.671000
0.152093  -0.189158  0.671000
0.154057  -0.190004  0.674000
0.155341  -0.190004  0.674000
0.156625  -0.190004  0.674000
0.157909  -0.190004  0.674000
0.159192  -0.190004  0.674000
0.161429  -0.191131  0.678000
0.162240  -0.190568  0.676000
0.163528  -0.190568  0.676000
0.164815  -0.190568  0.676000
0.166103  -0.190568  0.676000
0.167143  -0.190286  0.675000
0.168429  -0.190286  0.675000
0.169714  -0.190286  0.675000
0.171253  -0.190568  0.676000
0.172286  -0.190286  0.675000
0.173314  -0.190004  0.674000
0.174598  -0.190004  0.674000
0.176143  -0.190286  0.675000
0.177429  -0.190286  0.675000
0.178714  -0.190286  0.675000
0.180267  -0.190568  0.676000
0.181554  -0.190568  0.676000
0.183383  -0.191131  0.678000
0.184947  -0.191413  0.679000
0.186514  -0.191695  0.680000
0.187533  -0.191413  0.679000
0.188827  -0.191413  0.679000
0.189280  -0.190568  0.676000
0.190568  -0.190568  0.676000
0.190152  -0.188876  0.670000
0.191429  -0.188876  0.670000
0.194143  -0.190286  0.675000
0.195429  -0.190286  0.675000
0.197006  -0.190568  0.676000
0.199173  -0.191413  0.679000
0.200467  -0.191413  0.679000
0.202057  -0.191695  0.680000
0.203352  -0.191695  0.680000
0.204648  -0.191695  0.680000
0.206549  -0.192259  0.682000
0.207848  -0.192259  0.682000
0.209147  -0.192259  0.682000
0.210446  -0.192259  0.682000
0.211745  -0.192259  0.682000
0.213044  -0.192259  0.682000
0.213714  -0.191695  0.680000
0.215010  -0.191695  0.680000
0.216305  -0.191695  0.680000
0.216320  -0.190568  0.676000
0.217608  -0.190568  0.676000
0.218895  -0.190568  0.676000
0.220183  -0.190568  0.676000
0.221470  -0.190568  0.676000
0.225065  -0.192541  0.683000
0.226366  -0.192541  0.683000
0.228000  -0.192823  0.684000
0.229303  -0.192823  0.684000
0.230606  -0.192823  0.684000
0.231909  -0.192823  0.684000
0.233211  -0.192823  0.684000
-0.384543  -0.183057  0.645000
-0.383314  -0.183057  0.645000
-0.382086  -0.183057  0.645000
-0.380267  -0.182773  0.644000
-0.379040  -0.182773  0.644000
-0.376640  -0.182206  0.642000
-0.374832  -0.181922  0.641000
-0.373611  -0.181922  0.641000
-0.372390  -0.181922  0.641000
-0.371170  -0.181922  0.641000
-0.369949  -0.181922  0.641000
-0.370453  -0.182773  0.644000
-0.369800  -0.183057  0.645000
-0.369143  -0.183341  0.646000
-0.367912  -0.183341  0.646000
-0.367250  -0.183625  0.647000
-0.366017  -0.183625  0.647000
-0.364785  -0.183625  0.647000
-0.362429  -0.183057  0.645000
-0.360640  -0.182773  0.644000
-0.359413  -0.182773  0.644000
-0.358187  -0.182773  0.644000
-0.357514  -0.183057  0.645000
-0.355733  -0.182773  0.644000
-0.354507  -0.182773  0.644000
-0.353280  -0.182773  0.644000
-0.352053  -0.182773  0.644000
-0.351371  -0.183057  0.645000
-0.350143  -0.183057  0.645000
-0.348373  -0.182773  0.644000
-0.347147  -0.182773  0.644000
-0.345920  -0.182773  0.644000
-0.344693  -0.182773  0.644000
-0.345067  -0.183625  0.647000
-0.342771  -0.183057  0.645000
-0.341543  -0.183057  0.645000
-0.340314  -0.183057  0.645000
-0.339086  -0.183057  0.645000
-0.337333  -0.182773  0.644000
-0.336107  -0.182773  0.644000
-0.335920  -0.183341  0.646000
-0.334690  -0.183341  0.646000
-0.333975  -0.183625  0.647000
-0.332743  -0.183625  0.647000
-0.331510  -0.183625  0.647000
-0.330278  -0.183625  0.647000
-0.329554  -0.183909  0.648000
-0.327813  -0.183625  0.647000
-0.326581  -0.183625  0.647000
-0.326857  -0.184476  0.650000
-0.325619  -0.184476  0.650000
-0.326876  -0.185895  0.655000
-0.325629  -0.185895  0.655000
-0.324381  -0.185895  0.655000
-0.321653  -0.185044  0.652000
-0.319920  -0.184760  0.651000
-0.318190  -0.184476  0.650000
-0.316952  -0.184476  0.650000
-0.316200  -0.184760  0.651000
-0.314960  -0.184760  0.651000
-0.314202  -0.185044  0.652000
-0.312960  -0.185044  0.652000
-0.310762  -0.184476  0.650000
-0.309524  -0.184476  0.650000
-0.309709  -0.185328  0.653000
-0.309882  -0.186179  0.656000
-0.307221  -0.185328  0.653000
-0.305977  -0.185328  0.653000
-0.304733  -0.185328  0.653000
-0.304884  -0.186179  0.656000
-0.303634  -0.186179  0.656000
-0.302385  -0.186179  0.656000
-0.300676  -0.185895  0.655000
-0.299429  -0.185895  0.655000
-0.297270  -0.185328  0.653000
-0.291947  -0.182773  0.644000
-0.290720  -0.182773  0.644000
-0.289943  -0.183057  0.645000
-0.288714  -0.183057  0.645000
-0.287486  -0.183057  0.645000
-0.287145  -0.183625  0.647000
-0.285470  -0.183341  0.646000
-0.284240  -0.183341  0.646000
-0.283448  -0.183625  0.647000
-0.282215  -0.183625  0.647000
-0.281417  -0.183909  0.648000
-0.281912  -0.185044  0.652000
-0.280670  -0.185044  0.652000
-0.278571  -0.184476  0.650000
-0.277333  -0.184476  0.650000
-0.276520  -0.184760  0.651000
-0.275280  -0.184760  0.651000
-0.273619  -0.184476  0.650000
-0.271543  -0.183909  0.648000
-0.269891  -0.183625  0.647000
-0.268659  -0.183625  0.647000
-0.267427  -0.183625  0.647000
-0.266194  -0.183625  0.647000
-0.264962  -0.183625  0.647000
-0.263322  -0.183341  0.646000
-0.262091  -0.183341  0.646000
-0.260457  -0.183057  0.645000
-0.258023  -0.182206  0.642000
-0.256800  -0.182206  0.642000
-0.255179  -0.181922  0.641000
-0.253958  -0.181922  0.641000
-0.252737  -0.181922  0.641000
-0.251516  -0.181922  0.641000
-0.249514  -0.181354  0.639000
-0.248297  -0.181354  0.639000
-0.247080  -0.181354  0.639000
-0.245478  -0.181070  0.638000
-0.244263  -0.181070  0.638000
-0.243048  -0.181070  0.638000
-0.241832  -0.181070  0.638000
-0.240994  -0.181354  0.639000
-0.239402  -0.181070  0.638000
-0.238187  -0.181070  0.638000
-0.236971  -0.181070  0.638000
-0.235756  -0.181070  0.638000
-0.234541  -0.181070  0.638000
-0.233326  -0.181070  0.638000
-0.232110  -0.181070  0.638000
-0.230171  -0.180503  0.636000
-0.228960  -0.180503  0.636000
-0.227749  -0.180503  0.636000
-0.226537  -0.180503  0.636000
-0.225326  -0.180503  0.636000
-0.224819  -0.181070  0.638000
-0.223604  -0.181070  0.638000
-0.222737  -0.181354  0.639000
-0.221520  -0.181354  0.639000
-0.220992  -0.181922  0.641000
-0.219771  -0.181922  0.641000
-0.218891  -0.182206  0.642000
-0.217669  -0.182206  0.642000
-0.216446  -0.182206  0.642000
-0.215223  -0.182206  0.642000
-0.214000  -0.182206  0.642000
-0.212777  -0.182206  0.642000
-0.211554  -0.182206  0.642000
-0.210331  -0.182206  0.642000
-0.209760  -0.182773  0.644000
-0.208533  -0.182773  0.644000
-0.207629  -0.183057  0.645000
-0.207040  -0.183625  0.647000
-0.205808  -0.183625  0.647000
-0.204891  -0.183909  0.648000
-0.204286  -0.184476  0.650000
-0.203048  -0.184476  0.650000
-0.202120  -0.184760  0.651000
-0.200880  -0.184760  0.651000
-0.199947  -0.185044  0.652000
-0.198705  -0.185044  0.652000
-0.197463  -0.185044  0.652000
-0.196221  -0.185044  0.652000
-0.194979  -0.185044  0.652000
-0.193440  -0.184760  0.651000
-0.192200  -0.184760  0.651000
-0.190667  -0.184476  0.650000
-0.188846  -0.183909  0.648000
-0.187611  -0.183909  0.648000
-0.186952  -0.184476  0.650000
-0.185143  -0.183909  0.648000
-0.183909  -0.183909  0.648000
-0.183520  -0.184760  0.651000
-0.182280  -0.184760  0.651000
-0.181040  -0.184760  0.651000
-0.180076  -0.185044  0.652000
-0.179657  -0.185895  0.655000
-0.178410  -0.185895  0.655000
-0.177162  -0.185895  0.655000
-0.176451  -0.186463  0.657000
-0.175467  -0.186747  0.658000
-0.174213  -0.186747  0.658000
-0.172960  -0.186747  0.658000
-0.171446  -0.186463  0.657000
-0.170194  -0.186463  0.657000
-0.168943  -0.186463  0.657000
-0.166415  -0.185044  0.652000
-0.165173  -0.185044  0.652000
-0.163931  -0.185044  0.652000
-0.162190  -0.184476  0.650000
-0.160952  -0.184476  0.650000
-0.159714  -0.184476  0.650000
-0.158476  -0.184476  0.650000
-0.156754  -0.183909  0.648000
-0.157680  -0.186463  0.657000
-0.156429  -0.186463  0.657000
-0.155177  -0.186463  0.657000
-0.153926  -0.186463  0.657000
-0.152442  -0.186179  0.656000
-0.151192  -0.186179  0.656000
-0.149714  -0.185895  0.655000
-0.148467  -0.185895  0.655000
-0.147219  -0.185895  0.655000
-0.146194  -0.186179  0.656000
-0.145166  -0.186463  0.657000
-0.143914  -0.186463  0.657000
-0.142880  -0.186747  0.658000
-0.141627  -0.186747  0.658000
-0.140373  -0.186747  0.658000
-0.141023  -0.189301  0.667000
-0.139752  -0.189301  0.667000
-0.138482  -0.189301  0.667000
-0.137211  -0.189301  0.667000
-0.133088  -0.185328  0.653000
-0.131844  -0.185328  0.653000
-0.130600  -0.185328  0.653000
-0.129752  -0.185895  0.655000
-0.128505  -0.185895  0.655000
-0.127257  -0.185895  0.655000
-0.126010  -0.185895  0.655000
-0.127048  -0.189301  0.667000
-0.125777  -0.189301  0.667000
-0.124507  -0.189301  0.667000
-0.121573  -0.186747  0.658000
-0.120320  -0.186747  0.658000
-0.118886  -0.186463  0.657000
-0.117634  -0.186463  0.657000
-0.116383  -0.186463  0.657000
-0.108933  -0.188733  0.665000
-0.107667  -0.188733  0.665000
-0.105760  -0.187598  0.661000
-0.104501  -0.187598  0.661000
-0.103242  -0.187598  0.661000
-0.102137  -0.187882  0.662000
-0.100876  -0.187882  0.662000
-0.099766  -0.188166  0.663000
-0.098800  -0.188733  0.665000
-0.097827  -0.189301  0.667000
-0.096556  -0.189301  0.667000
-0.095571  -0.189869  0.669000
-0.094297  -0.189869  0.669000
-0.093023  -0.189869  0.669000
-0.089554  -0.185328  0.653000
-0.088310  -0.185328  0.653000
-0.087067  -0.185328  0.653000
-0.085823  -0.185328  0.653000
-0.084579  -0.185328  0.653000
-0.084611  -0.188166  0.663000
-0.083349  -0.188166  0.663000
-0.081962  -0.187882  0.662000
-0.080701  -0.187882  0.662000
-0.079440  -0.187882  0.662000
-0.077943  -0.187314  0.660000
-0.076453  -0.186747  0.658000
-0.075086  -0.186463  0.657000
-0.073834  -0.186463  0.657000
-0.072693  -0.186747  0.658000
-0.071440  -0.186747  0.658000
-0.070187  -0.186747  0.658000
-0.068933  -0.186747  0.658000
-0.067886  -0.187314  0.660000
-0.066629  -0.187314  0.660000
-0.065470  -0.187598  0.661000
-0.064211  -0.187598  0.661000
-0.062952  -0.187598  0.661000
-0.061693  -0.187598  0.661000
-0.060434  -0.187598  0.661000
-0.059175  -0.187598  0.661000
-0.057916  -0.187598  0.661000
-0.056657  -0.187598  0.661000
-0.055482  -0.187882  0.662000
-0.054221  -0.187882  0.662000
-0.053040  -0.188166  0.663000
-0.051777  -0.188166  0.663000
-0.050667  -0.188733  0.665000
-0.049400  -0.188733  0.665000
-0.048206  -0.189017  0.666000
-0.047008  -0.189301  0.667000
-0.045737  -0.189301  0.667000
-0.027448  -0.185895  0.655000
-0.026200  -0.185895  0.655000
-0.024952  -0.185895  0.655000
-0.023705  -0.185895  0.655000
-0.022457  -0.185895  0.655000
-0.020206  -0.188166  0.663000
-0.018943  -0.188166  0.663000
-0.017653  -0.187882  0.662000
-0.016392  -0.187882  0.662000
-0.015131  -0.187882  0.662000
-0.013870  -0.187882  0.662000
-0.012610  -0.187882  0.662000
-0.011280  -0.186747  0.658000
-0.010027  -0.186747  0.658000
-0.008800  -0.187314  0.660000
-0.007543  -0.187314  0.660000
-0.006286  -0.187314  0.660000
-0.005029  -0.187314  0.660000
-0.003771  -0.187314  0.660000
-0.002526  -0.188166  0.663000
-0.001263  -0.188166  0.663000
0.000000  -0.188166  0.663000
0.001267  -0.188733  0.665000
0.002533  -0.188733  0.665000
0.003800  -0.188733  0.665000
0.005074  -0.189017  0.666000
0.006343  -0.189017  0.666000
0.007623  -0.189301  0.667000
0.008893  -0.189301  0.667000
0.010164  -0.189301  0.667000
0.011434  -0.189301  0.667000
0.012705  -0.189301  0.667000
0.014017  -0.189869  0.669000
0.015291  -0.189869  0.669000
0.016566  -0.189869  0.669000
0.017760  -0.189017  0.666000
0.019029  -0.189017  0.666000
0.020328  -0.189301  0.667000
0.021598  -0.189301  0.667000
0.022869  -0.189301  0.667000
0.024103  -0.189017  0.666000
0.025371  -0.189017  0.666000
0.026640  -0.189017  0.666000
0.027909  -0.189017  0.666000
0.029309  -0.189869  0.669000
0.030583  -0.189869  0.669000
0.031857  -0.189869  0.669000
0.033032  -0.189301  0.667000
0.034303  -0.189301  0.667000
0.035573  -0.189301  0.667000
0.036844  -0.189301  0.667000
0.038057  -0.189017  0.666000
0.039326  -0.189017  0.666000
0.040594  -0.189017  0.666000
0.041863  -0.189017  0.666000
0.043131  -0.189017  0.666000
0.044400  -0.189017  0.666000
0.045737  -0.189301  0.667000
0.047149  -0.189869  0.669000
0.048423  -0.189869  0.669000
0.049549  -0.189301  0.667000
0.050819  -0.189301  0.667000
0.052090  -0.189301  0.667000
0.053520  -0.189869  0.669000
0.054630  -0.189301  0.667000
0.055901  -0.189301  0.667000
0.057171  -0.189301  0.667000
0.058442  -0.189301  0.667000
0.059712  -0.189301  0.667000
0.061349  -0.190436  0.671000
0.062720  -0.190720  0.672000
0.064190  -0.191288  0.674000
0.065474  -0.191288  0.674000
0.066758  -0.191288  0.674000
0.067739  -0.190436  0.671000
0.068914  -0.190152  0.670000
0.070190  -0.190152  0.670000
0.071467  -0.190152  0.670000
0.072634  -0.189869  0.669000
0.073909  -0.189869  0.669000
0.075183  -0.189869  0.669000
0.076457  -0.189869  0.669000
0.077731  -0.189869  0.669000
0.079006  -0.189869  0.669000
0.080280  -0.189869  0.669000
0.081554  -0.189869  0.669000
0.082829  -0.189869  0.669000
0.084103  -0.189869  0.669000
0.085377  -0.189869  0.669000
0.086263  -0.189017  0.666000
0.087531  -0.189017  0.666000
0.090400  -0.192423  0.678000
0.091691  -0.192423  0.678000
0.091337  -0.189017  0.666000
0.092606  -0.189017  0.666000
0.094015  -0.189301  0.667000
0.095286  -0.189301  0.667000
0.096556  -0.189301  0.667000
0.097827  -0.189301  0.667000
0.099097  -0.189301  0.667000
0.100669  -0.189869  0.669000
0.102095  -0.190152  0.670000
0.103371  -0.190152  0.670000
0.104648  -0.190152  0.670000
0.105924  -0.190152  0.670000
0.107200  -0.190152  0.670000
0.108476  -0.190152  0.670000
0.112975  -0.191288  0.674000
0.114259  -0.191288  0.674000
0.115200  -0.190720  0.672000
0.116480  -0.190720  0.672000
0.117585  -0.190436  0.671000
0.118863  -0.190436  0.671000
0.120141  -0.190436  0.671000
0.121238  -0.190152  0.670000
0.122331  -0.189869  0.669000
0.123606  -0.189869  0.669000
0.124880  -0.189869  0.669000
0.126343  -0.190152  0.670000
0.127619  -0.190152  0.670000
0.128895  -0.190152  0.670000
0.130171  -0.190152  0.670000
0.131840  -0.190720  0.672000
0.133120  -0.190720  0.672000
0.134400  -0.190720  0.672000
0.135276  -0.190152  0.670000
0.136552  -0.190152  0.670000
0.137006  -0.189017  0.666000
0.138274  -0.189017  0.666000
0.139543  -0.189017  0.666000
0.140811  -0.189017  0.666000
0.142293  -0.189301  0.667000
0.143564  -0.189301  0.667000
0.144834  -0.189301  0.667000
0.146543  -0.189869  0.669000
0.147817  -0.189869  0.669000
0.149314  -0.190152  0.670000
0.150590  -0.190152  0.670000
0.151867  -0.190152  0.670000
0.153371  -0.190436  0.671000
0.154650  -0.190436  0.671000
0.155928  -0.190436  0.671000
0.156971  -0.190152  0.670000
0.158248  -0.190152  0.670000
0.159524  -0.190152  0.670000
0.161040  -0.190436  0.671000
0.163044  -0.191288  0.674000
0.164328  -0.191288  0.674000
0.165611  -0.191288  0.674000
0.166400  -0.190720  0.672000
0.167680  -0.190720  0.672000
0.169463  -0.191288  0.674000
0.171000  -0.191571  0.675000
0.171520  -0.190720  0.672000
0.172800  -0.190720  0.672000
0.174080  -0.190720  0.672000
0.175360  -0.190720  0.672000
0.177166  -0.191288  0.674000
0.178714  -0.191571  0.675000
0.180000  -0.191571  0.675000
0.181286  -0.191571  0.675000
0.182842  -0.191855  0.676000
0.184130  -0.191855  0.676000
0.186514  -0.192990  0.680000
0.187533  -0.192707  0.679000
0.188827  -0.192707  0.679000
0.186480  -0.189017  0.666000
0.187749  -0.189017  0.666000
0.189017  -0.189017  0.666000
0.190286  -0.189017  0.666000
0.191842  -0.189301  0.667000
0.193112  -0.189301  0.667000
0.194966  -0.189869  0.669000
0.198293  -0.191855  0.676000
0.200171  -0.192423  0.678000
0.201760  -0.192707  0.679000
0.203053  -0.192707  0.679000
0.204347  -0.192707  0.679000
0.205943  -0.192990  0.680000
0.207238  -0.192990  0.680000
0.208533  -0.192990  0.680000
0.209829  -0.192990  0.680000
0.211745  -0.193558  0.682000
0.212419  -0.192990  0.680000
0.213714  -0.192990  0.680000
0.215010  -0.192990  0.680000
0.215032  -0.191855  0.676000
0.215680  -0.191288  0.674000
0.216964  -0.191288  0.674000
0.218248  -0.191288  0.674000
0.219531  -0.191288  0.674000
0.221143  -0.191571  0.675000
0.222429  -0.191571  0.675000
0.226366  -0.193842  0.683000
0.227667  -0.193842  0.683000
0.228968  -0.193842  0.683000
0.230606  -0.194126  0.684000
0.231909  -0.194126  0.684000
0.228438  -0.190152  0.670000
0.229714  -0.190152  0.670000
-0.383947  -0.184000  0.644000
-0.382720  -0.184000  0.644000
-0.381493  -0.184000  0.644000
-0.379086  -0.183429  0.642000
-0.377863  -0.183429  0.642000
-0.376053  -0.183143  0.641000
-0.374248  -0.182857  0.640000
-0.373029  -0.182857  0.640000
-0.371810  -0.182857  0.640000
-0.370590  -0.182857  0.640000
-0.369371  -0.182857  0.640000
-0.368152  -0.182857  0.640000
-0.366360  -0.182571  0.639000
-0.365143  -0.182571  0.639000
-0.364495  -0.182857  0.640000
-0.365547  -0.184000  0.644000
-0.364320  -0.184000  0.644000
-0.363093  -0.184000  0.644000
-0.360743  -0.183429  0.642000
-0.359520  -0.183429  0.642000
-0.358297  -0.183429  0.642000
-0.358187  -0.184000  0.644000
-0.355851  -0.183429  0.642000
-0.354629  -0.183429  0.642000
-0.353406  -0.183429  0.642000
-0.352183  -0.183429  0.642000
-0.352053  -0.184000  0.644000
-0.350827  -0.184000  0.644000
-0.349600  -0.184000  0.644000
-0.348373  -0.184000  0.644000
-0.347147  -0.184000  0.644000
-0.344846  -0.183429  0.642000
-0.343088  -0.183143  0.641000
-0.341867  -0.183143  0.641000
-0.340646  -0.183143  0.641000
-0.339425  -0.183143  0.641000
-0.339787  -0.184000  0.644000
-0.338560  -0.184000  0.644000
-0.337857  -0.184286  0.645000
-0.336629  -0.184286  0.645000
-0.335400  -0.184286  0.645000
-0.334171  -0.184286  0.645000
-0.333459  -0.184571  0.646000
-0.332743  -0.184857  0.647000
-0.331510  -0.184857  0.647000
-0.330278  -0.184857  0.647000
-0.329046  -0.184857  0.647000
-0.327307  -0.184571  0.646000
-0.325571  -0.184286  0.645000
-0.324343  -0.184286  0.645000
-0.322613  -0.184000  0.644000
-0.321387  -0.184000  0.644000
-0.319166  -0.183429  0.642000
-0.317943  -0.183429  0.642000
-0.317707  -0.184000  0.644000
-0.318446  -0.185143  0.648000
-0.317211  -0.185143  0.648000
-0.315977  -0.185143  0.648000
-0.314743  -0.185143  0.648000
-0.313509  -0.185143  0.648000
-0.313238  -0.185714  0.650000
-0.311040  -0.185143  0.648000
-0.309328  -0.184857  0.647000
-0.308095  -0.184857  0.647000
-0.305440  -0.184000  0.644000
-0.304213  -0.184000  0.644000
-0.304398  -0.184857  0.647000
-0.303634  -0.185143  0.648000
-0.303333  -0.185714  0.650000
-0.302095  -0.185714  0.650000
-0.301783  -0.186286  0.652000
-0.300541  -0.186286  0.652000
-0.296545  -0.184571  0.646000
-0.294400  -0.184000  0.644000
-0.293173  -0.184000  0.644000
-0.291947  -0.184000  0.644000
-0.290720  -0.184000  0.644000
-0.289943  -0.184286  0.645000
-0.288714  -0.184286  0.645000
-0.287486  -0.184286  0.645000
-0.286701  -0.184571  0.646000
-0.285470  -0.184571  0.646000
-0.284240  -0.184571  0.646000
-0.283448  -0.184857  0.647000
-0.282215  -0.184857  0.647000
-0.281417  -0.185143  0.648000
-0.280183  -0.185143  0.648000
-0.278949  -0.185143  0.648000
-0.277714  -0.185143  0.648000
-0.276480  -0.185143  0.648000
-0.276095  -0.185714  0.650000
-0.275280  -0.186000  0.651000
-0.273619  -0.185714  0.650000
-0.271543  -0.185143  0.648000
-0.269891  -0.184857  0.647000
-0.268659  -0.184857  0.647000
-0.267427  -0.184857  0.647000
-0.266194  -0.184857  0.647000
-0.264962  -0.184857  0.647000
-0.263322  -0.184571  0.646000
-0.261686  -0.184286  0.645000
-0.260457  -0.184286  0.645000
-0.258023  -0.183429  0.642000
-0.256400  -0.183143  0.641000
-0.254781  -0.182857  0.640000
-0.253562  -0.182857  0.640000
-0.252737  -0.183143  0.641000
-0.251516  -0.183143  0.641000
-0.249514  -0.182571  0.639000
-0.248297  -0.182571  0.639000
-0.247080  -0.182571  0.639000
-0.245478  -0.182286  0.638000
-0.244263  -0.182286  0.638000
-0.243048  -0.182286  0.638000
-0.241832  -0.182286  0.638000
-0.240994  -0.182571  0.639000
-0.239777  -0.182571  0.639000
-0.238187  -0.182286  0.638000
-0.236971  -0.182286  0.638000
-0.235756  -0.182286  0.638000
-0.234541  -0.182286  0.638000
-0.233326  -0.182286  0.638000
-0.232110  -0.182286  0.638000
-0.230171  -0.181714  0.636000
-0.228960  -0.181714  0.636000
-0.227749  -0.181714  0.636000
-0.226537  -0.181714  0.636000
-0.225326  -0.181714  0.636000
-0.224114  -0.181714  0.636000
-0.223604  -0.182286  0.638000
-0.222389  -0.182286  0.638000
-0.222213  -0.183143  0.641000
-0.220992  -0.183143  0.641000
-0.219771  -0.183143  0.641000
-0.218891  -0.183429  0.642000
-0.217669  -0.183429  0.642000
-0.216446  -0.183429  0.642000
-0.215893  -0.184000  0.644000
-0.214000  -0.183429  0.642000
-0.212777  -0.183429  0.642000
-0.211554  -0.183429  0.642000
-0.210331  -0.183429  0.642000
-0.209760  -0.184000  0.644000
-0.208533  -0.184000  0.644000
-0.207950  -0.184571  0.646000
-0.206720  -0.184571  0.646000
-0.205808  -0.184857  0.647000
-0.204575  -0.184857  0.647000
-0.203657  -0.185143  0.648000
-0.203048  -0.185714  0.650000
-0.202120  -0.186000  0.651000
-0.200880  -0.186000  0.651000
-0.199947  -0.186286  0.652000
-0.198400  -0.186000  0.651000
-0.197160  -0.186000  0.651000
-0.195920  -0.186000  0.651000
-0.194680  -0.186000  0.651000
-0.193143  -0.185714  0.650000
-0.191905  -0.185714  0.650000
-0.190080  -0.185143  0.648000
-0.188846  -0.185143  0.648000
-0.187611  -0.185143  0.648000
-0.186377  -0.185143  0.648000
-0.185143  -0.185143  0.648000
-0.183909  -0.185143  0.648000
-0.182674  -0.185143  0.648000
-0.182000  -0.185714  0.650000
-0.180762  -0.185714  0.650000
-0.179800  -0.186000  0.651000
-0.179657  -0.187143  0.655000
-0.177865  -0.186571  0.653000
-0.176621  -0.186571  0.653000
-0.176183  -0.187429  0.656000
-0.175200  -0.187714  0.657000
-0.174213  -0.188000  0.658000
-0.172697  -0.187714  0.657000
-0.170402  -0.186571  0.653000
-0.169158  -0.186571  0.653000
-0.167914  -0.186571  0.653000
-0.166415  -0.186286  0.652000
-0.164920  -0.186000  0.651000
-0.163680  -0.186000  0.651000
-0.162190  -0.185714  0.650000
-0.160952  -0.185714  0.650000
-0.159223  -0.185143  0.648000
-0.157989  -0.185143  0.648000
-0.156754  -0.185143  0.648000
-0.157440  -0.187429  0.656000
-0.156190  -0.187429  0.656000
-0.154941  -0.187429  0.656000
-0.153691  -0.187429  0.656000
-0.152442  -0.187429  0.656000
-0.151192  -0.187429  0.656000
-0.149714  -0.187143  0.655000
-0.148467  -0.187143  0.655000
-0.147219  -0.187143  0.655000
-0.146194  -0.187429  0.656000
-0.144945  -0.187429  0.656000
-0.143695  -0.187429  0.656000
-0.142663  -0.187714  0.657000
-0.141411  -0.187714  0.657000
-0.140160  -0.187714  0.657000
-0.138697  -0.187429  0.656000
-0.137448  -0.187429  0.656000
-0.136198  -0.187429  0.656000
-0.134743  -0.187143  0.655000
-0.133088  -0.186571  0.653000
-0.131844  -0.186571  0.653000
-0.131000  -0.187143  0.655000
-0.129752  -0.187143  0.655000
-0.128505  -0.187143  0.655000
-0.127257  -0.187143  0.655000
-0.126010  -0.187143  0.655000
-0.124762  -0.187143  0.655000
-0.123891  -0.187714  0.657000
-0.122453  -0.187429  0.656000
-0.121204  -0.187429  0.656000
-0.119954  -0.187429  0.656000
-0.118705  -0.187429  0.656000
-0.117455  -0.187429  0.656000
-0.116029  -0.187143  0.655000
-0.114781  -0.187143  0.655000
-0.113533  -0.187143  0.655000
-0.112286  -0.187143  0.655000
-0.106640  -0.186000  0.651000
-0.106371  -0.187714  0.657000
-0.105120  -0.187714  0.657000
-0.103869  -0.187714  0.657000
-0.102773  -0.188000  0.658000
-0.101520  -0.188000  0.658000
-0.100267  -0.188000  0.658000
-0.099465  -0.188857  0.661000
-0.098800  -0.190000  0.665000
-0.097533  -0.190000  0.665000
-0.093661  -0.184857  0.647000
-0.092429  -0.184857  0.647000
-0.092042  -0.186571  0.653000
-0.090798  -0.186571  0.653000
-0.089554  -0.186571  0.653000
-0.088310  -0.186571  0.653000
-0.087067  -0.186571  0.653000
-0.085823  -0.186571  0.653000
-0.084579  -0.186571  0.653000
-0.083335  -0.186571  0.653000
-0.082091  -0.186571  0.653000
-0.080848  -0.186571  0.653000
-0.079604  -0.186571  0.653000
-0.079200  -0.188571  0.660000
-0.077943  -0.188571  0.660000
-0.076105  -0.187143  0.655000
-0.074629  -0.186571  0.653000
-0.073385  -0.186571  0.653000
-0.072362  -0.187143  0.655000
-0.071223  -0.187429  0.656000
-0.070080  -0.187714  0.657000
-0.068829  -0.187714  0.657000
-0.067577  -0.187714  0.657000
-0.066326  -0.187714  0.657000
-0.065173  -0.188000  0.658000
-0.063920  -0.188000  0.658000
-0.062667  -0.188000  0.658000
-0.061600  -0.188571  0.660000
-0.060160  -0.188000  0.658000
-0.058907  -0.188000  0.658000
-0.057829  -0.188571  0.660000
-0.056571  -0.188571  0.660000
-0.055398  -0.188857  0.661000
-0.054221  -0.189143  0.662000
-0.052960  -0.189143  0.662000
-0.051777  -0.189429  0.663000
-0.050667  -0.190000  0.665000
-0.049400  -0.190000  0.665000
-0.048206  -0.190286  0.666000
-0.047008  -0.190571  0.667000
-0.045737  -0.190571  0.667000
-0.044467  -0.190571  0.667000
-0.029943  -0.187143  0.655000
-0.028695  -0.187143  0.655000
-0.027448  -0.187143  0.655000
-0.026120  -0.186571  0.653000
-0.024876  -0.186571  0.653000
-0.023632  -0.186571  0.653000
-0.022389  -0.186571  0.653000
-0.021112  -0.186286  0.652000
-0.020023  -0.187714  0.657000
-0.018771  -0.187714  0.657000
-0.017520  -0.187714  0.657000
-0.016343  -0.188571  0.660000
-0.015109  -0.188857  0.661000
-0.013766  -0.187714  0.657000
-0.012495  -0.187429  0.656000
-0.011246  -0.187429  0.656000
-0.009996  -0.187429  0.656000
-0.008773  -0.188000  0.658000
-0.007520  -0.188000  0.658000
-0.006257  -0.187714  0.657000
-0.005006  -0.187714  0.657000
-0.003760  -0.188000  0.658000
-0.002522  -0.189143  0.662000
-0.001261  -0.189143  0.662000
0.000000  -0.189143  0.662000
0.001261  -0.189143  0.662000
0.002522  -0.189143  0.662000
0.003800  -0.190000  0.665000
0.005051  -0.189429  0.663000
0.006314  -0.189429  0.663000
0.007611  -0.190286  0.666000
0.008880  -0.190286  0.666000
0.010164  -0.190571  0.667000
0.011434  -0.190571  0.667000
0.012705  -0.190571  0.667000
0.014017  -0.191143  0.669000
0.015291  -0.191143  0.669000
0.016566  -0.191143  0.669000
0.017680  -0.189429  0.663000
0.018943  -0.189429  0.663000
0.020297  -0.190286  0.666000
0.021566  -0.190286  0.666000
0.022834  -0.190286  0.666000
0.024067  -0.190000  0.665000
0.025333  -0.190000  0.665000
0.026600  -0.190000  0.665000
0.027867  -0.190000  0.665000
0.029309  -0.191143  0.669000
0.030583  -0.191143  0.669000
0.031857  -0.191143  0.669000
0.032933  -0.190000  0.665000
0.034200  -0.190000  0.665000
0.035573  -0.190571  0.667000
0.036844  -0.190571  0.667000
0.038057  -0.190286  0.666000
0.039326  -0.190286  0.666000
0.040533  -0.190000  0.665000
0.041800  -0.190000  0.665000
0.043067  -0.190000  0.665000
0.044333  -0.190000  0.665000
0.045600  -0.190000  0.665000
0.046867  -0.190000  0.665000
0.048133  -0.190000  0.665000
0.049400  -0.190000  0.665000
0.050667  -0.190000  0.665000
0.051933  -0.190000  0.665000
0.053200  -0.190000  0.665000
0.054467  -0.190000  0.665000
0.055733  -0.190000  0.665000
0.057000  -0.190000  0.665000
0.058267  -0.190000  0.665000
0.059533  -0.190000  0.665000
0.060983  -0.190571  0.667000
0.062440  -0.191143  0.669000
0.063714  -0.191143  0.669000
0.064989  -0.191143  0.669000
0.066362  -0.191429  0.670000
0.067638  -0.191429  0.670000
0.068914  -0.191429  0.670000
0.070086  -0.191143  0.669000
0.071147  -0.190571  0.667000
0.072417  -0.190571  0.667000
0.073688  -0.190571  0.667000
0.074958  -0.190571  0.667000
0.076229  -0.190571  0.667000
0.077383  -0.190286  0.666000
0.078651  -0.190286  0.666000
0.079920  -0.190286  0.666000
0.081189  -0.190286  0.666000
0.082581  -0.190571  0.667000
0.083726  -0.190286  0.666000
0.084994  -0.190286  0.666000
0.085615  -0.188857  0.661000
0.086743  -0.188571  0.660000
0.088000  -0.188571  0.660000
0.089257  -0.188571  0.660000
0.090651  -0.188857  0.661000
0.092189  -0.189429  0.663000
0.093874  -0.190286  0.666000
0.095286  -0.190571  0.667000
0.096556  -0.190571  0.667000
0.097827  -0.190571  0.667000
0.099097  -0.190571  0.667000
0.100669  -0.191143  0.669000
0.102095  -0.191429  0.670000
0.103526  -0.191714  0.671000
0.104804  -0.191714  0.671000
0.106082  -0.191714  0.671000
0.112975  -0.192571  0.674000
0.114259  -0.192571  0.674000
0.115200  -0.192000  0.672000
0.116480  -0.192000  0.672000
0.117585  -0.191714  0.671000
