# .PCD v.5 - Point Cloud Data file format
FIELDS x y z 
SIZE 4 4 4
TYPE F F F
COUNT 1 1 1
WIDTH 1564
HEIGHT 1
POINTS 1564
DATA ascii
0.052743  -0.182571  0.710000
0.054095  -0.182571  0.710000
0.054979  -0.181029  0.704000
0.056240  -0.180771  0.703000
0.057579  -0.180771  0.703000
0.058918  -0.180771  0.703000
0.060257  -0.180771  0.703000
0.062297  -0.182829  0.711000
0.063920  -0.183600  0.714000
0.065554  -0.184371  0.717000
0.066640  -0.183600  0.714000
0.068000  -0.183600  0.714000
0.069069  -0.182829  0.711000
0.070423  -0.182829  0.711000
0.071777  -0.182829  0.711000
0.073131  -0.182829  0.711000
0.074486  -0.182829  0.711000
0.076160  -0.183600  0.714000
0.077737  -0.184114  0.716000
0.079101  -0.184114  0.716000
0.080577  -0.184371  0.717000
0.081943  -0.184371  0.717000
0.082844  -0.183343  0.713000
0.084202  -0.183343  0.713000
0.085680  -0.183600  0.714000
0.087040  -0.183600  0.714000
0.088400  -0.183600  0.714000
0.089760  -0.183600  0.714000
0.091375  -0.184114  0.716000
0.092869  -0.184371  0.717000
0.094234  -0.184371  0.717000
0.095600  -0.184371  0.717000
0.096966  -0.184371  0.717000
0.098194  -0.184114  0.716000
0.099558  -0.184114  0.716000
0.100922  -0.184114  0.716000
0.102286  -0.184114  0.716000
0.103360  -0.183600  0.714000
0.104720  -0.183600  0.714000
0.105634  -0.182829  0.711000
0.106989  -0.182829  0.711000
0.108343  -0.182829  0.711000
0.109697  -0.182829  0.711000
0.111364  -0.183343  0.713000
0.112722  -0.183343  0.713000
0.114080  -0.183343  0.713000
0.115600  -0.183600  0.714000
0.116960  -0.183600  0.714000
0.118154  -0.183343  0.713000
0.119512  -0.183343  0.713000
0.120870  -0.183343  0.713000
0.122229  -0.183343  0.713000
0.124107  -0.184114  0.716000
0.125470  -0.184114  0.716000
0.127124  -0.182571  0.710000
0.128476  -0.182571  0.710000
0.130011  -0.182829  0.711000
0.131366  -0.182829  0.711000
0.132720  -0.182829  0.711000
0.134451  -0.183343  0.713000
0.135810  -0.183343  0.713000
0.137168  -0.183343  0.713000
0.138526  -0.183343  0.713000
0.140472  -0.184114  0.716000
0.142430  -0.184886  0.719000
0.143800  -0.184886  0.719000
0.145170  -0.184886  0.719000
0.146539  -0.184886  0.719000
0.148114  -0.185143  0.720000
0.149486  -0.185143  0.720000
0.150857  -0.185143  0.720000
0.152017  -0.184886  0.719000
0.153387  -0.184886  0.719000
0.154756  -0.184886  0.719000
0.156126  -0.184886  0.719000
0.157495  -0.184886  0.719000
0.158865  -0.184886  0.719000
0.160234  -0.184886  0.719000
0.161604  -0.184886  0.719000
0.162973  -0.184886  0.719000
0.164343  -0.184886  0.719000
0.165712  -0.184886  0.719000
0.167082  -0.184886  0.719000
0.168451  -0.184886  0.719000
0.169821  -0.184886  0.719000
0.171190  -0.184886  0.719000
0.172560  -0.184886  0.719000
0.173930  -0.184886  0.719000
0.175299  -0.184886  0.719000
0.176669  -0.184886  0.719000
0.178038  -0.184886  0.719000
0.179408  -0.184886  0.719000
0.180274  -0.184371  0.717000
0.181640  -0.184371  0.717000
0.184282  -0.185657  0.722000
0.185914  -0.185914  0.723000
0.187810  -0.186429  0.725000
0.189190  -0.186429  0.725000
0.189257  -0.185143  0.720000
0.190629  -0.185143  0.720000
0.190133  -0.183343  0.713000
0.191491  -0.183343  0.713000
0.193120  -0.183600  0.714000
0.194480  -0.183600  0.714000
0.195840  -0.183600  0.714000
0.197200  -0.183600  0.714000
0.199116  -0.184114  0.716000
0.200480  -0.184114  0.716000
0.202690  -0.184886  0.719000
0.204343  -0.185143  0.720000
0.205714  -0.185143  0.720000
0.207086  -0.185143  0.720000
0.209036  -0.185657  0.722000
0.210411  -0.185657  0.722000
0.211787  -0.185657  0.722000
0.213457  -0.185914  0.723000
0.215726  -0.186686  0.726000
0.217109  -0.186686  0.726000
0.213074  -0.182057  0.708000
0.217295  -0.183343  0.713000
0.218653  -0.183343  0.713000
0.220011  -0.183343  0.713000
-0.405410  -0.176152  0.680000
-0.404114  -0.176152  0.680000
-0.404004  -0.176670  0.682000
-0.401524  -0.176152  0.680000
-0.399640  -0.175893  0.679000
-0.398347  -0.175893  0.679000
-0.397638  -0.176152  0.680000
-0.396343  -0.176152  0.680000
-0.396210  -0.176670  0.682000
-0.393752  -0.176152  0.680000
-0.392457  -0.176152  0.680000
-0.392312  -0.176670  0.682000
-0.391587  -0.176930  0.683000
-0.390857  -0.177189  0.684000
-0.388985  -0.176930  0.683000
-0.387684  -0.176930  0.683000
-0.386383  -0.176930  0.683000
-0.385646  -0.177189  0.684000
-0.384343  -0.177189  0.684000
-0.383040  -0.177189  0.684000
-0.381179  -0.176930  0.683000
-0.377653  -0.175893  0.679000
-0.376360  -0.175893  0.679000
-0.375619  -0.176152  0.680000
-0.374324  -0.176152  0.680000
-0.373029  -0.176152  0.680000
-0.371733  -0.176152  0.680000
-0.369893  -0.175893  0.679000
-0.368600  -0.175893  0.679000
-0.366766  -0.175634  0.678000
-0.331417  -0.159832  0.617000
-0.330242  -0.159832  0.617000
-0.329067  -0.159832  0.617000
-0.327891  -0.159832  0.617000
-0.326716  -0.159832  0.617000
-0.325541  -0.159832  0.617000
-0.323840  -0.159573  0.616000
-0.322667  -0.159573  0.616000
-0.321493  -0.159573  0.616000
-0.297432  -0.154392  0.596000
-0.295800  -0.154133  0.595000
-0.294171  -0.153874  0.594000
-0.293040  -0.153874  0.594000
-0.291909  -0.153874  0.594000
-0.288670  -0.153356  0.592000
-0.276480  -0.149211  0.576000
-0.273949  -0.148434  0.573000
-0.272857  -0.148434  0.573000
-0.271766  -0.148434  0.573000
-0.270674  -0.148434  0.573000
-0.269583  -0.148434  0.573000
-0.268023  -0.148175  0.572000
-0.266933  -0.148175  0.572000
-0.265844  -0.148175  0.572000
-0.265217  -0.148434  0.573000
-0.264126  -0.148434  0.573000
-0.263034  -0.148434  0.573000
-0.263771  -0.149470  0.577000
-0.262672  -0.149470  0.577000
-0.262480  -0.149989  0.579000
-0.261377  -0.149989  0.579000
-0.260274  -0.149989  0.579000
-0.260067  -0.150507  0.581000
-0.259406  -0.150766  0.582000
-0.258741  -0.151025  0.583000
-0.258514  -0.151543  0.585000
-0.257400  -0.151543  0.585000
-0.256724  -0.151802  0.586000
-0.256044  -0.152061  0.587000
-0.254926  -0.152061  0.587000
-0.254672  -0.152579  0.589000
-0.253550  -0.152579  0.589000
-0.252857  -0.152838  0.590000
-0.252160  -0.153097  0.591000
-0.251034  -0.153097  0.591000
-0.250331  -0.153356  0.592000
-0.249625  -0.153615  0.593000
-0.249333  -0.154133  0.595000
-0.248617  -0.154392  0.596000
-0.247897  -0.154651  0.597000
-0.247173  -0.154910  0.598000
-0.246446  -0.155170  0.599000
-0.245714  -0.155429  0.600000
-0.244979  -0.155688  0.601000
-0.244240  -0.155947  0.602000
-0.243093  -0.155947  0.602000
-0.242349  -0.156206  0.603000
-0.241200  -0.156206  0.603000
-0.240450  -0.156465  0.604000
-0.240091  -0.156983  0.606000
-0.239331  -0.157242  0.607000
-0.238568  -0.157501  0.608000
-0.237410  -0.157501  0.608000
-0.236640  -0.157760  0.609000
-0.236253  -0.158278  0.611000
-0.235474  -0.158537  0.612000
-0.234691  -0.158796  0.613000
-0.233905  -0.159055  0.614000
-0.233114  -0.159314  0.615000
-0.232320  -0.159573  0.616000
-0.231522  -0.159832  0.617000
-0.230720  -0.160091  0.618000
-0.229914  -0.160350  0.619000
-0.229105  -0.160610  0.620000
-0.228659  -0.161128  0.622000
-0.227840  -0.161387  0.623000
-0.227381  -0.161905  0.625000
-0.226190  -0.161905  0.625000
-0.225360  -0.162164  0.626000
-0.224168  -0.162164  0.626000
-0.223688  -0.162682  0.628000
-0.222491  -0.162682  0.628000
-0.221295  -0.162682  0.628000
-0.220450  -0.162941  0.629000
-0.219949  -0.163459  0.631000
-0.219440  -0.163977  0.633000
-0.218579  -0.164236  0.634000
-0.217714  -0.164495  0.635000
-0.216846  -0.164754  0.636000
-0.216312  -0.165272  0.638000
-0.215434  -0.165531  0.639000
-0.214552  -0.165790  0.640000
-0.213667  -0.166050  0.641000
-0.212777  -0.166309  0.642000
-0.211554  -0.166309  0.642000
-0.210987  -0.166827  0.644000
-0.211170  -0.169935  0.656000
-0.209920  -0.169935  0.656000
-0.208989  -0.170194  0.657000
-0.207737  -0.170194  0.657000
-0.206800  -0.170453  0.658000
-0.205547  -0.170453  0.658000
-0.204293  -0.170453  0.658000
-0.203040  -0.170453  0.658000
-0.201787  -0.170453  0.658000
-0.201143  -0.170971  0.660000
-0.199886  -0.170971  0.660000
-0.194320  -0.179779  0.694000
-0.192998  -0.179779  0.694000
-0.191676  -0.179779  0.694000
-0.190354  -0.179779  0.694000
-0.189305  -0.180038  0.695000
-0.187981  -0.180038  0.695000
-0.187194  -0.180556  0.697000
-0.186133  -0.180815  0.698000
-0.184804  -0.180815  0.698000
-0.184000  -0.181333  0.700000
-0.182667  -0.181333  0.700000
-0.181333  -0.181333  0.700000
-0.180000  -0.181333  0.700000
-0.178667  -0.181333  0.700000
-0.177333  -0.181333  0.700000
-0.175497  -0.180815  0.698000
-0.173918  -0.180556  0.697000
-0.172095  -0.180038  0.695000
-0.170771  -0.180038  0.695000
-0.169204  -0.179779  0.694000
-0.167882  -0.179779  0.694000
-0.166560  -0.179779  0.694000
-0.165000  -0.179520  0.693000
-0.163680  -0.179520  0.693000
-0.162360  -0.179520  0.693000
-0.161272  -0.179779  0.694000
-0.159950  -0.179779  0.694000
-0.158857  -0.180038  0.695000
-0.157533  -0.180038  0.695000
-0.156210  -0.180038  0.695000
-0.154886  -0.180038  0.695000
-0.154004  -0.180556  0.697000
-0.152676  -0.180556  0.697000
-0.152000  -0.181333  0.700000
-0.150667  -0.181333  0.700000
-0.148907  -0.180815  0.698000
-0.147577  -0.180815  0.698000
-0.146248  -0.180815  0.698000
-0.144918  -0.180815  0.698000
-0.143589  -0.180815  0.698000
-0.142259  -0.180815  0.698000
-0.140930  -0.180815  0.698000
-0.140000  -0.181333  0.700000
-0.138667  -0.181333  0.700000
-0.137530  -0.181592  0.701000
-0.136194  -0.181592  0.701000
-0.134859  -0.181592  0.701000
-0.134095  -0.182370  0.704000
-0.132566  -0.182110  0.703000
-0.131227  -0.182110  0.703000
-0.129518  -0.181592  0.701000
-0.128000  -0.181333  0.700000
-0.126305  -0.180815  0.698000
-0.124975  -0.180815  0.698000
-0.123469  -0.180556  0.697000
-0.121790  -0.180038  0.695000
-0.120467  -0.180038  0.695000
-0.119143  -0.180038  0.695000
-0.117819  -0.180038  0.695000
-0.116495  -0.180038  0.695000
-0.116000  -0.181333  0.700000
-0.114667  -0.181333  0.700000
-0.113333  -0.181333  0.700000
-0.112000  -0.181333  0.700000
-0.110350  -0.180815  0.698000
-0.109021  -0.180815  0.698000
-0.107691  -0.180815  0.698000
-0.106362  -0.180815  0.698000
-0.104882  -0.180556  0.697000
-0.103257  -0.180038  0.695000
-0.101933  -0.180038  0.695000
-0.100465  -0.179779  0.694000
-0.099143  -0.179779  0.694000
-0.097680  -0.179520  0.693000
-0.096360  -0.179520  0.693000
-0.095040  -0.179520  0.693000
-0.093450  -0.179002  0.691000
-0.092133  -0.179002  0.691000
-0.090686  -0.178743  0.690000
-0.089371  -0.178743  0.690000
-0.087930  -0.178484  0.689000
-0.086617  -0.178484  0.689000
-0.085057  -0.177966  0.687000
-0.083749  -0.177966  0.687000
-0.082320  -0.177707  0.686000
-0.080777  -0.177189  0.684000
-0.079358  -0.176930  0.683000
-0.078057  -0.176930  0.683000
-0.076644  -0.176670  0.682000
-0.075345  -0.176670  0.682000
-0.073829  -0.176152  0.680000
-0.072427  -0.175893  0.679000
-0.071133  -0.175893  0.679000
-0.069840  -0.175893  0.679000
-0.068547  -0.175893  0.679000
-0.067154  -0.175634  0.678000
-0.065571  -0.174857  0.675000
-0.064286  -0.174857  0.675000
-0.063000  -0.174857  0.675000
-0.061623  -0.174598  0.674000
-0.060339  -0.174598  0.674000
-0.059055  -0.174598  0.674000
-0.057600  -0.174080  0.672000
-0.056320  -0.174080  0.672000
-0.055040  -0.174080  0.672000
-0.053680  -0.173821  0.671000
-0.052402  -0.173821  0.671000
-0.051048  -0.173562  0.670000
-0.049697  -0.173303  0.669000
-0.048423  -0.173303  0.669000
-0.047008  -0.172785  0.667000
-0.045737  -0.172785  0.667000
-0.044467  -0.172785  0.667000
-0.043131  -0.172526  0.666000
-0.041800  -0.172267  0.665000
-0.040411  -0.171749  0.663000
-0.039090  -0.171490  0.662000
-0.037829  -0.171490  0.662000
-0.036512  -0.171230  0.661000
-0.035253  -0.171230  0.661000
-0.033943  -0.170971  0.660000
-0.032686  -0.170971  0.660000
-0.031429  -0.170971  0.660000
-0.030171  -0.170971  0.660000
-0.028914  -0.170971  0.660000
-0.027657  -0.170971  0.660000
-0.026400  -0.170971  0.660000
-0.025067  -0.170453  0.658000
-0.023777  -0.170194  0.657000
-0.022526  -0.170194  0.657000
-0.021242  -0.169935  0.656000
-0.019992  -0.169935  0.656000
-0.018714  -0.169676  0.655000
-0.017467  -0.169676  0.655000
-0.016219  -0.169676  0.655000
-0.014971  -0.169676  0.655000
-0.013682  -0.169158  0.653000
-0.012438  -0.169158  0.653000
-0.011194  -0.169158  0.653000
-0.009935  -0.168899  0.652000
-0.008680  -0.168640  0.651000
-0.007429  -0.168381  0.650000
-0.006190  -0.168381  0.650000
-0.004952  -0.168381  0.650000
-0.003714  -0.168381  0.650000
-0.002469  -0.167863  0.648000
-0.001234  -0.167863  0.648000
0.000000  -0.167863  0.648000
0.001234  -0.167863  0.648000
0.002469  -0.167863  0.648000
0.003703  -0.167863  0.648000
0.004937  -0.167863  0.648000
0.006190  -0.168381  0.650000
0.007429  -0.168381  0.650000
0.008680  -0.168640  0.651000
0.009935  -0.168899  0.652000
0.011194  -0.169158  0.653000
0.012571  -0.170971  0.660000
0.013829  -0.170971  0.660000
0.015314  -0.173562  0.670000
0.016590  -0.173562  0.670000
0.017893  -0.173821  0.671000
0.019200  -0.174080  0.672000
0.020541  -0.174598  0.674000
0.021857  -0.174857  0.675000
0.023177  -0.175116  0.676000
0.024465  -0.175116  0.676000
0.026286  -0.178743  0.690000
0.027600  -0.178743  0.690000
0.028956  -0.179002  0.691000
0.030360  -0.179520  0.693000
0.031680  -0.179520  0.693000
0.033095  -0.180038  0.695000
0.034518  -0.180556  0.697000
0.036000  -0.181333  0.700000
0.037333  -0.181333  0.700000
0.038722  -0.181592  0.701000
0.040057  -0.181592  0.701000
0.041510  -0.182110  0.703000
0.042850  -0.182110  0.703000
0.045006  -0.185478  0.716000
0.046240  -0.184960  0.714000
0.047533  -0.184701  0.713000
0.048891  -0.184701  0.713000
0.049686  -0.182629  0.705000
0.050956  -0.182370  0.704000
0.052297  -0.182370  0.704000
0.053638  -0.182370  0.704000
0.054901  -0.182110  0.703000
0.056240  -0.182110  0.703000
0.057579  -0.182110  0.703000
0.058750  -0.181592  0.701000
0.060086  -0.181592  0.701000
0.062297  -0.184183  0.711000
0.063830  -0.184701  0.713000
0.065280  -0.184960  0.714000
0.066080  -0.183406  0.708000
0.067333  -0.183147  0.707000
0.068680  -0.183147  0.707000
0.070126  -0.183406  0.708000
0.071474  -0.183406  0.708000
0.073029  -0.183924  0.710000
0.074486  -0.184183  0.711000
0.075840  -0.184183  0.711000
0.077411  -0.184701  0.713000
0.078770  -0.184701  0.713000
0.080577  -0.185737  0.717000
0.081600  -0.184960  0.714000
0.082611  -0.184183  0.711000
0.083966  -0.184183  0.711000
0.085560  -0.184701  0.713000
0.086552  -0.183924  0.710000
0.087905  -0.183924  0.710000
0.089634  -0.184701  0.713000
0.091120  -0.184960  0.714000
0.092480  -0.184960  0.714000
0.093840  -0.184960  0.714000
0.095600  -0.185737  0.717000
0.096966  -0.185737  0.717000
0.097783  -0.184701  0.713000
0.099141  -0.184701  0.713000
0.100499  -0.184701  0.713000
0.102286  -0.185478  0.716000
0.102491  -0.183406  0.708000
0.103840  -0.183406  0.708000
0.105486  -0.183924  0.710000
0.106838  -0.183924  0.710000
0.107886  -0.183406  0.708000
0.109234  -0.183406  0.708000
0.111051  -0.184183  0.711000
0.112406  -0.184183  0.711000
0.113760  -0.184183  0.711000
0.115438  -0.184701  0.713000
0.116796  -0.184701  0.713000
0.117823  -0.184183  0.711000
0.119177  -0.184183  0.711000
0.120362  -0.183924  0.710000
0.121714  -0.183924  0.710000
0.123067  -0.183924  0.710000
0.124069  -0.183406  0.708000
0.125417  -0.183406  0.708000
0.127124  -0.183924  0.710000
0.128476  -0.183924  0.710000
0.129463  -0.183406  0.708000
0.130811  -0.183406  0.708000
0.132533  -0.183924  0.710000
0.134074  -0.184183  0.711000
0.135429  -0.184183  0.711000
0.136783  -0.184183  0.711000
0.138137  -0.184183  0.711000
0.140080  -0.184960  0.714000
0.141440  -0.184960  0.714000
0.142800  -0.184960  0.714000
0.145170  -0.186255  0.719000
0.146539  -0.186255  0.719000
0.148114  -0.186514  0.720000
0.149278  -0.186255  0.719000
0.150648  -0.186255  0.719000
0.152017  -0.186255  0.719000
0.153387  -0.186255  0.719000
0.154756  -0.186255  0.719000
0.156126  -0.186255  0.719000
0.157057  -0.185737  0.717000
0.157760  -0.184960  0.714000
0.159120  -0.184960  0.714000
0.161604  -0.186255  0.719000
0.162973  -0.186255  0.719000
0.163886  -0.185737  0.717000
0.165251  -0.185737  0.717000
0.167082  -0.186255  0.719000
0.168451  -0.186255  0.719000
0.169349  -0.185737  0.717000
0.170476  -0.185478  0.716000
0.171840  -0.185478  0.716000
0.172720  -0.184960  0.714000
0.174080  -0.184960  0.714000
0.175440  -0.184960  0.714000
0.176800  -0.184960  0.714000
0.178160  -0.184960  0.714000
0.179520  -0.184960  0.714000
0.180627  -0.184701  0.713000
0.181985  -0.184701  0.713000
0.183600  -0.184960  0.714000
0.187810  -0.187810  0.725000
0.185276  -0.183924  0.710000
0.186629  -0.183924  0.710000
0.188775  -0.184701  0.713000
0.189600  -0.184183  0.711000
0.190954  -0.184183  0.711000
0.192850  -0.184701  0.713000
0.194208  -0.184701  0.713000
0.195566  -0.184701  0.713000
0.197200  -0.184960  0.714000
0.198560  -0.184960  0.714000
0.199920  -0.184960  0.714000
0.201844  -0.185478  0.716000
0.203491  -0.185737  0.717000
0.204857  -0.185737  0.717000
0.206223  -0.185737  0.717000
0.208457  -0.186514  0.720000
0.209537  -0.186255  0.719000
0.207680  -0.183406  0.708000
0.209029  -0.183406  0.708000
0.210377  -0.183406  0.708000
0.212623  -0.184183  0.711000
0.213074  -0.183406  0.708000
0.214423  -0.183406  0.708000
0.215771  -0.183406  0.708000
0.217733  -0.183924  0.710000
0.220011  -0.184701  0.713000
-0.404813  -0.177187  0.679000
-0.403520  -0.177187  0.679000
-0.402819  -0.177448  0.680000
-0.400933  -0.177187  0.679000
-0.399051  -0.176926  0.678000
-0.397760  -0.176926  0.678000
-0.396469  -0.176926  0.678000
-0.395760  -0.177187  0.679000
-0.395048  -0.177448  0.680000
-0.393752  -0.177448  0.680000
-0.392457  -0.177448  0.680000
-0.392312  -0.177970  0.682000
-0.391587  -0.178230  0.683000
-0.390286  -0.178230  0.683000
-0.388415  -0.177970  0.682000
-0.387116  -0.177970  0.682000
-0.385817  -0.177970  0.682000
-0.384518  -0.177970  0.682000
-0.383219  -0.177970  0.682000
-0.380800  -0.177448  0.680000
-0.378947  -0.177187  0.679000
-0.377653  -0.177187  0.679000
-0.376360  -0.177187  0.679000
-0.375067  -0.177187  0.679000
-0.373773  -0.177187  0.679000
-0.372480  -0.177187  0.679000
-0.371187  -0.177187  0.679000
-0.369893  -0.177187  0.679000
-0.368057  -0.176926  0.678000
-0.330880  -0.160747  0.616000
-0.329707  -0.160747  0.616000
-0.328533  -0.160747  0.616000
-0.327360  -0.160747  0.616000
-0.326187  -0.160747  0.616000
-0.325013  -0.160747  0.616000
-0.323840  -0.160747  0.616000
-0.322667  -0.160747  0.616000
-0.321493  -0.160747  0.616000
-0.297432  -0.155528  0.596000
-0.295800  -0.155267  0.595000
-0.294171  -0.155006  0.594000
-0.293040  -0.155006  0.594000
-0.291417  -0.154745  0.593000
-0.289798  -0.154484  0.592000
-0.288670  -0.154484  0.592000
-0.276480  -0.150309  0.576000
-0.274427  -0.149787  0.574000
-0.272857  -0.149526  0.573000
-0.271766  -0.149526  0.573000
-0.270674  -0.149526  0.573000
-0.269583  -0.149526  0.573000
-0.268023  -0.149265  0.572000
-0.266933  -0.149265  0.572000
-0.265379  -0.149004  0.571000
-0.264291  -0.149004  0.571000
-0.264126  -0.149526  0.573000
-0.263034  -0.149526  0.573000
-0.264229  -0.150830  0.578000
-0.263128  -0.150830  0.578000
-0.262480  -0.151091  0.579000
-0.261377  -0.151091  0.579000
-0.260724  -0.151352  0.580000
-0.260514  -0.151874  0.582000
-0.259406  -0.151874  0.582000
-0.259185  -0.152396  0.584000
-0.258514  -0.152657  0.585000
-0.257840  -0.152918  0.586000
-0.256724  -0.152918  0.586000
-0.256044  -0.153179  0.587000
-0.255360  -0.153440  0.588000
-0.254672  -0.153701  0.589000
-0.253981  -0.153962  0.590000
-0.252857  -0.153962  0.590000
-0.252160  -0.154223  0.591000
-0.251459  -0.154484  0.592000
-0.250754  -0.154745  0.593000
-0.250046  -0.155006  0.594000
-0.249333  -0.155267  0.595000
-0.249034  -0.155789  0.597000
-0.248312  -0.156050  0.598000
-0.247587  -0.156310  0.599000
-0.246857  -0.156571  0.600000
-0.246124  -0.156832  0.601000
-0.245387  -0.157093  0.602000
-0.244240  -0.157093  0.602000
-0.243497  -0.157354  0.603000
-0.242349  -0.157354  0.603000
-0.241600  -0.157615  0.604000
-0.240848  -0.157876  0.605000
-0.240488  -0.158398  0.607000
-0.239331  -0.158398  0.607000
-0.238568  -0.158659  0.608000
-0.237800  -0.158920  0.609000
-0.237417  -0.159442  0.611000
-0.236640  -0.159703  0.612000
-0.235474  -0.159703  0.612000
-0.234691  -0.159964  0.613000
-0.234286  -0.160486  0.615000
-0.233493  -0.160747  0.616000
-0.232697  -0.161008  0.617000
-0.231897  -0.161269  0.618000
-0.231093  -0.161530  0.619000
-0.230286  -0.161790  0.620000
-0.229844  -0.162312  0.622000
-0.229027  -0.162573  0.623000
-0.228206  -0.162834  0.624000
-0.227381  -0.163095  0.625000
-0.226190  -0.163095  0.625000
-0.225360  -0.163356  0.626000
-0.224526  -0.163617  0.627000
-0.223688  -0.163878  0.628000
-0.222491  -0.163878  0.628000
-0.221648  -0.164139  0.629000
-0.220450  -0.164139  0.629000
-0.220297  -0.164922  0.632000
-0.219787  -0.165444  0.634000
-0.219269  -0.165966  0.636000
-0.218057  -0.165966  0.636000
-0.217528  -0.166488  0.638000
-0.216651  -0.166749  0.639000
-0.215771  -0.167010  0.640000
-0.214888  -0.167270  0.641000
-0.214000  -0.167531  0.642000
-0.213440  -0.168053  0.644000
-0.212213  -0.168053  0.644000
-0.211170  -0.171185  0.656000
-0.209920  -0.171185  0.656000
-0.208989  -0.171446  0.657000
-0.207737  -0.171446  0.657000
-0.206800  -0.171707  0.658000
-0.205547  -0.171707  0.658000
-0.204293  -0.171707  0.658000
-0.203040  -0.171707  0.658000
-0.202400  -0.172229  0.660000
-0.195829  -0.180057  0.690000
-0.194514  -0.180057  0.690000
-0.193480  -0.180318  0.691000
-0.192164  -0.180318  0.691000
-0.191400  -0.180840  0.693000
-0.190354  -0.181101  0.694000
-0.189032  -0.181101  0.694000
-0.187710  -0.181101  0.694000
-0.186657  -0.181362  0.695000
-0.186133  -0.182145  0.698000
-0.184804  -0.182145  0.698000
-0.183474  -0.182145  0.698000
-0.182145  -0.182145  0.698000
-0.180815  -0.182145  0.698000
-0.179486  -0.182145  0.698000
-0.178156  -0.182145  0.698000
-0.176827  -0.182145  0.698000
-0.174743  -0.181362  0.695000
-0.173170  -0.181101  0.694000
-0.171848  -0.181101  0.694000
-0.170526  -0.181101  0.694000
-0.169204  -0.181101  0.694000
-0.167882  -0.181101  0.694000
-0.166320  -0.180840  0.693000
-0.165000  -0.180840  0.693000
-0.163680  -0.180840  0.693000
-0.162360  -0.180840  0.693000
-0.161040  -0.180840  0.693000
-0.159720  -0.180840  0.693000
-0.158629  -0.181101  0.694000
-0.157080  -0.180840  0.693000
-0.155760  -0.180840  0.693000
-0.154663  -0.181101  0.694000
-0.153341  -0.181101  0.694000
-0.152019  -0.181101  0.694000
-0.150914  -0.181362  0.695000
-0.150236  -0.182145  0.698000
-0.148267  -0.181362  0.695000
-0.146943  -0.181362  0.695000
-0.146038  -0.181884  0.697000
-0.144710  -0.181884  0.697000
-0.142971  -0.181362  0.695000
-0.141648  -0.181362  0.695000
-0.140930  -0.182145  0.698000
-0.140000  -0.182667  0.700000
-0.138667  -0.182667  0.700000
-0.137530  -0.182928  0.701000
-0.136194  -0.182928  0.701000
-0.134859  -0.182928  0.701000
-0.133905  -0.183450  0.703000
-0.132566  -0.183450  0.703000
-0.130853  -0.182928  0.701000
-0.128964  -0.182145  0.698000
-0.127634  -0.182145  0.698000
-0.125762  -0.181362  0.695000
-0.124438  -0.181362  0.695000
-0.123114  -0.181362  0.695000
-0.121790  -0.181362  0.695000
-0.120467  -0.181362  0.695000
-0.119143  -0.181362  0.695000
-0.117650  -0.181101  0.694000
-0.116328  -0.181101  0.694000
-0.115669  -0.182145  0.698000
-0.114339  -0.182145  0.698000
-0.113010  -0.182145  0.698000
-0.111680  -0.182145  0.698000
-0.110350  -0.182145  0.698000
-0.109021  -0.182145  0.698000
-0.107691  -0.182145  0.698000
-0.106362  -0.182145  0.698000
-0.104882  -0.181884  0.697000
-0.103109  -0.181101  0.694000
-0.101787  -0.181101  0.694000
-0.100320  -0.180840  0.693000
-0.099000  -0.180840  0.693000
-0.097398  -0.180318  0.691000
-0.096082  -0.180318  0.691000
-0.094766  -0.180318  0.691000
-0.093450  -0.180318  0.691000
-0.092000  -0.180057  0.690000
-0.090686  -0.180057  0.690000
-0.089371  -0.180057  0.690000
-0.087930  -0.179796  0.689000
-0.086617  -0.179796  0.689000
-0.085305  -0.179796  0.689000
-0.083749  -0.179274  0.687000
-0.082320  -0.179013  0.686000
-0.081013  -0.179013  0.686000
-0.079474  -0.178491  0.684000
-0.078057  -0.178230  0.683000
-0.076756  -0.178230  0.683000
-0.075455  -0.178230  0.683000
-0.074046  -0.177970  0.682000
-0.072533  -0.177448  0.680000
-0.071133  -0.177187  0.679000
-0.069840  -0.177187  0.679000
-0.068547  -0.177187  0.679000
-0.067253  -0.177187  0.679000
-0.065669  -0.176404  0.676000
-0.064381  -0.176404  0.676000
-0.063000  -0.176143  0.675000
-0.061714  -0.176143  0.675000
-0.060339  -0.175882  0.674000
-0.059055  -0.175882  0.674000
-0.057771  -0.175882  0.674000
-0.056320  -0.175360  0.672000
-0.055040  -0.175360  0.672000
-0.053680  -0.175099  0.671000
-0.052402  -0.175099  0.671000
-0.051124  -0.175099  0.671000
-0.049771  -0.174838  0.670000
-0.048423  -0.174577  0.669000
-0.047149  -0.174577  0.669000
-0.045737  -0.174055  0.667000
-0.044467  -0.174055  0.667000
-0.043131  -0.173794  0.666000
-0.041800  -0.173533  0.665000
-0.040411  -0.173011  0.663000
-0.039090  -0.172750  0.662000
-0.037829  -0.172750  0.662000
-0.036568  -0.172750  0.662000
-0.035253  -0.172490  0.661000
-0.033994  -0.172490  0.661000
-0.032686  -0.172229  0.660000
-0.031429  -0.172229  0.660000
-0.030171  -0.172229  0.660000
-0.028914  -0.172229  0.660000
-0.027657  -0.172229  0.660000
-0.026320  -0.171707  0.658000
-0.025067  -0.171707  0.658000
-0.023777  -0.171446  0.657000
-0.022526  -0.171446  0.657000
-0.021242  -0.171185  0.656000
-0.019992  -0.171185  0.656000
-0.018743  -0.171185  0.656000
-0.017467  -0.170924  0.655000
-0.016219  -0.170924  0.655000
-0.014971  -0.170924  0.655000
-0.013724  -0.170924  0.655000
-0.012476  -0.170924  0.655000
-0.011229  -0.170924  0.655000
-0.009950  -0.170402  0.653000
-0.008693  -0.170141  0.652000
-0.007429  -0.169619  0.650000
-0.006190  -0.169619  0.650000
-0.004952  -0.169619  0.650000
-0.003714  -0.169619  0.650000
-0.002469  -0.169097  0.648000
-0.001234  -0.169097  0.648000
0.000000  -0.169097  0.648000
0.001234  -0.169097  0.648000
0.002469  -0.169097  0.648000
0.003703  -0.169097  0.648000
0.004937  -0.169097  0.648000
0.006190  -0.169619  0.650000
0.007429  -0.169619  0.650000
0.008680  -0.169880  0.651000
0.009935  -0.170141  0.652000
0.011194  -0.170402  0.653000
0.012743  -0.174577  0.669000
0.014017  -0.174577  0.669000
0.015314  -0.174838  0.670000
0.016590  -0.174838  0.670000
0.017893  -0.175099  0.671000
0.019200  -0.175360  0.672000
0.020541  -0.175882  0.674000
0.021857  -0.176143  0.675000
0.023246  -0.176926  0.678000
0.024754  -0.178491  0.684000
0.026248  -0.179796  0.689000
0.027560  -0.179796  0.689000
0.028956  -0.180318  0.691000
0.030360  -0.180840  0.693000
0.031680  -0.180840  0.693000
0.033095  -0.181362  0.695000
0.034518  -0.181884  0.697000
0.036000  -0.182667  0.700000
0.037333  -0.182667  0.700000
0.038667  -0.182667  0.700000
0.040057  -0.182928  0.701000
0.041392  -0.182928  0.701000
0.042728  -0.182928  0.701000
0.044063  -0.182928  0.701000
0.044945  -0.181101  0.694000
0.046333  -0.181362  0.695000
0.048206  -0.183450  0.703000
0.049545  -0.183450  0.703000
0.050884  -0.183450  0.703000
0.052223  -0.183450  0.703000
0.053562  -0.183450  0.703000
0.054901  -0.183450  0.703000
0.056240  -0.183450  0.703000
0.057579  -0.183450  0.703000
0.058750  -0.182928  0.701000
0.060000  -0.182667  0.700000
0.061333  -0.182667  0.700000
0.063830  -0.186059  0.713000
0.064457  -0.183971  0.705000
0.065800  -0.183971  0.705000
0.067333  -0.184493  0.707000
0.068680  -0.184493  0.707000
0.070126  -0.184754  0.708000
0.071474  -0.184754  0.708000
0.073029  -0.185276  0.710000
0.074381  -0.185276  0.710000
0.075840  -0.185537  0.711000
0.077411  -0.186059  0.713000
0.078770  -0.186059  0.713000
0.080128  -0.186059  0.713000
0.081600  -0.186320  0.714000
0.082611  -0.185537  0.711000
0.082785  -0.182928  0.701000
0.084120  -0.182928  0.701000
0.085699  -0.183450  0.703000
0.087162  -0.183710  0.704000
0.089006  -0.184754  0.708000
0.090737  -0.185537  0.711000
0.092350  -0.186059  0.713000
0.093840  -0.186320  0.714000
0.095600  -0.187103  0.717000
0.096966  -0.187103  0.717000
0.097097  -0.184754  0.708000
0.098446  -0.184754  0.708000
0.099371  -0.183971  0.705000
0.100714  -0.183971  0.705000
0.102057  -0.183971  0.705000
0.103400  -0.183971  0.705000
0.104743  -0.183971  0.705000
0.106086  -0.183971  0.705000
0.107733  -0.184493  0.707000
0.109080  -0.184493  0.707000
0.110583  -0.184754  0.708000
0.111931  -0.184754  0.708000
0.113760  -0.185537  0.711000
0.115114  -0.185537  0.711000
0.116469  -0.185537  0.711000
0.117823  -0.185537  0.711000
0.119177  -0.185537  0.711000
0.120362  -0.185276  0.710000
0.121714  -0.185276  0.710000
0.123067  -0.185276  0.710000
0.124069  -0.184754  0.708000
0.125417  -0.184754  0.708000
0.126766  -0.184754  0.708000
0.127933  -0.184493  0.707000
0.129280  -0.184493  0.707000
0.130627  -0.184493  0.707000
0.131973  -0.184493  0.707000
0.133320  -0.184493  0.707000
0.134667  -0.184493  0.707000
0.136013  -0.184493  0.707000
0.138137  -0.185537  0.711000
0.139884  -0.186059  0.713000
0.141440  -0.186320  0.714000
0.142800  -0.186320  0.714000
0.144160  -0.186320  0.714000
0.145520  -0.186320  0.714000
0.147909  -0.187625  0.719000
0.149278  -0.187625  0.719000
0.150648  -0.187625  0.719000
0.152017  -0.187625  0.719000
0.152747  -0.186842  0.716000
0.154110  -0.186842  0.716000
0.155040  -0.186320  0.714000
0.155524  -0.185276  0.710000
0.156876  -0.185276  0.710000
0.158451  -0.185537  0.711000
0.159581  -0.185276  0.710000
0.160933  -0.185276  0.710000
0.162514  -0.185537  0.711000
0.164330  -0.186059  0.713000
0.165920  -0.186320  0.714000
0.167280  -0.186320  0.714000
0.169112  -0.186842  0.716000
0.170000  -0.186320  0.714000
0.171360  -0.186320  0.714000
0.172478  -0.186059  0.713000
0.173836  -0.186059  0.713000
0.174703  -0.185537  0.711000
0.176057  -0.185537  0.711000
0.177910  -0.186059  0.713000
0.179269  -0.186059  0.713000
0.180120  -0.185537  0.711000
0.181474  -0.185537  0.711000
0.182829  -0.185537  0.711000
0.183924  -0.185276  0.710000
0.184754  -0.184754  0.708000
0.186103  -0.184754  0.708000
0.188246  -0.185537  0.711000
0.189333  -0.185276  0.710000
0.190686  -0.185276  0.710000
0.192309  -0.185537  0.711000
0.193663  -0.185537  0.711000
0.195017  -0.185537  0.711000
0.196924  -0.186059  0.713000
0.198282  -0.186059  0.713000
0.199640  -0.186059  0.713000
0.201280  -0.186320  0.714000
0.202640  -0.186320  0.714000
0.204000  -0.186320  0.714000
0.205360  -0.186320  0.714000
0.207299  -0.186842  0.716000
0.207206  -0.185537  0.711000
0.207680  -0.184754  0.708000
0.209029  -0.184754  0.708000
0.210971  -0.185276  0.710000
0.212623  -0.185537  0.711000
0.213977  -0.185537  0.711000
0.214423  -0.184754  0.708000
0.215771  -0.184754  0.708000
0.217733  -0.185276  0.710000
0.219394  -0.185537  0.711000
0.220749  -0.185537  0.711000
0.221166  -0.184754  0.708000
0.222514  -0.184754  0.708000
-0.404217  -0.178217  0.678000
-0.402926  -0.178217  0.678000
-0.401634  -0.178217  0.678000
-0.399162  -0.177691  0.676000
-0.397874  -0.177691  0.676000
-0.396587  -0.177691  0.676000
-0.395299  -0.177691  0.676000
-0.395177  -0.178217  0.678000
-0.394467  -0.178480  0.679000
-0.393173  -0.178480  0.679000
-0.392457  -0.178743  0.680000
-0.392312  -0.179269  0.682000
-0.391587  -0.179531  0.683000
-0.390286  -0.179531  0.683000
-0.387276  -0.178743  0.680000
-0.385413  -0.178480  0.679000
-0.384120  -0.178480  0.679000
-0.384518  -0.179269  0.682000
-0.381533  -0.178480  0.679000
-0.380240  -0.178480  0.679000
-0.378389  -0.178217  0.678000
-0.377097  -0.178217  0.678000
-0.375806  -0.178217  0.678000
-0.374514  -0.178217  0.678000
-0.373223  -0.178217  0.678000
-0.371931  -0.178217  0.678000
-0.370640  -0.178217  0.678000
-0.369349  -0.178217  0.678000
-0.368057  -0.178217  0.678000
-0.365143  -0.177429  0.675000
-0.332053  -0.161920  0.616000
-0.330880  -0.161920  0.616000
-0.329707  -0.161920  0.616000
-0.328533  -0.161920  0.616000
-0.327360  -0.161920  0.616000
-0.326187  -0.161920  0.616000
-0.325013  -0.161920  0.616000
-0.323840  -0.161920  0.616000
-0.322667  -0.161920  0.616000
-0.321493  -0.161920  0.616000
-0.296434  -0.156137  0.594000
-0.295303  -0.156137  0.594000
-0.294171  -0.156137  0.594000
-0.292547  -0.155874  0.593000
-0.291417  -0.155874  0.593000
-0.289798  -0.155611  0.592000
-0.288670  -0.155611  0.592000
-0.287543  -0.155611  0.592000
-0.276480  -0.151406  0.576000
-0.274905  -0.151143  0.575000
-0.273810  -0.151143  0.575000
-0.272240  -0.150880  0.574000
-0.270674  -0.150617  0.573000
-0.269583  -0.150617  0.573000
-0.268023  -0.150354  0.572000
-0.266933  -0.150354  0.572000
-0.265379  -0.150091  0.571000
-0.264291  -0.150091  0.571000
-0.263665  -0.150354  0.572000
-0.262575  -0.150354  0.572000
-0.265143  -0.152457  0.580000
-0.264038  -0.152457  0.580000
-0.262933  -0.152457  0.580000
-0.261829  -0.152457  0.580000
-0.261173  -0.152720  0.581000
-0.260962  -0.153246  0.583000
-0.259851  -0.153246  0.583000
-0.259629  -0.153771  0.585000
-0.258956  -0.154034  0.586000
-0.257840  -0.154034  0.586000
-0.257162  -0.154297  0.587000
-0.256044  -0.154297  0.587000
-0.255360  -0.154560  0.588000
-0.255105  -0.155086  0.590000
-0.253981  -0.155086  0.590000
-0.253286  -0.155349  0.591000
-0.252587  -0.155611  0.592000
-0.251459  -0.155611  0.592000
-0.250754  -0.155874  0.593000
-0.250046  -0.156137  0.594000
-0.249333  -0.156400  0.595000
-0.249034  -0.156926  0.597000
-0.248312  -0.157189  0.598000
-0.247587  -0.157451  0.599000
-0.246857  -0.157714  0.600000
-0.246533  -0.158240  0.602000
-0.245387  -0.158240  0.602000
-0.244646  -0.158503  0.603000
-0.243497  -0.158503  0.603000
-0.242349  -0.158503  0.603000
-0.241600  -0.158766  0.604000
-0.240848  -0.159029  0.605000
-0.240488  -0.159554  0.607000
-0.239331  -0.159554  0.607000
-0.238568  -0.159817  0.608000
-0.238581  -0.160606  0.611000
-0.237417  -0.160606  0.611000
-0.236640  -0.160869  0.612000
-0.236244  -0.161394  0.614000
-0.235074  -0.161394  0.614000
-0.234286  -0.161657  0.615000
-0.233493  -0.161920  0.616000
-0.232697  -0.162183  0.617000
-0.232272  -0.162709  0.619000
-0.231467  -0.162971  0.620000
-0.230286  -0.162971  0.620000
-0.229844  -0.163497  0.622000
-0.229027  -0.163760  0.623000
-0.228206  -0.164023  0.624000
-0.227381  -0.164286  0.625000
-0.226552  -0.164549  0.626000
-0.225720  -0.164811  0.627000
-0.224884  -0.165074  0.628000
-0.224044  -0.165337  0.629000
-0.222846  -0.165337  0.629000
-0.221648  -0.165337  0.629000
-0.221501  -0.166126  0.632000
-0.220646  -0.166389  0.633000
-0.219787  -0.166651  0.634000
-0.219269  -0.167177  0.636000
-0.218743  -0.167703  0.638000
-0.217528  -0.167703  0.638000
-0.216990  -0.168229  0.640000
-0.216109  -0.168491  0.641000
-0.214888  -0.168491  0.641000
-0.214000  -0.168754  0.642000
-0.213440  -0.169280  0.644000
-0.210240  -0.172697  0.657000
-0.208989  -0.172697  0.657000
-0.206800  -0.172960  0.658000
-0.205547  -0.172960  0.658000
-0.204293  -0.172960  0.658000
-0.203040  -0.172960  0.658000
-0.196857  -0.181109  0.689000
-0.195545  -0.181109  0.689000
-0.194514  -0.181371  0.690000
-0.193200  -0.181371  0.690000
-0.191886  -0.181371  0.690000
-0.190848  -0.181634  0.691000
-0.189531  -0.181634  0.691000
-0.188215  -0.181634  0.691000
-0.187440  -0.182160  0.693000
-0.186120  -0.182160  0.693000
-0.186133  -0.183474  0.698000
-0.184804  -0.183474  0.698000
-0.183474  -0.183474  0.698000
-0.182145  -0.183474  0.698000
-0.180815  -0.183474  0.698000
-0.179486  -0.183474  0.698000
-0.177135  -0.182423  0.694000
-0.175813  -0.182423  0.694000
-0.174240  -0.182160  0.693000
-0.172920  -0.182160  0.693000
-0.171600  -0.182160  0.693000
-0.170280  -0.182160  0.693000
-0.168960  -0.182160  0.693000
-0.167640  -0.182160  0.693000
-0.166320  -0.182160  0.693000
-0.165000  -0.182160  0.693000
-0.163208  -0.181634  0.691000
-0.161891  -0.181634  0.691000
-0.161040  -0.182160  0.693000
-0.159720  -0.182160  0.693000
-0.158400  -0.182160  0.693000
-0.157080  -0.182160  0.693000
-0.155760  -0.182160  0.693000
-0.153994  -0.181634  0.691000
-0.152678  -0.181634  0.691000
-0.151800  -0.182160  0.693000
-0.150480  -0.182160  0.693000
-0.149375  -0.182423  0.694000
-0.147840  -0.182160  0.693000
-0.146520  -0.182160  0.693000
-0.145410  -0.182423  0.694000
-0.144710  -0.183211  0.697000
-0.142766  -0.182423  0.694000
-0.141444  -0.182423  0.694000
-0.140930  -0.183474  0.698000
-0.140000  -0.184000  0.700000
-0.138667  -0.184000  0.700000
-0.136194  -0.184263  0.701000
-0.134859  -0.184263  0.701000
-0.132952  -0.183474  0.698000
-0.131623  -0.183474  0.698000
-0.129733  -0.182686  0.695000
-0.128410  -0.182686  0.695000
-0.127086  -0.182686  0.695000
-0.125581  -0.182423  0.694000
-0.124259  -0.182423  0.694000
-0.122937  -0.182423  0.694000
-0.121615  -0.182423  0.694000
-0.120293  -0.182423  0.694000
-0.118800  -0.182160  0.693000
-0.117480  -0.182160  0.693000
-0.116328  -0.182423  0.694000
-0.115669  -0.183474  0.698000
-0.114339  -0.183474  0.698000
-0.113010  -0.183474  0.698000
-0.111680  -0.183474  0.698000
-0.110350  -0.183474  0.698000
-0.108865  -0.183211  0.697000
-0.107537  -0.183211  0.697000
-0.106362  -0.183474  0.698000
-0.104430  -0.182423  0.694000
-0.102960  -0.182160  0.693000
-0.101640  -0.182160  0.693000
-0.100320  -0.182160  0.693000
-0.099000  -0.182160  0.693000
-0.097398  -0.181634  0.691000
-0.096082  -0.181634  0.691000
-0.094766  -0.181634  0.691000
-0.093314  -0.181371  0.690000
-0.092000  -0.181371  0.690000
-0.090686  -0.181371  0.690000
-0.089242  -0.181109  0.689000
-0.087930  -0.181109  0.689000
-0.086617  -0.181109  0.689000
-0.085057  -0.180583  0.687000
-0.083749  -0.180583  0.687000
-0.082440  -0.180583  0.687000
-0.081013  -0.180320  0.686000
-0.079707  -0.180320  0.686000
-0.078171  -0.179794  0.684000
-0.076869  -0.179794  0.684000
-0.075455  -0.179531  0.683000
-0.074154  -0.179531  0.683000
-0.072747  -0.179269  0.682000
-0.071238  -0.178743  0.680000
-0.069840  -0.178480  0.679000
-0.068547  -0.178480  0.679000
-0.067253  -0.178480  0.679000
-0.065863  -0.178217  0.678000
-0.064381  -0.177691  0.676000
-0.063093  -0.177691  0.676000
-0.061714  -0.177429  0.675000
-0.060339  -0.177166  0.674000
-0.059055  -0.177166  0.674000
-0.057771  -0.177166  0.674000
-0.056320  -0.176640  0.672000
-0.055040  -0.176640  0.672000
-0.053760  -0.176640  0.672000
-0.052480  -0.176640  0.672000
-0.051124  -0.176377  0.671000
-0.049771  -0.176114  0.670000
-0.048423  -0.175851  0.669000
-0.047149  -0.175851  0.669000
-0.045737  -0.175326  0.667000
-0.044467  -0.175326  0.667000
-0.043196  -0.175326  0.667000
-0.041800  -0.174800  0.665000
-0.040533  -0.174800  0.665000
-0.039149  -0.174274  0.663000
-0.037829  -0.174011  0.662000
-0.036568  -0.174011  0.662000
-0.035307  -0.174011  0.662000
-0.033994  -0.173749  0.661000
-0.032735  -0.173749  0.661000
-0.031476  -0.173749  0.661000
-0.030171  -0.173486  0.660000
-0.028914  -0.173486  0.660000
-0.027657  -0.173486  0.660000
-0.026320  -0.172960  0.658000
-0.025067  -0.172960  0.658000
-0.023777  -0.172697  0.657000
-0.022526  -0.172697  0.657000
-0.021242  -0.172434  0.656000
-0.019992  -0.172434  0.656000
-0.018743  -0.172434  0.656000
-0.017493  -0.172434  0.656000
-0.016219  -0.172171  0.655000
-0.014971  -0.172171  0.655000
-0.013724  -0.172171  0.655000
-0.012476  -0.172171  0.655000
-0.011229  -0.172171  0.655000
-0.009950  -0.171646  0.653000
-0.008693  -0.171383  0.652000
-0.007451  -0.171383  0.652000
-0.006200  -0.171120  0.651000
-0.004960  -0.171120  0.651000
-0.003714  -0.170857  0.650000
-0.002469  -0.170331  0.648000
-0.001234  -0.170331  0.648000
0.000000  -0.170331  0.648000
0.001234  -0.170331  0.648000
0.002469  -0.170331  0.648000
0.003714  -0.170857  0.650000
0.004952  -0.170857  0.650000
0.006190  -0.170857  0.650000
0.007440  -0.171120  0.651000
0.008693  -0.171383  0.652000
0.009950  -0.171646  0.653000
0.011229  -0.172171  0.655000
0.012743  -0.175851  0.669000
0.014017  -0.175851  0.669000
0.015314  -0.176114  0.670000
0.016615  -0.176377  0.671000
0.017920  -0.176640  0.672000
0.019257  -0.177166  0.674000
0.020571  -0.177429  0.675000
0.021857  -0.177429  0.675000
0.023246  -0.178217  0.678000
0.024754  -0.179794  0.684000
0.026248  -0.181109  0.689000
0.027560  -0.181109  0.689000
0.028956  -0.181634  0.691000
0.030360  -0.182160  0.693000
0.031680  -0.182160  0.693000
0.033095  -0.182686  0.695000
0.034518  -0.183211  0.697000
0.035897  -0.183474  0.698000
0.037333  -0.184000  0.700000
0.038667  -0.184000  0.700000
0.040000  -0.184000  0.700000
0.041215  -0.183474  0.698000
0.042362  -0.182686  0.695000
0.043623  -0.182423  0.694000
0.044945  -0.182423  0.694000
0.046333  -0.182686  0.695000
0.047863  -0.183474  0.698000
0.049545  -0.184789  0.703000
0.050884  -0.184789  0.703000
0.052223  -0.184789  0.703000
0.053562  -0.184789  0.703000
0.054667  -0.184000  0.700000
0.056000  -0.184000  0.700000
0.057415  -0.184263  0.701000
0.058667  -0.184000  0.700000
0.060000  -0.184000  0.700000
0.061333  -0.184000  0.700000
0.062756  -0.184263  0.701000
0.064457  -0.185314  0.705000
0.065800  -0.185314  0.705000
0.067143  -0.185314  0.705000
0.068486  -0.185314  0.705000
0.070027  -0.185840  0.707000
0.071474  -0.186103  0.708000
0.073029  -0.186629  0.710000
0.074381  -0.186629  0.710000
0.075733  -0.186629  0.710000
0.075457  -0.182686  0.695000
0.076781  -0.182686  0.695000
0.078105  -0.182686  0.695000
0.079657  -0.183211  0.697000
0.080985  -0.183211  0.697000
0.082312  -0.183211  0.697000
0.083640  -0.183211  0.697000
0.085090  -0.183474  0.698000
0.086667  -0.184000  0.700000
0.088377  -0.184789  0.703000
0.089716  -0.184789  0.703000
0.091314  -0.185314  0.705000
0.092657  -0.185314  0.705000
0.093467  -0.184263  0.701000
0.095208  -0.185051  0.704000
0.096549  -0.185051  0.704000
0.097750  -0.184789  0.703000
0.099090  -0.184789  0.703000
0.100143  -0.184263  0.701000
0.101478  -0.184263  0.701000
0.102813  -0.184263  0.701000
0.104149  -0.184263  0.701000
0.105484  -0.184263  0.701000
0.106819  -0.184263  0.701000
0.108463  -0.184789  0.703000
0.110114  -0.185314  0.705000
0.111773  -0.185840  0.707000
0.113280  -0.186103  0.708000
0.114952  -0.186629  0.710000
0.116305  -0.186629  0.710000
0.117657  -0.186629  0.710000
0.119010  -0.186629  0.710000
0.120023  -0.186103  0.708000
0.121371  -0.186103  0.708000
0.122547  -0.185840  0.707000
0.123543  -0.185314  0.705000
0.124531  -0.184789  0.703000
0.125870  -0.184789  0.703000
0.127210  -0.184789  0.703000
0.128549  -0.184789  0.703000
0.130072  -0.185051  0.704000
0.131227  -0.184789  0.703000
0.132566  -0.184789  0.703000
0.134095  -0.185051  0.704000
0.135436  -0.185051  0.704000
0.137360  -0.185840  0.707000
0.138707  -0.185840  0.707000
0.141440  -0.187680  0.714000
0.142800  -0.187680  0.714000
0.140728  -0.183211  0.697000
0.142055  -0.183211  0.697000
0.143383  -0.183211  0.697000
0.144710  -0.183211  0.697000
0.146038  -0.183211  0.697000
0.147366  -0.183211  0.697000
0.148693  -0.183211  0.697000
0.151528  -0.185051  0.704000
0.152869  -0.185051  0.704000
0.155524  -0.186629  0.710000
0.156876  -0.186629  0.710000
0.158451  -0.186891  0.711000
0.159581  -0.186629  0.710000
0.160933  -0.186629  0.710000
0.162514  -0.186891  0.711000
0.164330  -0.187417  0.713000
0.165688  -0.187417  0.713000
0.167046  -0.187417  0.713000
0.167931  -0.186891  0.711000
0.169286  -0.186891  0.711000
0.170640  -0.186891  0.711000
0.171994  -0.186891  0.711000
0.173105  -0.186629  0.710000
0.174457  -0.186629  0.710000
0.175810  -0.186629  0.710000
0.177162  -0.186629  0.710000
0.178514  -0.186629  0.710000
0.179867  -0.186629  0.710000
0.181219  -0.186629  0.710000
0.182571  -0.186629  0.710000
0.183406  -0.186103  0.708000
0.184493  -0.185840  0.707000
0.185840  -0.185840  0.707000
0.187187  -0.185840  0.707000
0.188533  -0.185840  0.707000
0.190149  -0.186103  0.708000
0.191497  -0.186103  0.708000
0.192846  -0.186103  0.708000
0.194194  -0.186103  0.708000
0.196095  -0.186629  0.710000
0.197726  -0.186891  0.711000
0.199080  -0.186891  0.711000
0.200434  -0.186891  0.711000
0.202356  -0.187417  0.713000
0.203143  -0.186891  0.711000
0.204210  -0.186629  0.710000
0.205562  -0.186629  0.710000
0.207206  -0.186891  0.711000
0.207680  -0.186103  0.708000
0.209029  -0.186103  0.708000
0.210971  -0.186629  0.710000
0.212623  -0.186891  0.711000
0.213977  -0.186891  0.711000
0.214423  -0.186103  0.708000
0.215771  -0.186103  0.708000
0.217120  -0.186103  0.708000
0.218469  -0.186103  0.708000
0.219817  -0.186103  0.708000
0.220853  -0.185840  0.707000
0.222200  -0.185840  0.707000
0.223863  -0.186103  0.708000
0.225211  -0.186103  0.708000
-0.401832  -0.178450  0.674000
-0.400549  -0.178450  0.674000
-0.399265  -0.178450  0.674000
-0.397981  -0.178450  0.674000
-0.396697  -0.178450  0.674000
-0.395413  -0.178450  0.674000
-0.394130  -0.178450  0.674000
-0.394011  -0.178979  0.676000
-0.393886  -0.179509  0.678000
-0.392594  -0.179509  0.678000
-0.391880  -0.179773  0.679000
-0.390587  -0.179773  0.679000
-0.391587  -0.180832  0.683000
-0.390286  -0.180832  0.683000
-0.381011  -0.177126  0.669000
-0.379737  -0.177126  0.669000
-0.384120  -0.179773  0.679000
-0.382827  -0.179773  0.679000
-0.381533  -0.179773  0.679000
-0.379680  -0.179509  0.678000
-0.377272  -0.178979  0.676000
-0.375985  -0.178979  0.676000
-0.374697  -0.178979  0.676000
-0.373410  -0.178979  0.676000
-0.372122  -0.178979  0.676000
-0.370834  -0.178979  0.676000
-0.369547  -0.178979  0.676000
-0.367714  -0.178714  0.675000
-0.366429  -0.178714  0.675000
-0.330880  -0.163093  0.616000
-0.329171  -0.162829  0.615000
-0.328000  -0.162829  0.615000
-0.327360  -0.163093  0.616000
-0.326187  -0.163093  0.616000
-0.325013  -0.163093  0.616000
-0.323840  -0.163093  0.616000
-0.322667  -0.163093  0.616000
-0.321493  -0.163093  0.616000
-0.296434  -0.157269  0.594000
-0.295303  -0.157269  0.594000
-0.294171  -0.157269  0.594000
-0.292547  -0.157004  0.593000
-0.291417  -0.157004  0.593000
-0.290288  -0.157004  0.593000
-0.289158  -0.157004  0.593000
-0.287057  -0.156474  0.591000
-0.277577  -0.152503  0.576000
-0.276480  -0.152503  0.576000
-0.274905  -0.152238  0.575000
-0.273810  -0.152238  0.575000
-0.272240  -0.151973  0.574000
-0.270674  -0.151709  0.573000
-0.269583  -0.151709  0.573000
-0.268023  -0.151444  0.572000
-0.266933  -0.151444  0.572000
-0.265844  -0.151444  0.572000
-0.264754  -0.151444  0.572000
-0.263665  -0.151444  0.572000
-0.262575  -0.151444  0.572000
-0.266057  -0.154091  0.582000
-0.264949  -0.154091  0.582000
-0.263387  -0.153827  0.581000
-0.262280  -0.153827  0.581000
-0.261623  -0.154091  0.582000
-0.260962  -0.154356  0.583000
-0.260297  -0.154621  0.584000
-0.259629  -0.154886  0.585000
-0.258956  -0.155150  0.586000
-0.258280  -0.155415  0.587000
-0.257162  -0.155415  0.587000
-0.256480  -0.155680  0.588000
-0.255794  -0.155945  0.589000
-0.255105  -0.156210  0.590000
-0.254411  -0.156474  0.591000
-0.253286  -0.156474  0.591000
-0.252587  -0.156739  0.592000
-0.251884  -0.157004  0.593000
-0.251177  -0.157269  0.594000
-0.250467  -0.157533  0.595000
-0.249752  -0.157798  0.596000
-0.249451  -0.158328  0.598000
-0.248728  -0.158592  0.599000
-0.248000  -0.158857  0.600000
-0.247269  -0.159122  0.601000
-0.246533  -0.159387  0.602000
-0.245794  -0.159651  0.603000
-0.244646  -0.159651  0.603000
-0.243497  -0.159651  0.603000
-0.242750  -0.159916  0.604000
-0.241600  -0.159916  0.604000
-0.241246  -0.160446  0.606000
-0.240488  -0.160710  0.607000
-0.239331  -0.160710  0.607000
-0.238568  -0.160975  0.608000
-0.238581  -0.161770  0.611000
-0.237806  -0.162034  0.612000
