# .PCD v.5 - Point Cloud Data file format
FIELDS x y z 
SIZE 4 4 4
TYPE F F F
COUNT 1 1 1
WIDTH 1603
HEIGHT 1
POINTS 1603
DATA ascii
-0.368198  0.011349  0.662000
-0.366937  0.011349  0.662000
-0.366229  0.011366  0.663000
-0.366067  0.011400  0.665000
-0.365349  0.011417  0.666000
-0.364080  0.011417  0.666000
-0.363356  0.011434  0.667000
-0.362086  0.011434  0.667000
-0.361897  0.011469  0.669000
-0.360623  0.011469  0.669000
-0.359886  0.011486  0.670000
-0.358610  0.011486  0.670000
-0.357867  0.011503  0.671000
-0.357120  0.011520  0.672000
-0.356899  0.011554  0.674000
-0.355615  0.011554  0.674000
-0.354857  0.011571  0.675000
-0.354095  0.011589  0.676000
-0.353851  0.011623  0.678000
-0.352560  0.011623  0.678000
-0.351787  0.011640  0.679000
-0.351010  0.011657  0.680000
-0.349714  0.011657  0.680000
-0.349444  0.011691  0.682000
-0.348655  0.011709  0.683000
-0.347354  0.011709  0.683000
-0.346560  0.011726  0.684000
-0.345257  0.011726  0.684000
-0.344960  0.011760  0.686000
-0.344154  0.011777  0.687000
-0.343844  0.011811  0.689000
-0.343029  0.011829  0.690000
-0.341714  0.011829  0.690000
-0.340893  0.011846  0.691000
-0.339577  0.011846  0.691000
-0.339240  0.011880  0.693000
-0.337920  0.011880  0.693000
-0.337086  0.011897  0.694000
-0.336248  0.011914  0.695000
-0.334924  0.011914  0.695000
-0.334560  0.011949  0.697000
-0.333710  0.011966  0.698000
-0.332381  0.011966  0.698000
-0.332000  0.012000  0.700000
-0.331139  0.012017  0.701000
-0.330745  0.012051  0.703000
-0.329874  0.012069  0.704000
-0.329000  0.012086  0.705000
-0.328587  0.012120  0.707000
-0.327240  0.012120  0.707000
-0.326354  0.012137  0.708000
-0.325006  0.012137  0.708000
-0.324571  0.012171  0.710000
-0.323219  0.012171  0.710000
-0.322320  0.012189  0.711000
-0.321869  0.012223  0.713000
-0.320960  0.012240  0.714000
-0.319600  0.012240  0.714000
-0.318240  0.012240  0.714000
-0.317768  0.012274  0.716000
-0.316846  0.012291  0.717000
-0.316360  0.012326  0.719000
-0.314990  0.012326  0.719000
-0.314057  0.012343  0.720000
-0.312686  0.012343  0.720000
-0.311314  0.012343  0.720000
-0.310804  0.012377  0.722000
-0.309429  0.012377  0.722000
-0.309333  0.012429  0.725000
-0.308377  0.012446  0.726000
-0.308263  0.012497  0.729000
-0.307716  0.012531  0.731000
-0.306324  0.012531  0.731000
-0.305349  0.012549  0.732000
-0.303954  0.012549  0.732000
-0.303387  0.012583  0.734000
-0.302811  0.012617  0.736000
-0.301819  0.012634  0.737000
-0.300415  0.012634  0.737000
-0.299011  0.012634  0.737000
-0.298415  0.012669  0.739000
-0.297410  0.012686  0.740000
-0.296000  0.012686  0.740000
-0.295387  0.012720  0.742000
-0.294370  0.012737  0.743000
-0.293743  0.012771  0.745000
-0.292324  0.012771  0.745000
-0.291686  0.012806  0.747000
-0.290651  0.012823  0.748000
-0.289227  0.012823  0.748000
-0.288571  0.012857  0.750000
-0.287909  0.012891  0.752000
-0.286857  0.012909  0.753000
-0.285423  0.012909  0.753000
-0.284743  0.012943  0.755000
-0.283680  0.012960  0.756000
-0.282987  0.012994  0.758000
-0.282286  0.013029  0.760000
-0.280838  0.013029  0.760000
-0.279758  0.013046  0.761000
-0.279040  0.013080  0.763000
-0.187000  0.014143  0.825000
-0.185429  0.014143  0.825000
-0.183857  0.014143  0.825000
-0.181402  0.014074  0.821000
-0.179838  0.014074  0.821000
-0.178274  0.014074  0.821000
-0.175419  0.013971  0.815000
-0.173227  0.013920  0.812000
-0.170834  0.013851  0.808000
-0.169295  0.013851  0.808000
-0.167756  0.013851  0.808000
-0.165806  0.013817  0.806000
-0.164270  0.013817  0.806000
-0.162331  0.013783  0.804000
-0.160800  0.013783  0.804000
-0.158872  0.013749  0.802000
-0.156952  0.013714  0.800000
-0.155429  0.013714  0.800000
-0.153520  0.013680  0.798000
-0.151048  0.013594  0.793000
-0.148594  0.013509  0.788000
-0.146720  0.013474  0.786000
-0.145223  0.013474  0.786000
-0.143360  0.013440  0.784000
-0.141867  0.013440  0.784000
-0.140373  0.013440  0.784000
-0.138526  0.013406  0.782000
-0.137036  0.013406  0.782000
-0.135547  0.013406  0.782000
-0.106143  0.012737  0.743000
-0.104587  0.012720  0.742000
-0.102895  0.012686  0.740000
-0.101486  0.012686  0.740000
-0.100076  0.012686  0.740000
-0.098667  0.012686  0.740000
-0.097257  0.012686  0.740000
-0.095848  0.012686  0.740000
-0.094438  0.012686  0.740000
-0.093280  0.012720  0.742000
-0.091990  0.012737  0.743000
-0.090819  0.012771  0.745000
-0.077737  0.012274  0.716000
-0.076373  0.012274  0.716000
-0.074695  0.012223  0.713000
-0.073029  0.012171  0.710000
-0.071474  0.012137  0.708000
-0.070126  0.012137  0.708000
-0.068680  0.012120  0.707000
-0.067143  0.012086  0.705000
-0.065707  0.012069  0.704000
-0.064366  0.012069  0.704000
-0.062935  0.012051  0.703000
-0.061596  0.012051  0.703000
-0.060086  0.012017  0.701000
-0.058667  0.012000  0.700000
-0.057170  0.011966  0.698000
-0.055760  0.011949  0.697000
-0.054276  0.011914  0.695000
-0.052876  0.011897  0.694000
-0.051554  0.011897  0.694000
-0.050232  0.011897  0.694000
-0.048910  0.011897  0.694000
-0.021404  0.011331  0.661000
-0.020145  0.011331  0.661000
-0.018886  0.011331  0.661000
-0.017627  0.011331  0.661000
-0.016343  0.011314  0.660000
-0.015086  0.011314  0.660000
-0.013829  0.011314  0.660000
-0.012571  0.011314  0.660000
-0.011280  0.011280  0.658000
-0.010011  0.011263  0.657000
-0.008760  0.011263  0.657000
-0.007509  0.011263  0.657000
-0.006257  0.011263  0.657000
-0.004937  0.011109  0.648000
-0.003697  0.011091  0.647000
-0.002461  0.011074  0.646000
-0.001227  0.011040  0.644000
0.000000  0.011040  0.644000
0.001223  0.011006  0.642000
0.002446  0.011006  0.642000
0.003663  0.010989  0.641000
0.004876  0.010971  0.640000
0.006076  0.010937  0.638000
0.007291  0.010937  0.638000
0.008480  0.010903  0.636000
0.009676  0.010886  0.635000
0.010869  0.010869  0.634000
0.012076  0.010869  0.634000
0.013284  0.010869  0.634000
0.014491  0.010869  0.634000
0.015724  0.010886  0.635000
0.016933  0.010886  0.635000
0.018143  0.010886  0.635000
0.019352  0.010886  0.635000
0.020594  0.010903  0.636000
0.021874  0.010937  0.638000
0.023090  0.010937  0.638000
0.024305  0.010937  0.638000
0.025560  0.010954  0.639000
0.026777  0.010954  0.639000
0.028038  0.010971  0.640000
0.029303  0.010989  0.641000
0.030571  0.011006  0.642000
0.031794  0.011006  0.642000
0.033120  0.011040  0.644000
0.034400  0.011057  0.645000
0.035684  0.011074  0.646000
0.036971  0.011091  0.647000
0.038263  0.011109  0.648000
0.039619  0.011143  0.650000
0.040983  0.011177  0.652000
0.042225  0.011177  0.652000
0.043533  0.011194  0.653000
0.044914  0.011229  0.655000
0.046303  0.011263  0.657000
0.047627  0.011280  0.658000
0.048880  0.011280  0.658000
0.050133  0.011280  0.658000
-0.403025  0.010301  0.676000
-0.400549  0.010270  0.674000
-0.396895  0.010210  0.670000
-0.393848  0.010164  0.667000
-0.391400  0.010133  0.665000
-0.390133  0.010133  0.665000
-0.387112  0.010088  0.662000
-0.385269  0.010072  0.661000
-0.381686  0.010011  0.657000
-0.379855  0.009996  0.656000
-0.378029  0.009981  0.655000
-0.376781  0.009981  0.655000
-0.375533  0.009981  0.655000
-0.374286  0.009981  0.655000
-0.373038  0.009981  0.655000
-0.372358  0.009996  0.656000
-0.371109  0.009996  0.656000
-0.370423  0.010011  0.657000
-0.369733  0.010027  0.658000
-0.369600  0.010057  0.660000
-0.368343  0.010057  0.660000
-0.367642  0.010072  0.661000
-0.366937  0.010088  0.662000
-0.366229  0.010103  0.663000
-0.366067  0.010133  0.665000
-0.365349  0.010149  0.666000
-0.364080  0.010149  0.666000
-0.363356  0.010164  0.667000
-0.362086  0.010164  0.667000
-0.361897  0.010194  0.669000
-0.361162  0.010210  0.670000
-0.359886  0.010210  0.670000
-0.359145  0.010225  0.671000
-0.358400  0.010240  0.672000
-0.357120  0.010240  0.672000
-0.356899  0.010270  0.674000
-0.356143  0.010286  0.675000
-0.354857  0.010286  0.675000
-0.354095  0.010301  0.676000
-0.353851  0.010331  0.678000
-0.352560  0.010331  0.678000
-0.351787  0.010347  0.679000
-0.351010  0.010362  0.680000
-0.349714  0.010362  0.680000
-0.349444  0.010392  0.682000
-0.348655  0.010408  0.683000
-0.347863  0.010423  0.684000
-0.346560  0.010423  0.684000
-0.346267  0.010453  0.686000
-0.345463  0.010469  0.687000
-0.345156  0.010499  0.689000
-0.343844  0.010499  0.689000
-0.343029  0.010514  0.690000
-0.341714  0.010514  0.690000
-0.340893  0.010530  0.691000
-0.339577  0.010530  0.691000
-0.339240  0.010560  0.693000
-0.337920  0.010560  0.693000
-0.337086  0.010575  0.694000
-0.336248  0.010590  0.695000
-0.335888  0.010621  0.697000
-0.334560  0.010621  0.697000
-0.333710  0.010636  0.698000
-0.333333  0.010667  0.700000
-0.332000  0.010667  0.700000
-0.331139  0.010682  0.701000
-0.330745  0.010712  0.703000
-0.329874  0.010728  0.704000
-0.329000  0.010743  0.705000
-0.328587  0.010773  0.707000
-0.327240  0.010773  0.707000
-0.326354  0.010789  0.708000
-0.325006  0.010789  0.708000
-0.324571  0.010819  0.710000
-0.323219  0.010819  0.710000
-0.322320  0.010834  0.711000
-0.321869  0.010865  0.713000
-0.320960  0.010880  0.714000
-0.319600  0.010880  0.714000
-0.318240  0.010880  0.714000
-0.317768  0.010910  0.716000
-0.316846  0.010926  0.717000
-0.316360  0.010956  0.719000
-0.314990  0.010956  0.719000
-0.314057  0.010971  0.720000
-0.312686  0.010971  0.720000
-0.311314  0.010971  0.720000
-0.310804  0.011002  0.722000
-0.309857  0.011017  0.723000
-0.309333  0.011048  0.725000
-0.308377  0.011063  0.726000
-0.308263  0.011109  0.729000
-0.307716  0.011139  0.731000
-0.306324  0.011139  0.731000
-0.305349  0.011154  0.732000
-0.303954  0.011154  0.732000
-0.303387  0.011185  0.734000
-0.302811  0.011215  0.736000
-0.301819  0.011230  0.737000
-0.300415  0.011230  0.737000
-0.299011  0.011230  0.737000
-0.298415  0.011261  0.739000
-0.297410  0.011276  0.740000
-0.296000  0.011276  0.740000
-0.295387  0.011307  0.742000
-0.294370  0.011322  0.743000
-0.293743  0.011352  0.745000
-0.292324  0.011352  0.745000
-0.291686  0.011383  0.747000
-0.290651  0.011398  0.748000
-0.289227  0.011398  0.748000
-0.288571  0.011429  0.750000
-0.287909  0.011459  0.752000
-0.286857  0.011474  0.753000
-0.286181  0.011505  0.755000
-0.285120  0.011520  0.756000
-0.284430  0.011550  0.758000
-0.282987  0.011550  0.758000
-0.282286  0.011581  0.760000
-0.281208  0.011596  0.761000
-0.279758  0.011596  0.761000
-0.279040  0.011627  0.763000
-0.371640  0.018240  1.197000
-0.369360  0.018240  1.197000
-0.367080  0.018240  1.197000
-0.364800  0.018240  1.197000
-0.362520  0.018240  1.197000
-0.189943  0.012663  0.831000
-0.188360  0.012663  0.831000
-0.185878  0.012602  0.827000
-0.183857  0.012571  0.825000
-0.181844  0.012541  0.823000
-0.180276  0.012541  0.823000
-0.178274  0.012510  0.821000
-0.176710  0.012510  0.821000
-0.173653  0.012404  0.814000
-0.171257  0.012343  0.810000
-0.169295  0.012312  0.808000
-0.167756  0.012312  0.808000
-0.165806  0.012282  0.806000
-0.164270  0.012282  0.806000
-0.162331  0.012251  0.804000
-0.160800  0.012251  0.804000
-0.158872  0.012221  0.802000
-0.157345  0.012221  0.802000
-0.155817  0.012221  0.802000
-0.153905  0.012190  0.800000
-0.151429  0.012114  0.795000
-0.148594  0.012008  0.788000
-0.146720  0.011977  0.786000
-0.145223  0.011977  0.786000
-0.143360  0.011947  0.784000
-0.141867  0.011947  0.784000
-0.140373  0.011947  0.784000
-0.138526  0.011916  0.782000
-0.136686  0.011886  0.780000
-0.135027  0.011870  0.779000
-0.133543  0.011870  0.779000
-0.104728  0.011322  0.743000
-0.102895  0.011276  0.740000
-0.101486  0.011276  0.740000
-0.100076  0.011276  0.740000
-0.098667  0.011276  0.740000
-0.097257  0.011276  0.740000
-0.095848  0.011276  0.740000
-0.094438  0.011276  0.740000
-0.093280  0.011307  0.742000
-0.091990  0.011322  0.743000
-0.078063  0.010956  0.719000
-0.076053  0.010865  0.713000
-0.074695  0.010865  0.713000
-0.073029  0.010819  0.710000
-0.071474  0.010789  0.708000
-0.070126  0.010789  0.708000
-0.068680  0.010773  0.707000
-0.067143  0.010743  0.705000
-0.065707  0.010728  0.704000
-0.064366  0.010728  0.704000
-0.062935  0.010712  0.703000
-0.061596  0.010712  0.703000
-0.060086  0.010682  0.701000
-0.058667  0.010667  0.700000
-0.057170  0.010636  0.698000
-0.055760  0.010621  0.697000
-0.054276  0.010590  0.695000
-0.052876  0.010575  0.694000
-0.051554  0.010575  0.694000
-0.050232  0.010575  0.694000
-0.048981  0.010590  0.695000
-0.021404  0.010072  0.661000
-0.020145  0.010072  0.661000
-0.018886  0.010072  0.661000
-0.017627  0.010072  0.661000
-0.016368  0.010072  0.661000
-0.015109  0.010072  0.661000
-0.013829  0.010057  0.660000
-0.012571  0.010057  0.660000
-0.011229  0.009981  0.655000
-0.009981  0.009981  0.655000
-0.008693  0.009935  0.652000
-0.007451  0.009935  0.652000
-0.006210  0.009935  0.652000
-0.004937  0.009874  0.648000
-0.003697  0.009859  0.647000
-0.002461  0.009844  0.646000
-0.001227  0.009813  0.644000
0.000000  0.009813  0.644000
0.001223  0.009783  0.642000
0.002446  0.009783  0.642000
0.003669  0.009783  0.642000
0.004884  0.009768  0.641000
0.006086  0.009737  0.639000
0.007291  0.009722  0.638000
0.008480  0.009691  0.636000
0.009676  0.009676  0.635000
0.010869  0.009661  0.634000
0.012076  0.009661  0.634000
0.013284  0.009661  0.634000
0.014491  0.009661  0.634000
0.015724  0.009676  0.635000
0.016933  0.009676  0.635000
0.018143  0.009676  0.635000
0.019383  0.009691  0.636000
0.020594  0.009691  0.636000
0.021874  0.009722  0.638000
0.023090  0.009722  0.638000
0.024305  0.009722  0.638000
0.025560  0.009737  0.639000
0.026777  0.009737  0.639000
0.028038  0.009752  0.640000
0.029303  0.009768  0.641000
0.030571  0.009783  0.642000
0.031794  0.009783  0.642000
0.033120  0.009813  0.644000
0.034507  0.009859  0.647000
0.035739  0.009859  0.647000
0.037029  0.009874  0.648000
0.038263  0.009874  0.648000
0.039680  0.009920  0.651000
0.040983  0.009935  0.652000
0.042225  0.009935  0.652000
0.043533  0.009950  0.653000
0.044914  0.009981  0.655000
0.046303  0.010011  0.657000
0.047627  0.010027  0.658000
0.048880  0.010027  0.658000
0.050133  0.010027  0.658000
-0.404217  0.009040  0.678000
-0.401143  0.009000  0.675000
-0.398080  0.008960  0.672000
-0.393848  0.008893  0.667000
-0.391989  0.008880  0.666000
-0.390133  0.008867  0.665000
-0.387112  0.008827  0.662000
-0.385269  0.008813  0.661000
-0.381686  0.008760  0.657000
-0.379855  0.008747  0.656000
-0.378606  0.008747  0.656000
-0.376781  0.008733  0.655000
-0.375533  0.008733  0.655000
-0.374286  0.008733  0.655000
-0.373038  0.008733  0.655000
-0.372358  0.008747  0.656000
-0.371674  0.008760  0.657000
-0.370423  0.008760  0.657000
-0.369733  0.008773  0.658000
-0.369600  0.008800  0.660000
-0.368343  0.008800  0.660000
-0.367642  0.008813  0.661000
-0.366383  0.008813  0.661000
-0.365676  0.008827  0.662000
-0.366067  0.008867  0.665000
-0.365349  0.008880  0.666000
-0.364080  0.008880  0.666000
-0.363356  0.008893  0.667000
-0.362086  0.008893  0.667000
-0.361897  0.008920  0.669000
-0.361162  0.008933  0.670000
-0.359886  0.008933  0.670000
-0.359145  0.008947  0.671000
-0.358400  0.008960  0.672000
-0.357120  0.008960  0.672000
-0.356899  0.008987  0.674000
-0.356143  0.009000  0.675000
-0.354857  0.009000  0.675000
-0.354095  0.009013  0.676000
-0.353851  0.009040  0.678000
-0.353080  0.009053  0.679000
-0.351787  0.009053  0.679000
-0.351010  0.009067  0.680000
-0.350743  0.009093  0.682000
-0.349956  0.009107  0.683000
-0.348655  0.009107  0.683000
-0.347863  0.009120  0.684000
-0.346560  0.009120  0.684000
-0.346267  0.009147  0.686000
-0.345463  0.009160  0.687000
-0.345156  0.009187  0.689000
-0.344343  0.009200  0.690000
-0.343029  0.009200  0.690000
-0.341714  0.009200  0.690000
-0.340893  0.009213  0.691000
-0.339577  0.009213  0.691000
-0.339240  0.009240  0.693000
-0.338408  0.009253  0.694000
-0.337086  0.009253  0.694000
-0.336248  0.009267  0.695000
-0.335888  0.009293  0.697000
-0.335040  0.009307  0.698000
-0.334667  0.009333  0.700000
-0.333333  0.009333  0.700000
-0.332000  0.009333  0.700000
-0.331139  0.009347  0.701000
-0.330745  0.009373  0.703000
-0.329874  0.009387  0.704000
-0.329000  0.009400  0.705000
-0.328587  0.009427  0.707000
-0.327240  0.009427  0.707000
-0.326354  0.009440  0.708000
-0.325006  0.009440  0.708000
-0.323657  0.009440  0.708000
-0.322309  0.009440  0.708000
-0.322320  0.009480  0.711000
-0.321869  0.009507  0.713000
-0.320960  0.009520  0.714000
-0.319600  0.009520  0.714000
-0.319131  0.009547  0.716000
-0.318211  0.009560  0.717000
-0.316846  0.009560  0.717000
-0.316360  0.009587  0.719000
-0.315429  0.009600  0.720000
-0.314057  0.009600  0.720000
-0.312686  0.009600  0.720000
-0.311314  0.009600  0.720000
-0.310804  0.009627  0.722000
-0.309857  0.009640  0.723000
-0.309760  0.009680  0.726000
-0.308377  0.009680  0.726000
-0.308263  0.009720  0.729000
-0.307716  0.009747  0.731000
-0.306324  0.009747  0.731000
-0.305349  0.009760  0.732000
-0.303954  0.009760  0.732000
-0.303387  0.009787  0.734000
-0.303223  0.009827  0.737000
-0.301819  0.009827  0.737000
-0.300415  0.009827  0.737000
-0.299823  0.009853  0.739000
-0.298819  0.009867  0.740000
-0.298213  0.009893  0.742000
-0.296800  0.009893  0.742000
-0.295785  0.009907  0.743000
-0.294370  0.009907  0.743000
-0.293743  0.009933  0.745000
-0.292324  0.009933  0.745000
-0.291686  0.009960  0.747000
-0.290651  0.009973  0.748000
-0.290000  0.010000  0.750000
-0.288571  0.010000  0.750000
-0.287909  0.010027  0.752000
-0.286857  0.010040  0.753000
-0.286181  0.010067  0.755000
-0.285120  0.010080  0.756000
-0.284430  0.010107  0.758000
-0.282987  0.010107  0.758000
-0.282286  0.010133  0.760000
-0.280838  0.010133  0.760000
-0.279758  0.010147  0.761000
-0.279040  0.010173  0.763000
-0.378480  0.015960  1.197000
-0.376200  0.015960  1.197000
-0.373920  0.015960  1.197000
-0.369156  0.015853  1.189000
-0.366891  0.015853  1.189000
-0.364627  0.015853  1.189000
-0.362362  0.015853  1.189000
-0.360097  0.015853  1.189000
-0.357832  0.015853  1.189000
-0.357960  0.015960  1.197000
-0.355680  0.015960  1.197000
-0.353400  0.015960  1.197000
-0.328320  0.015960  1.197000
-0.326040  0.015960  1.197000
-0.191526  0.011080  0.831000
-0.189943  0.011080  0.831000
-0.188360  0.011080  0.831000
-0.185878  0.011027  0.827000
-0.183857  0.011000  0.825000
-0.182286  0.011000  0.825000
-0.180276  0.010973  0.823000
-0.178274  0.010947  0.821000
-0.176280  0.010920  0.819000
-0.173653  0.010853  0.814000
-0.171680  0.010827  0.812000
-0.169714  0.010800  0.810000
-0.167756  0.010773  0.808000
-0.165806  0.010747  0.806000
-0.164270  0.010747  0.806000
-0.162331  0.010720  0.804000
-0.160800  0.010720  0.804000
-0.158872  0.010693  0.802000
-0.157345  0.010693  0.802000
-0.155429  0.010667  0.800000
-0.153905  0.010667  0.800000
-0.151429  0.010600  0.795000
-0.148594  0.010507  0.788000
-0.147093  0.010507  0.788000
-0.145223  0.010480  0.786000
-0.143360  0.010453  0.784000
-0.141867  0.010453  0.784000
-0.140015  0.010427  0.782000
-0.138171  0.010400  0.780000
-0.136686  0.010400  0.780000
-0.134680  0.010360  0.777000
-0.133200  0.010360  0.777000
-0.131381  0.010333  0.775000
-0.129905  0.010333  0.775000
-0.104728  0.009907  0.743000
-0.102895  0.009867  0.740000
-0.101486  0.009867  0.740000
-0.100076  0.009867  0.740000
-0.098667  0.009867  0.740000
-0.097257  0.009867  0.740000
-0.095718  0.009853  0.739000
-0.094310  0.009853  0.739000
-0.093280  0.009893  0.742000
-0.091990  0.009907  0.743000
-0.082286  0.009600  0.720000
-0.080914  0.009600  0.720000
-0.079543  0.009600  0.720000
-0.078063  0.009587  0.719000
-0.076480  0.009560  0.717000
-0.075114  0.009560  0.717000
-0.073440  0.009520  0.714000
-0.071474  0.009440  0.708000
-0.070126  0.009440  0.708000
-0.068680  0.009427  0.707000
-0.067048  0.009387  0.704000
-0.065613  0.009373  0.703000
-0.064274  0.009373  0.703000
-0.063025  0.009387  0.704000
-0.061596  0.009373  0.703000
-0.060086  0.009347  0.701000
-0.058499  0.009307  0.698000
-0.057088  0.009293  0.697000
-0.055600  0.009267  0.695000
-0.054276  0.009267  0.695000
-0.052876  0.009253  0.694000
-0.051554  0.009253  0.694000
-0.050232  0.009253  0.694000
-0.048981  0.009267  0.695000
-0.047657  0.009267  0.695000
-0.021404  0.008813  0.661000
-0.020145  0.008813  0.661000
-0.018914  0.008827  0.662000
-0.017627  0.008813  0.661000
-0.016368  0.008813  0.661000
-0.015109  0.008813  0.661000
-0.013829  0.008800  0.660000
-0.012438  0.008707  0.653000
-0.011194  0.008707  0.653000
-0.009950  0.008707  0.653000
-0.008693  0.008693  0.652000
-0.007451  0.008693  0.652000
-0.006210  0.008693  0.652000
-0.004952  0.008667  0.650000
-0.003703  0.008640  0.648000
-0.002465  0.008627  0.647000
-0.001229  0.008600  0.645000
0.000000  0.008600  0.645000
0.001227  0.008587  0.644000
0.002453  0.008587  0.644000
0.003669  0.008560  0.642000
0.004884  0.008547  0.641000
0.006095  0.008533  0.640000
0.007291  0.008507  0.638000
0.008480  0.008480  0.636000
0.009691  0.008480  0.636000
0.010886  0.008467  0.635000
0.012095  0.008467  0.635000
0.013284  0.008453  0.634000
0.014491  0.008453  0.634000
0.015724  0.008467  0.635000
0.016933  0.008467  0.635000
0.018143  0.008467  0.635000
0.019383  0.008480  0.636000
0.020594  0.008480  0.636000
0.021874  0.008507  0.638000
0.023090  0.008507  0.638000
0.024343  0.008520  0.639000
0.025560  0.008520  0.639000
0.026777  0.008520  0.639000
0.028038  0.008533  0.640000
0.029303  0.008547  0.641000
0.030571  0.008560  0.642000
0.031893  0.008587  0.644000
0.033171  0.008600  0.645000
0.034507  0.008627  0.647000
0.035739  0.008627  0.647000
0.037029  0.008640  0.648000
0.038263  0.008640  0.648000
0.039680  0.008680  0.651000
0.040983  0.008693  0.652000
0.042225  0.008693  0.652000
0.043533  0.008707  0.653000
0.044914  0.008733  0.655000
0.046373  0.008773  0.658000
0.047627  0.008773  0.658000
0.049029  0.008800  0.660000
0.050286  0.008800  0.660000
-0.404217  0.007749  0.678000
-0.401143  0.007714  0.675000
-0.399265  0.007703  0.674000
-0.395029  0.007646  0.669000
-0.391989  0.007611  0.666000
-0.390133  0.007600  0.665000
-0.387697  0.007577  0.663000
-0.385851  0.007566  0.662000
-0.383429  0.007543  0.660000
-0.382171  0.007543  0.660000
-0.379183  0.007509  0.657000
-0.377356  0.007497  0.656000
-0.376107  0.007497  0.656000
-0.374857  0.007497  0.656000
-0.373608  0.007497  0.656000
-0.372926  0.007509  0.657000
-0.372240  0.007520  0.658000
-0.370987  0.007520  0.658000
-0.369733  0.007520  0.658000
-0.369600  0.007543  0.660000
-0.368343  0.007543  0.660000
-0.367642  0.007554  0.661000
-0.366383  0.007554  0.661000
-0.365676  0.007566  0.662000
-0.366067  0.007600  0.665000
-0.365349  0.007611  0.666000
-0.364080  0.007611  0.666000
-0.363356  0.007623  0.667000
-0.363171  0.007646  0.669000
-0.361897  0.007646  0.669000
-0.361162  0.007657  0.670000
-0.359886  0.007657  0.670000
-0.359145  0.007669  0.671000
-0.358400  0.007680  0.672000
-0.357120  0.007680  0.672000
-0.356899  0.007703  0.674000
-0.356143  0.007714  0.675000
-0.355383  0.007726  0.676000
-0.354095  0.007726  0.676000
-0.353851  0.007749  0.678000
-0.353080  0.007760  0.679000
-0.352305  0.007771  0.680000
-0.351010  0.007771  0.680000
-0.350743  0.007794  0.682000
-0.349956  0.007806  0.683000
-0.348655  0.007806  0.683000
-0.347863  0.007817  0.684000
-0.347573  0.007840  0.686000
-0.346267  0.007840  0.686000
-0.345463  0.007851  0.687000
-0.345156  0.007874  0.689000
-0.344343  0.007886  0.690000
-0.343029  0.007886  0.690000
-0.341714  0.007886  0.690000
-0.340893  0.007897  0.691000
-0.339577  0.007897  0.691000
-0.339240  0.007920  0.693000
-0.338408  0.007931  0.694000
-0.337571  0.007943  0.695000
-0.336248  0.007943  0.695000
-0.335888  0.007966  0.697000
-0.335040  0.007977  0.698000
-0.334667  0.008000  0.700000
-0.333810  0.008011  0.701000
-0.332474  0.008011  0.701000
-0.331139  0.008011  0.701000
-0.330745  0.008034  0.703000
-0.329874  0.008046  0.704000
-0.329000  0.008057  0.705000
-0.328587  0.008080  0.707000
-0.327240  0.008080  0.707000
-0.326354  0.008091  0.708000
-0.325006  0.008091  0.708000
-0.323657  0.008091  0.708000
-0.322309  0.008091  0.708000
-0.322320  0.008126  0.711000
-0.321869  0.008149  0.713000
-0.320960  0.008160  0.714000
-0.319600  0.008160  0.714000
-0.319131  0.008183  0.716000
-0.318211  0.008194  0.717000
-0.316846  0.008194  0.717000
-0.316360  0.008217  0.719000
-0.315429  0.008229  0.720000
-0.314057  0.008229  0.720000
-0.313554  0.008251  0.722000
-0.312179  0.008251  0.722000
-0.311234  0.008263  0.723000
-0.311143  0.008297  0.726000
-0.309760  0.008297  0.726000
-0.309227  0.008320  0.728000
-0.308263  0.008331  0.729000
-0.307716  0.008354  0.731000
-0.306324  0.008354  0.731000
-0.305349  0.008366  0.732000
-0.303954  0.008366  0.732000
-0.304213  0.008411  0.736000
-0.303223  0.008423  0.737000
-0.302638  0.008446  0.739000
-0.301230  0.008446  0.739000
-0.300229  0.008457  0.740000
-0.299627  0.008480  0.742000
-0.298615  0.008491  0.743000
-0.297200  0.008491  0.743000
-0.295785  0.008491  0.743000
-0.295162  0.008514  0.745000
-0.293743  0.008514  0.745000
-0.292324  0.008514  0.745000
-0.291686  0.008537  0.747000
-0.290651  0.008549  0.748000
-0.290000  0.008571  0.750000
-0.288571  0.008571  0.750000
-0.287909  0.008594  0.752000
-0.286857  0.008606  0.753000
-0.286181  0.008629  0.755000
-0.285120  0.008640  0.756000
-0.284430  0.008663  0.758000
-0.282987  0.008663  0.758000
-0.282286  0.008686  0.760000
-0.280838  0.008686  0.760000
-0.279758  0.008697  0.761000
-0.379829  0.013406  1.173000
-0.377594  0.013406  1.173000
-0.373421  0.013497  1.181000
-0.371171  0.013497  1.181000
-0.370171  0.013543  1.185000
-0.369156  0.013589  1.189000
-0.366891  0.013589  1.189000
-0.363400  0.013543  1.185000
-0.361143  0.013543  1.185000
-0.358886  0.013543  1.185000
-0.357832  0.013589  1.189000
-0.356764  0.013634  1.193000
-0.354491  0.013634  1.193000
-0.353400  0.013680  1.197000
-0.335143  0.013406  1.173000
-0.332909  0.013406  1.173000
-0.328320  0.013680  1.197000
-0.324950  0.013634  1.193000
-0.322678  0.013634  1.193000
-0.312360  0.013680  1.197000
-0.310080  0.013680  1.197000
-0.307800  0.013680  1.197000
-0.294419  0.013589  1.189000
-0.292154  0.013589  1.189000
-0.191526  0.009497  0.831000
-0.189943  0.009497  0.831000
-0.188360  0.009497  0.831000
-0.186328  0.009474  0.829000
-0.184303  0.009451  0.827000
-0.182286  0.009429  0.825000
-0.180276  0.009406  0.823000
-0.178274  0.009383  0.821000
-0.176280  0.009360  0.819000
-0.173867  0.009314  0.815000
-0.172103  0.009303  0.814000
-0.170133  0.009280  0.812000
-0.168171  0.009257  0.810000
-0.166217  0.009234  0.808000
-0.164270  0.009211  0.806000
-0.162331  0.009189  0.804000
-0.160800  0.009189  0.804000
-0.159269  0.009189  0.804000
-0.157345  0.009166  0.802000
-0.155429  0.009143  0.800000
-0.153520  0.009120  0.798000
-0.151429  0.009086  0.795000
-0.149160  0.009040  0.791000
-0.147280  0.009017  0.789000
-0.145592  0.009006  0.788000
-0.143360  0.008960  0.784000
-0.141505  0.008937  0.782000
-0.140015  0.008937  0.782000
-0.138171  0.008914  0.780000
-0.136510  0.008903  0.779000
-0.134680  0.008880  0.777000
-0.133200  0.008880  0.777000
-0.131381  0.008857  0.775000
-0.129905  0.008857  0.775000
-0.114362  0.008686  0.760000
-0.112914  0.008686  0.760000
-0.111467  0.008686  0.760000
-0.106000  0.008480  0.742000
-0.104587  0.008480  0.742000
-0.102895  0.008457  0.740000
-0.101486  0.008457  0.740000
-0.100076  0.008457  0.740000
-0.098533  0.008446  0.739000
-0.096863  0.008423  0.737000
-0.095459  0.008423  0.737000
-0.094055  0.008423  0.737000
-0.082286  0.008229  0.720000
-0.080914  0.008229  0.720000
-0.079543  0.008229  0.720000
-0.078063  0.008217  0.719000
-0.076480  0.008194  0.717000
-0.075114  0.008194  0.717000
-0.073440  0.008160  0.714000
-0.071777  0.008126  0.711000
-0.070423  0.008126  0.711000
-0.069263  0.008149  0.713000
-0.067048  0.008046  0.704000
-0.065613  0.008034  0.703000
-0.064274  0.008034  0.703000
-0.063025  0.008046  0.704000
-0.061596  0.008034  0.703000
-0.060086  0.008011  0.701000
-0.058499  0.007977  0.698000
-0.057088  0.007966  0.697000
-0.055600  0.007943  0.695000
-0.054276  0.007943  0.695000
-0.052876  0.007931  0.694000
-0.051554  0.007931  0.694000
-0.050232  0.007931  0.694000
-0.048981  0.007943  0.695000
-0.047657  0.007943  0.695000
-0.021436  0.007566  0.662000
-0.020175  0.007566  0.662000
-0.018914  0.007566  0.662000
-0.017653  0.007566  0.662000
-0.016392  0.007566  0.662000
-0.015086  0.007543  0.660000
-0.013829  0.007543  0.660000
-0.012438  0.007463  0.653000
-0.011194  0.007463  0.653000
-0.009950  0.007463  0.653000
-0.008693  0.007451  0.652000
-0.007451  0.007451  0.652000
-0.006210  0.007451  0.652000
-0.004937  0.007406  0.648000
-0.003703  0.007406  0.648000
-0.002465  0.007394  0.647000
-0.001229  0.007371  0.645000
0.000000  0.007371  0.645000
0.001227  0.007360  0.644000
0.002453  0.007360  0.644000
0.003669  0.007337  0.642000
0.004891  0.007337  0.642000
0.006095  0.007314  0.640000
0.007291  0.007291  0.638000
0.008480  0.007269  0.636000
0.009691  0.007269  0.636000
0.010886  0.007257  0.635000
0.012095  0.007257  0.635000
0.013305  0.007257  0.635000
0.014514  0.007257  0.635000
0.015724  0.007257  0.635000
0.016933  0.007257  0.635000
0.018143  0.007257  0.635000
0.019383  0.007269  0.636000
0.020594  0.007269  0.636000
0.021874  0.007291  0.638000
0.023126  0.007303  0.639000
0.024343  0.007303  0.639000
0.025560  0.007303  0.639000
0.026819  0.007314  0.640000
0.028082  0.007326  0.641000
0.029349  0.007337  0.642000
0.030571  0.007337  0.642000
0.031893  0.007360  0.644000
0.033171  0.007371  0.645000
0.034453  0.007383  0.646000
0.035739  0.007394  0.647000
0.036971  0.007394  0.647000
0.038263  0.007406  0.648000
0.039619  0.007429  0.650000
0.040983  0.007451  0.652000
0.042225  0.007451  0.652000
0.043733  0.007497  0.656000
0.045051  0.007509  0.657000
0.046373  0.007520  0.658000
0.047771  0.007543  0.660000
0.049103  0.007554  0.661000
0.050438  0.007566  0.662000
0.051777  0.007577  0.663000
0.053040  0.007577  0.663000
0.054467  0.007600  0.665000
0.055901  0.007623  0.667000
-0.403025  0.006438  0.676000
-0.400549  0.006419  0.674000
-0.398080  0.006400  0.672000
-0.395619  0.006381  0.670000
-0.392577  0.006352  0.667000
-0.391307  0.006352  0.667000
-0.389451  0.006343  0.666000
-0.387600  0.006333  0.665000
-0.384590  0.006305  0.662000
-0.382171  0.006286  0.660000
-0.379760  0.006267  0.658000
-0.377931  0.006257  0.657000
-0.376107  0.006248  0.656000
-0.374857  0.006248  0.656000
-0.374177  0.006257  0.657000
-0.372926  0.006257  0.657000
-0.372240  0.006267  0.658000
-0.370987  0.006267  0.658000
-0.369733  0.006267  0.658000
-0.369600  0.006286  0.660000
-0.368343  0.006286  0.660000
-0.367642  0.006295  0.661000
-0.366383  0.006295  0.661000
-0.365676  0.006305  0.662000
-0.366067  0.006333  0.665000
-0.365349  0.006343  0.666000
-0.364627  0.006352  0.667000
-0.363356  0.006352  0.667000
-0.363171  0.006371  0.669000
-0.361897  0.006371  0.669000
-0.361162  0.006381  0.670000
-0.359886  0.006381  0.670000
-0.359145  0.006390  0.671000
-0.357867  0.006390  0.671000
-0.358183  0.006419  0.674000
-0.356899  0.006419  0.674000
-0.356143  0.006429  0.675000
-0.355383  0.006438  0.676000
-0.354095  0.006438  0.676000
-0.353851  0.006457  0.678000
-0.353080  0.006467  0.679000
-0.352305  0.006476  0.680000
-0.351010  0.006476  0.680000
-0.350743  0.006495  0.682000
-0.349956  0.006505  0.683000
-0.349166  0.006514  0.684000
-0.347863  0.006514  0.684000
-0.347573  0.006533  0.686000
-0.346267  0.006533  0.686000
-0.345463  0.006543  0.687000
-0.345156  0.006562  0.689000
-0.344343  0.006571  0.690000
-0.343029  0.006571  0.690000
-0.341714  0.006571  0.690000
-0.340893  0.006581  0.691000
-0.340560  0.006600  0.693000
-0.339240  0.006600  0.693000
-0.338408  0.006610  0.694000
-0.337571  0.006619  0.695000
-0.337215  0.006638  0.697000
-0.335888  0.006638  0.697000
-0.335040  0.006648  0.698000
-0.334667  0.006667  0.700000
-0.333810  0.006676  0.701000
-0.332474  0.006676  0.701000
-0.332084  0.006695  0.703000
-0.330745  0.006695  0.703000
-0.330343  0.006714  0.705000
-0.329933  0.006733  0.707000
-0.328587  0.006733  0.707000
-0.327240  0.006733  0.707000
-0.326354  0.006743  0.708000
-0.325006  0.006743  0.708000
-0.323657  0.006743  0.708000
-0.323219  0.006762  0.710000
-0.322320  0.006771  0.711000
-0.321869  0.006790  0.713000
-0.320960  0.006800  0.714000
-0.320495  0.006819  0.716000
-0.319131  0.006819  0.716000
-0.318211  0.006829  0.717000
-0.317730  0.006848  0.719000
-0.316800  0.006857  0.720000
-0.315429  0.006857  0.720000
-0.314930  0.006876  0.722000
-0.313554  0.006876  0.722000
-0.312611  0.006886  0.723000
-0.312095  0.006905  0.725000
-0.311143  0.006914  0.726000
-0.310613  0.006933  0.728000
-0.309227  0.006933  0.728000
-0.309109  0.006962  0.731000
-0.307716  0.006962  0.731000
-0.306324  0.006962  0.731000
-0.305349  0.006971  0.732000
-0.303954  0.006971  0.732000
-0.304213  0.007010  0.736000
-0.303223  0.007019  0.737000
-0.302638  0.007038  0.739000
-0.301638  0.007048  0.740000
-0.301040  0.007067  0.742000
-0.299627  0.007067  0.742000
-0.298615  0.007076  0.743000
-0.297200  0.007076  0.743000
-0.295785  0.007076  0.743000
-0.295162  0.007095  0.745000
-0.293743  0.007095  0.745000
-0.292324  0.007095  0.745000
-0.291686  0.007114  0.747000
-0.290651  0.007124  0.748000
-0.290000  0.007143  0.750000
-0.288571  0.007143  0.750000
-0.287909  0.007162  0.752000
-0.286857  0.007171  0.753000
-0.286181  0.007190  0.755000
-0.285120  0.007200  0.756000
-0.284430  0.007219  0.758000
-0.282987  0.007219  0.758000
-0.282286  0.007238  0.760000
-0.280838  0.007238  0.760000
-0.279758  0.007248  0.761000
-0.378533  0.011133  1.169000
-0.376307  0.011133  1.169000
-0.383040  0.011400  1.197000
-0.380760  0.011400  1.197000
-0.372156  0.011210  1.177000
-0.368657  0.011171  1.173000
-0.366423  0.011171  1.173000
-0.367914  0.011286  1.185000
-0.365657  0.011286  1.185000
-0.363400  0.011286  1.185000
-0.358705  0.011210  1.177000
-0.356463  0.011210  1.177000
-0.356629  0.011286  1.185000
-0.354371  0.011286  1.185000
-0.354491  0.011362  1.193000
-0.352219  0.011362  1.193000
-0.344080  0.011171  1.173000
-0.341846  0.011171  1.173000
-0.339611  0.011171  1.173000
-0.336227  0.011133  1.169000
-0.335143  0.011171  1.173000
-0.332909  0.011171  1.173000
-0.330674  0.011171  1.173000
-0.328440  0.011171  1.173000
-0.327318  0.011210  1.177000
-0.325076  0.011210  1.177000
-0.325029  0.011286  1.185000
-0.322771  0.011286  1.185000
-0.320514  0.011286  1.185000
-0.320406  0.011362  1.193000
-0.318133  0.011362  1.193000
-0.316920  0.011400  1.197000
-0.314640  0.011400  1.197000
-0.309229  0.011286  1.185000
-0.306971  0.011286  1.185000
-0.305743  0.011324  1.189000
-0.303478  0.011324  1.189000
-0.302227  0.011362  1.193000
-0.300960  0.011400  1.197000
-0.298680  0.011400  1.197000
-0.294419  0.011324  1.189000
-0.292154  0.011324  1.189000
-0.287625  0.011324  1.189000
-0.285360  0.011324  1.189000
-0.282143  0.011286  1.185000
-0.279886  0.011286  1.185000
-0.276691  0.011248  1.181000
-0.274442  0.011248  1.181000
-0.191526  0.007914  0.831000
-0.189943  0.007914  0.831000
-0.188360  0.007914  0.831000
-0.186328  0.007895  0.829000
-0.184303  0.007876  0.827000
-0.182286  0.007857  0.825000
-0.180276  0.007838  0.823000
-0.178274  0.007819  0.821000
-0.176280  0.007800  0.819000
-0.173867  0.007762  0.815000
-0.172103  0.007752  0.814000
-0.170552  0.007752  0.814000
-0.168587  0.007733  0.812000
-0.166217  0.007695  0.808000
-0.164270  0.007676  0.806000
-0.162331  0.007657  0.804000
-0.160800  0.007657  0.804000
-0.158872  0.007638  0.802000
-0.157345  0.007638  0.802000
-0.155429  0.007619  0.800000
-0.153520  0.007600  0.798000
-0.151429  0.007571  0.795000
-0.149160  0.007533  0.791000
-0.147653  0.007533  0.791000
-0.145777  0.007514  0.789000
-0.143726  0.007486  0.786000
-0.141505  0.007448  0.782000
-0.140015  0.007448  0.782000
-0.138171  0.007429  0.780000
-0.136510  0.007419  0.779000
-0.134680  0.007400  0.777000
-0.133200  0.007400  0.777000
-0.131381  0.007381  0.775000
-0.129905  0.007381  0.775000
-0.128429  0.007381  0.775000
-0.115810  0.007238  0.760000
-0.114061  0.007219  0.758000
-0.112320  0.007200  0.756000
-0.110880  0.007200  0.756000
-0.109440  0.007200  0.756000
-0.106000  0.007067  0.742000
-0.104587  0.007067  0.742000
-0.102895  0.007048  0.740000
-0.101486  0.007048  0.740000
-0.100076  0.007048  0.740000
-0.098267  0.007019  0.737000
-0.096731  0.007010  0.736000
-0.095330  0.007010  0.736000
-0.093928  0.007010  0.736000
-0.082514  0.006876  0.722000
-0.081139  0.006876  0.722000
-0.079764  0.006876  0.722000
-0.078063  0.006848  0.719000
-0.076693  0.006848  0.719000
-0.075324  0.006848  0.719000
-0.073646  0.006819  0.716000
-0.071979  0.006790  0.713000
-0.070621  0.006790  0.713000
-0.069263  0.006790  0.713000
-0.067048  0.006705  0.704000
-0.065707  0.006705  0.704000
-0.064366  0.006705  0.704000
-0.063025  0.006705  0.704000
-0.061771  0.006714  0.705000
-0.060429  0.006714  0.705000
-0.058499  0.006648  0.698000
-0.057088  0.006638  0.697000
-0.055600  0.006619  0.695000
-0.054276  0.006619  0.695000
-0.052952  0.006619  0.695000
-0.051629  0.006619  0.695000
-0.050305  0.006619  0.695000
-0.048981  0.006619  0.695000
-0.047657  0.006619  0.695000
-0.022800  0.006333  0.665000
-0.021469  0.006314  0.663000
-0.020206  0.006314  0.663000
-0.018943  0.006314  0.663000
-0.017653  0.006305  0.662000
-0.016392  0.006305  0.662000
-0.015086  0.006286  0.660000
-0.013829  0.006286  0.660000
-0.012476  0.006238  0.655000
-0.011229  0.006238  0.655000
-0.009981  0.006238  0.655000
-0.008707  0.006219  0.653000
-0.007463  0.006219  0.653000
-0.006219  0.006219  0.653000
-0.004937  0.006171  0.648000
-0.003703  0.006171  0.648000
-0.002465  0.006162  0.647000
-0.001230  0.006152  0.646000
0.000000  0.006152  0.646000
0.001229  0.006143  0.645000
0.002457  0.006143  0.645000
0.003680  0.006133  0.644000
0.004907  0.006133  0.644000
0.006095  0.006095  0.640000
0.007291  0.006076  0.638000
0.008507  0.006076  0.638000
0.009691  0.006057  0.636000
0.010903  0.006057  0.636000
0.012114  0.006057  0.636000
0.013305  0.006048  0.635000
0.014514  0.006048  0.635000
0.015724  0.006048  0.635000
0.016933  0.006048  0.635000
0.018143  0.006048  0.635000
0.019383  0.006057  0.636000
0.020659  0.006076  0.638000
0.021874  0.006076  0.638000
0.023126  0.006086  0.639000
0.024343  0.006086  0.639000
0.025560  0.006086  0.639000
0.026819  0.006095  0.640000
0.028082  0.006105  0.641000
0.029349  0.006114  0.642000
0.030571  0.006114  0.642000
0.031893  0.006133  0.644000
0.033171  0.006143  0.645000
0.034453  0.006152  0.646000
0.035739  0.006162  0.647000
0.036971  0.006162  0.647000
0.038263  0.006171  0.648000
0.039619  0.006190  0.650000
0.040920  0.006200  0.651000
0.042225  0.006210  0.652000
0.043733  0.006248  0.656000
0.045120  0.006267  0.658000
0.046373  0.006267  0.658000
0.047771  0.006286  0.660000
0.049103  0.006295  0.661000
0.050438  0.006305  0.662000
0.051777  0.006314  0.663000
0.053040  0.006314  0.663000
0.054303  0.006314  0.663000
0.055901  0.006352  0.667000
-0.403025  0.005150  0.676000
-0.400549  0.005135  0.674000
-0.398080  0.005120  0.672000
-0.396210  0.005112  0.671000
-0.393754  0.005097  0.669000
-0.391307  0.005082  0.667000
-0.390036  0.005082  0.667000
-0.388766  0.005082  0.667000
-0.384590  0.005044  0.662000
-0.382750  0.005036  0.661000
-0.379760  0.005013  0.658000
-0.378507  0.005013  0.658000
-0.376680  0.005006  0.657000
-0.375429  0.005006  0.657000
-0.374177  0.005006  0.657000
-0.373493  0.005013  0.658000
-0.372240  0.005013  0.658000
-0.370987  0.005013  0.658000
-0.369733  0.005013  0.658000
-0.369600  0.005029  0.660000
-0.368343  0.005029  0.660000
-0.367642  0.005036  0.661000
-0.366383  0.005036  0.661000
-0.365676  0.005044  0.662000
-0.366067  0.005067  0.665000
-0.365349  0.005074  0.666000
-0.364627  0.005082  0.667000
-0.363356  0.005082  0.667000
-0.363171  0.005097  0.669000
-0.361897  0.005097  0.669000
-0.361162  0.005105  0.670000
-0.359886  0.005105  0.670000
-0.358610  0.005105  0.670000
-0.357867  0.005112  0.671000
-0.357120  0.005120  0.672000
-0.356899  0.005135  0.674000
-0.355615  0.005135  0.674000
-0.354857  0.005143  0.675000
-0.354095  0.005150  0.676000
-0.353851  0.005166  0.678000
-0.353080  0.005173  0.679000
-0.352305  0.005181  0.680000
-0.352042  0.005196  0.682000
-0.351257  0.005204  0.683000
-0.349956  0.005204  0.683000
-0.349166  0.005211  0.684000
-0.347863  0.005211  0.684000
-0.347573  0.005227  0.686000
-0.346771  0.005234  0.687000
-0.346469  0.005250  0.689000
-0.345657  0.005257  0.690000
-0.344343  0.005257  0.690000
-0.343029  0.005257  0.690000
-0.342210  0.005265  0.691000
-0.340893  0.005265  0.691000
-0.340560  0.005280  0.693000
-0.339730  0.005288  0.694000
-0.338408  0.005288  0.694000
-0.337571  0.005295  0.695000
-0.337215  0.005310  0.697000
-0.335888  0.005310  0.697000
-0.335040  0.005318  0.698000
-0.334667  0.005333  0.700000
-0.333810  0.005341  0.701000
-0.333423  0.005356  0.703000
-0.332084  0.005356  0.703000
-0.331215  0.005364  0.704000
-0.330343  0.005371  0.705000
-0.329933  0.005387  0.707000
-0.328587  0.005387  0.707000
-0.327240  0.005387  0.707000
-0.326354  0.005394  0.708000
-0.325006  0.005394  0.708000
-0.323657  0.005394  0.708000
-0.323219  0.005410  0.710000
-0.322320  0.005417  0.711000
-0.321869  0.005432  0.713000
-0.320960  0.005440  0.714000
-0.320495  0.005455  0.716000
-0.319577  0.005463  0.717000
-0.319099  0.005478  0.719000
-0.317730  0.005478  0.719000
-0.316800  0.005486  0.720000
-0.315429  0.005486  0.720000
-0.314930  0.005501  0.722000
-0.313554  0.005501  0.722000
-0.312611  0.005509  0.723000
-0.312095  0.005524  0.725000
-0.311143  0.005531  0.726000
-0.310613  0.005547  0.728000
-0.309227  0.005547  0.728000
-0.309109  0.005570  0.731000
-0.307716  0.005570  0.731000
-0.306324  0.005570  0.731000
-0.305349  0.005577  0.732000
-0.303954  0.005577  0.732000
-0.304213  0.005608  0.736000
-0.303223  0.005615  0.737000
-0.302638  0.005630  0.739000
-0.301638  0.005638  0.740000
-0.301040  0.005653  0.742000
-0.299627  0.005653  0.742000
-0.298615  0.005661  0.743000
-0.297200  0.005661  0.743000
-0.295785  0.005661  0.743000
-0.295162  0.005676  0.745000
-0.293743  0.005676  0.745000
-0.293109  0.005691  0.747000
-0.292076  0.005699  0.748000
-0.291429  0.005714  0.750000
-0.290000  0.005714  0.750000
-0.288571  0.005714  0.750000
-0.287909  0.005730  0.752000
-0.286857  0.005737  0.753000
-0.286181  0.005752  0.755000
-0.285120  0.005760  0.756000
-0.284430  0.005775  0.758000
-0.283733  0.005790  0.760000
-0.282286  0.005790  0.760000
-0.280838  0.005790  0.760000
-0.279758  0.005798  0.761000
-0.380760  0.008907  1.169000
-0.378533  0.008907  1.169000
-0.376307  0.008907  1.169000
-0.372800  0.008876  1.165000
-0.370581  0.008876  1.165000
-0.365832  0.008815  1.157000
-0.363629  0.008815  1.157000
-0.361425  0.008815  1.157000
-0.359221  0.008815  1.157000
-0.360720  0.008907  1.169000
-0.354813  0.008815  1.157000
-0.352610  0.008815  1.157000
-0.354040  0.008907  1.169000
-0.353017  0.008937  1.173000
-0.351979  0.008968  1.177000
-0.347360  0.008907  1.169000
-0.343952  0.008876  1.165000
-0.341733  0.008876  1.165000
-0.340680  0.008907  1.169000
-0.338453  0.008907  1.169000
-0.336227  0.008907  1.169000
-0.331714  0.008846  1.161000
-0.329503  0.008846  1.161000
-0.328419  0.008876  1.165000
-0.326200  0.008876  1.165000
-0.321756  0.008815  1.157000
-0.319552  0.008815  1.157000
-0.317349  0.008815  1.157000
-0.317324  0.008876  1.165000
-0.318350  0.008968  1.177000
-0.317183  0.008998  1.181000
-0.314933  0.008998  1.181000
-0.312684  0.008998  1.181000
-0.310434  0.008998  1.181000
-0.308185  0.008998  1.181000
-0.305935  0.008998  1.181000
-0.302657  0.008968  1.177000
-0.300415  0.008968  1.177000
-0.299187  0.008998  1.181000
-0.296937  0.008998  1.181000
-0.294688  0.008998  1.181000
-0.293429  0.009029  1.185000
-0.291171  0.009029  1.185000
-0.289890  0.009059  1.189000
-0.287625  0.009059  1.189000
-0.284400  0.009029  1.185000
-0.277381  0.008876  1.165000
-0.275162  0.008876  1.165000
-0.273880  0.008907  1.169000
-0.271653  0.008907  1.169000
-0.191526  0.006331  0.831000
-0.189943  0.006331  0.831000
-0.188360  0.006331  0.831000
-0.186328  0.006316  0.829000
-0.184303  0.006301  0.827000
-0.182286  0.006286  0.825000
-0.180276  0.006270  0.823000
-0.178274  0.006255  0.821000
-0.176710  0.006255  0.821000
-0.174293  0.006225  0.817000
-0.172314  0.006210  0.815000
-0.170552  0.006202  0.814000
-0.168587  0.006187  0.812000
-0.166629  0.006171  0.810000
-0.164270  0.006141  0.806000
-0.162331  0.006126  0.804000
-0.160800  0.006126  0.804000
-0.158872  0.006110  0.802000
-0.157345  0.006110  0.802000
-0.155429  0.006095  0.800000
-0.153520  0.006080  0.798000
-0.151429  0.006057  0.795000
-0.149537  0.006042  0.793000
-0.147653  0.006027  0.791000
-0.146147  0.006027  0.791000
-0.144274  0.006011  0.789000
-0.142229  0.005989  0.786000
-0.140373  0.005973  0.784000
-0.138171  0.005943  0.780000
-0.136510  0.005935  0.779000
-0.134680  0.005920  0.777000
-0.133200  0.005920  0.777000
-0.131381  0.005905  0.775000
-0.129905  0.005905  0.775000
-0.128429  0.005905  0.775000
-0.119173  0.005813  0.763000
-0.117720  0.005813  0.763000
-0.115810  0.005790  0.760000
-0.114061  0.005775  0.758000
-0.112171  0.005752  0.755000
-0.110733  0.005752  0.755000
-0.109295  0.005752  0.755000
-0.107857  0.005752  0.755000
-0.104587  0.005653  0.742000
-0.102895  0.005638  0.740000
-0.101486  0.005638  0.740000
-0.099941  0.005630  0.739000
-0.098267  0.005615  0.737000
-0.096731  0.005608  0.736000
-0.095330  0.005608  0.736000
-0.093928  0.005608  0.736000
-0.078063  0.005478  0.719000
-0.076693  0.005478  0.719000
-0.075324  0.005478  0.719000
-0.073749  0.005463  0.717000
-0.071979  0.005432  0.713000
-0.070621  0.005432  0.713000
-0.069263  0.005432  0.713000
-0.067048  0.005364  0.704000
-0.065707  0.005364  0.704000
-0.064366  0.005364  0.704000
-0.063025  0.005364  0.704000
-0.061771  0.005371  0.705000
-0.060429  0.005371  0.705000
-0.058667  0.005333  0.700000
-0.057333  0.005333  0.700000
-0.055760  0.005310  0.697000
-0.054276  0.005295  0.695000
-0.052952  0.005295  0.695000
-0.051629  0.005295  0.695000
-0.050305  0.005295  0.695000
-0.048981  0.005295  0.695000
-0.047657  0.005295  0.695000
-0.024103  0.005074  0.666000
-0.022800  0.005067  0.665000
-0.021469  0.005051  0.663000
-0.020206  0.005051  0.663000
-0.018943  0.005051  0.663000
-0.017653  0.005044  0.662000
-0.016392  0.005044  0.662000
-0.015109  0.005036  0.661000
-0.013829  0.005029  0.660000
-0.012495  0.004998  0.656000
-0.011246  0.004998  0.656000
-0.009996  0.004998  0.656000
-0.008733  0.004990  0.655000
-0.007486  0.004990  0.655000
-0.006238  0.004990  0.655000
-0.004952  0.004952  0.650000
-0.003703  0.004937  0.648000
-0.002465  0.004930  0.647000
-0.001230  0.004922  0.646000
0.000000  0.004922  0.646000
0.001229  0.004914  0.645000
0.002457  0.004914  0.645000
0.003680  0.004907  0.644000
0.004907  0.004907  0.644000
0.006095  0.004876  0.640000
0.007303  0.004869  0.639000
0.008520  0.004869  0.639000
0.009722  0.004861  0.638000
0.010903  0.004846  0.636000
0.012114  0.004846  0.636000
0.013326  0.004846  0.636000
0.014514  0.004838  0.635000
0.015724  0.004838  0.635000
0.016933  0.004838  0.635000
0.018171  0.004846  0.636000
0.019383  0.004846  0.636000
0.020659  0.004861  0.638000
0.021874  0.004861  0.638000
0.023126  0.004869  0.639000
0.024343  0.004869  0.639000
0.025560  0.004869  0.639000
0.026819  0.004876  0.640000
0.028082  0.004884  0.641000
0.029349  0.004891  0.642000
