# .PCD v.5 - Point Cloud Data file format
FIELDS x y z 
SIZE 4 4 4
TYPE F F F
COUNT 1 1 1
WIDTH 1555
HEIGHT 1
POINTS 1555
DATA ascii
-0.124143  -0.132000  0.825000
-0.122274  -0.131680  0.823000
-0.120707  -0.131680  0.823000
-0.119139  -0.131680  0.823000
-0.117571  -0.131680  0.823000
-0.115722  -0.131360  0.821000
-0.114158  -0.131360  0.821000
-0.112594  -0.131360  0.821000
-0.111030  -0.131360  0.821000
-0.109467  -0.131360  0.821000
-0.107903  -0.131360  0.821000
-0.106598  -0.131680  0.823000
-0.105030  -0.131680  0.823000
-0.103463  -0.131680  0.823000
-0.101895  -0.131680  0.823000
-0.100328  -0.131680  0.823000
-0.098760  -0.131680  0.823000
-0.097192  -0.131680  0.823000
-0.095625  -0.131680  0.823000
-0.094286  -0.132000  0.825000
-0.092939  -0.132320  0.827000
-0.091364  -0.132320  0.827000
-0.090006  -0.132640  0.829000
-0.088427  -0.132640  0.829000
-0.087057  -0.132960  0.831000
-0.085474  -0.132960  0.831000
-0.084093  -0.133280  0.833000
-0.082705  -0.133600  0.835000
-0.081309  -0.133920  0.837000
-0.079905  -0.134240  0.839000
-0.078493  -0.134560  0.841000
-0.077074  -0.134880  0.843000
-0.075469  -0.134880  0.843000
-0.073863  -0.134880  0.843000
-0.072257  -0.134880  0.843000
-0.079200  -0.151200  0.945000
-0.077400  -0.151200  0.945000
-0.075600  -0.151200  0.945000
-0.073566  -0.150720  0.942000
-0.071771  -0.150720  0.942000
-0.069829  -0.150400  0.940000
-0.068038  -0.150400  0.940000
-0.066248  -0.150400  0.940000
-0.064594  -0.150720  0.942000
-0.062333  -0.149600  0.935000
-0.060552  -0.149600  0.935000
-0.058583  -0.149120  0.932000
-0.056808  -0.149120  0.932000
-0.055032  -0.149120  0.932000
-0.053143  -0.148800  0.930000
-0.051371  -0.148800  0.930000
-0.049707  -0.149120  0.932000
-0.047931  -0.149120  0.932000
-0.046305  -0.149600  0.935000
-0.044524  -0.149600  0.935000
-0.042743  -0.149600  0.935000
-0.040962  -0.149600  0.935000
-0.039181  -0.149600  0.935000
-0.037480  -0.149920  0.937000
-0.035810  -0.150400  0.940000
-0.034019  -0.150400  0.940000
-0.032229  -0.150400  0.940000
-0.030503  -0.150720  0.942000
-0.028800  -0.151200  0.945000
-0.027000  -0.151200  0.945000
-0.025200  -0.151200  0.945000
-0.023276  -0.150400  0.940000
-0.021486  -0.150400  0.940000
-0.019695  -0.150400  0.940000
-0.017905  -0.150400  0.940000
-0.016114  -0.150400  0.940000
-0.014354  -0.150720  0.942000
-0.012560  -0.150720  0.942000
-0.010743  -0.150400  0.940000
-0.008952  -0.150400  0.940000
-0.007200  -0.151200  0.945000
-0.005400  -0.151200  0.945000
-0.003600  -0.151200  0.945000
-0.001800  -0.151200  0.945000
0.000000  -0.150720  0.942000
0.001794  -0.150720  0.942000
0.003589  -0.150720  0.942000
0.005383  -0.150720  0.942000
0.007177  -0.150720  0.942000
0.008952  -0.150400  0.940000
0.010709  -0.149920  0.937000
0.012467  -0.149600  0.935000
0.014202  -0.149120  0.932000
0.015977  -0.149120  0.932000
0.017714  -0.148800  0.930000
0.019486  -0.148800  0.930000
0.021257  -0.148800  0.930000
0.023029  -0.148800  0.930000
0.024800  -0.148800  0.930000
0.026571  -0.148800  0.930000
0.023282  -0.115040  0.719000
0.024651  -0.115040  0.719000
0.025949  -0.114720  0.717000
0.027314  -0.114720  0.717000
0.029752  -0.113600  0.710000
0.031017  -0.113280  0.708000
0.032320  -0.113120  0.707000
0.033571  -0.112800  0.705000
0.034914  -0.112800  0.705000
0.036206  -0.112640  0.704000
0.037493  -0.112480  0.703000
0.038722  -0.112160  0.701000
0.040000  -0.112000  0.700000
0.041215  -0.111680  0.698000
0.042484  -0.111520  0.697000
0.043811  -0.111520  0.697000
0.045139  -0.111520  0.697000
0.046333  -0.111200  0.695000
0.047657  -0.111200  0.695000
0.048981  -0.111200  0.695000
0.050305  -0.111200  0.695000
0.051629  -0.111200  0.695000
0.052876  -0.111040  0.694000
0.054198  -0.111040  0.694000
0.055440  -0.110880  0.693000
0.056760  -0.110880  0.693000
0.058080  -0.110880  0.693000
0.059400  -0.110880  0.693000
0.060720  -0.110880  0.693000
0.062040  -0.110880  0.693000
0.063360  -0.110880  0.693000
0.064680  -0.110880  0.693000
0.066000  -0.110880  0.693000
0.067320  -0.110880  0.693000
0.068640  -0.110880  0.693000
0.069960  -0.110880  0.693000
0.071280  -0.110880  0.693000
0.072600  -0.110880  0.693000
0.073920  -0.110880  0.693000
0.075349  -0.111040  0.694000
0.076670  -0.111040  0.694000
0.077992  -0.111040  0.694000
0.079314  -0.111040  0.694000
0.080636  -0.111040  0.694000
0.082076  -0.111200  0.695000
0.083400  -0.111200  0.695000
0.084724  -0.111200  0.695000
0.086048  -0.111200  0.695000
0.087371  -0.111200  0.695000
0.089078  -0.111680  0.698000
0.090667  -0.112000  0.700000
0.092131  -0.112160  0.701000
0.093467  -0.112160  0.701000
0.095072  -0.112480  0.703000
0.096549  -0.112640  0.704000
0.098029  -0.112800  0.705000
0.099371  -0.112800  0.705000
0.101000  -0.113120  0.707000
0.102491  -0.113280  0.708000
0.103840  -0.113280  0.708000
0.105634  -0.113760  0.711000
0.106989  -0.113760  0.711000
0.108343  -0.113760  0.711000
0.110006  -0.114080  0.713000
0.128914  -0.112800  0.705000
0.130257  -0.112800  0.705000
0.131600  -0.112800  0.705000
0.132943  -0.112800  0.705000
0.134667  -0.113120  0.707000
0.136013  -0.113120  0.707000
0.137360  -0.113120  0.707000
0.138903  -0.113280  0.708000
-0.528821  -0.143610  0.887000
-0.527131  -0.143610  0.887000
-0.526627  -0.143933  0.889000
-0.524933  -0.143933  0.889000
-0.526183  -0.144743  0.894000
-0.524480  -0.144743  0.894000
-0.523947  -0.145067  0.896000
-0.522240  -0.145067  0.896000
-0.520533  -0.145067  0.896000
-0.518827  -0.145067  0.896000
-0.518274  -0.145390  0.898000
-0.516564  -0.145390  0.898000
-0.514853  -0.145390  0.898000
-0.513143  -0.145390  0.898000
-0.510293  -0.145067  0.896000
-0.508587  -0.145067  0.896000
-0.509709  -0.145876  0.901000
-0.498408  -0.143124  0.884000
-0.496724  -0.143124  0.884000
-0.495040  -0.143124  0.884000
-0.496147  -0.143933  0.889000
-0.494453  -0.143933  0.889000
-0.492760  -0.143933  0.889000
-0.492171  -0.144257  0.891000
-0.489373  -0.143933  0.889000
-0.486583  -0.143610  0.887000
-0.483253  -0.143124  0.884000
-0.375341  -0.111552  0.689000
-0.374029  -0.111552  0.689000
-0.373257  -0.111714  0.690000
-0.371943  -0.111714  0.690000
-0.370629  -0.111714  0.690000
-0.369314  -0.111714  0.690000
-0.368000  -0.111714  0.690000
-0.365091  -0.111229  0.687000
-0.363253  -0.111067  0.686000
-0.361947  -0.111067  0.686000
-0.359589  -0.110743  0.684000
-0.358286  -0.110743  0.684000
-0.356983  -0.110743  0.684000
-0.354640  -0.110419  0.682000
-0.352305  -0.110095  0.680000
-0.349977  -0.109771  0.678000
-0.348686  -0.109771  0.678000
-0.345857  -0.109286  0.675000
-0.344061  -0.109124  0.674000
-0.342777  -0.109124  0.674000
-0.341493  -0.109124  0.674000
-0.339200  -0.108800  0.672000
-0.337417  -0.108638  0.671000
-0.335638  -0.108476  0.670000
-0.334362  -0.108476  0.670000
-0.332589  -0.108314  0.669000
-0.329829  -0.107829  0.666000
-0.328067  -0.107667  0.665000
-0.325817  -0.107343  0.663000
-0.324554  -0.107343  0.663000
-0.322804  -0.107181  0.662000
-0.321057  -0.107019  0.661000
-0.319798  -0.107019  0.661000
-0.318539  -0.107019  0.661000
-0.316800  -0.106857  0.660000
-0.315543  -0.106857  0.660000
-0.314762  -0.107019  0.661000
-0.313503  -0.107019  0.661000
-0.312244  -0.107019  0.661000
-0.311926  -0.107343  0.663000
-0.310663  -0.107343  0.663000
-0.309400  -0.107343  0.663000
-0.309067  -0.107667  0.665000
-0.307800  -0.107667  0.665000
-0.306994  -0.107829  0.666000
-0.307103  -0.108314  0.669000
-0.306286  -0.108476  0.670000
-0.305920  -0.108800  0.672000
-0.305547  -0.109124  0.674000
-0.304714  -0.109286  0.675000
-0.303429  -0.109286  0.675000
-0.302143  -0.109286  0.675000
-0.301303  -0.109448  0.676000
-0.300903  -0.109771  0.678000
-0.300053  -0.109933  0.679000
-0.298760  -0.109933  0.679000
-0.297905  -0.110095  0.680000
-0.297482  -0.110419  0.682000
-0.296183  -0.110419  0.682000
-0.295316  -0.110581  0.683000
-0.294446  -0.110743  0.684000
-0.294000  -0.111067  0.686000
-0.292693  -0.111067  0.686000
-0.291811  -0.111229  0.687000
-0.291349  -0.111552  0.689000
-0.290457  -0.111714  0.690000
-0.289562  -0.111876  0.691000
-0.288246  -0.111876  0.691000
-0.287760  -0.112200  0.693000
-0.286853  -0.112362  0.694000
-0.285943  -0.112524  0.695000
-0.284619  -0.112524  0.695000
-0.284110  -0.112848  0.697000
-0.283189  -0.113010  0.698000
-0.283070  -0.113495  0.701000
-0.281735  -0.113495  0.701000
-0.282000  -0.114143  0.705000
-0.280657  -0.114143  0.705000
-0.279314  -0.114143  0.705000
-0.278760  -0.114467  0.707000
-0.277413  -0.114467  0.707000
-0.276457  -0.114629  0.708000
-0.275109  -0.114629  0.708000
-0.275693  -0.115438  0.713000
-0.274720  -0.115600  0.714000
-0.274126  -0.115924  0.716000
-0.273143  -0.116086  0.717000
-0.271777  -0.116086  0.717000
-0.271166  -0.116410  0.719000
-0.270171  -0.116571  0.720000
-0.268800  -0.116571  0.720000
-0.269286  -0.117381  0.725000
-0.267905  -0.117381  0.725000
-0.266524  -0.117381  0.725000
-0.265143  -0.117381  0.725000
-0.264126  -0.117543  0.726000
-0.263467  -0.117867  0.728000
-0.262440  -0.118029  0.729000
-0.261768  -0.118352  0.731000
-0.260375  -0.118352  0.731000
-0.259337  -0.118514  0.732000
-0.259352  -0.119162  0.736000
-0.258301  -0.119324  0.737000
-0.257594  -0.119648  0.739000
-0.256533  -0.119810  0.740000
-0.255813  -0.120133  0.742000
-0.254400  -0.120133  0.742000
-0.253328  -0.120295  0.743000
-0.252590  -0.120619  0.745000
-0.251171  -0.120619  0.745000
-0.249752  -0.120619  0.745000
-0.249000  -0.120943  0.747000
-0.247909  -0.121105  0.748000
-0.247143  -0.121429  0.750000
-0.245714  -0.121429  0.750000
-0.244937  -0.121752  0.752000
-0.243829  -0.121914  0.753000
-0.243038  -0.122238  0.755000
-0.241920  -0.122400  0.756000
-0.241116  -0.122724  0.758000
-0.239672  -0.122724  0.758000
-0.238857  -0.123048  0.760000
-0.237722  -0.123210  0.761000
-0.236893  -0.123533  0.763000
-0.236057  -0.123857  0.765000
-0.235213  -0.124181  0.767000
-0.234057  -0.124343  0.768000
-0.233200  -0.124667  0.770000
-0.231733  -0.124667  0.770000
-0.230865  -0.124990  0.772000
-0.229691  -0.125152  0.773000
-0.260762  -0.149762  0.925000
-0.257600  -0.148952  0.920000
-0.255848  -0.148952  0.920000
-0.256029  -0.150086  0.927000
-0.253714  -0.149762  0.925000
-0.251952  -0.149762  0.925000
-0.250731  -0.150086  0.927000
-0.248966  -0.150086  0.927000
-0.248000  -0.150571  0.930000
-0.247552  -0.151381  0.935000
-0.245771  -0.151381  0.935000
-0.235640  -0.146200  0.903000
-0.233920  -0.146200  0.903000
-0.232200  -0.146200  0.903000
-0.230480  -0.146200  0.903000
-0.228760  -0.146200  0.903000
-0.233074  -0.150086  0.927000
-0.231309  -0.150086  0.927000
-0.229543  -0.150086  0.927000
-0.227777  -0.150086  0.927000
-0.226011  -0.150086  0.927000
-0.224246  -0.150086  0.927000
-0.222000  -0.149762  0.925000
-0.220238  -0.149762  0.925000
-0.218476  -0.149762  0.925000
-0.216714  -0.149762  0.925000
-0.214952  -0.149762  0.925000
-0.212499  -0.149276  0.922000
-0.210743  -0.149276  0.922000
-0.209667  -0.149762  0.925000
-0.208354  -0.150086  0.927000
-0.204360  -0.148467  0.917000
-0.202613  -0.148467  0.917000
-0.199120  -0.148467  0.917000
-0.197760  -0.150086  0.927000
-0.194229  -0.150086  0.927000
-0.192048  -0.149762  0.925000
-0.189257  -0.148952  0.920000
-0.187505  -0.148952  0.920000
-0.186156  -0.149276  0.922000
-0.183400  -0.148467  0.917000
-0.181653  -0.148467  0.917000
-0.179907  -0.148467  0.917000
-0.178160  -0.148467  0.917000
-0.176413  -0.148467  0.917000
-0.175238  -0.148952  0.920000
-0.173863  -0.149276  0.922000
-0.172107  -0.149276  0.922000
-0.170350  -0.149276  0.922000
-0.168594  -0.149276  0.922000
-0.168286  -0.150571  0.930000
-0.166514  -0.150571  0.930000
-0.157834  -0.144257  0.891000
-0.156137  -0.144257  0.891000
-0.154093  -0.143933  0.889000
-0.143143  -0.135190  0.835000
-0.141213  -0.134867  0.833000
-0.139291  -0.134543  0.831000
-0.137709  -0.134543  0.831000
-0.136126  -0.134543  0.831000
-0.134543  -0.134543  0.831000
-0.132640  -0.134219  0.829000
-0.131061  -0.134219  0.829000
-0.129482  -0.134219  0.829000
-0.127594  -0.133895  0.827000
-0.125714  -0.133571  0.825000
-0.124143  -0.133571  0.825000
-0.122571  -0.133571  0.825000
-0.120707  -0.133248  0.823000
-0.119139  -0.133248  0.823000
-0.117571  -0.133248  0.823000
-0.115722  -0.132924  0.821000
-0.114158  -0.132924  0.821000
-0.112594  -0.132924  0.821000
-0.111030  -0.132924  0.821000
-0.109467  -0.132924  0.821000
-0.107903  -0.132924  0.821000
-0.106598  -0.133248  0.823000
-0.105030  -0.133248  0.823000
-0.103463  -0.133248  0.823000
-0.101895  -0.133248  0.823000
-0.100328  -0.133248  0.823000
-0.098760  -0.133248  0.823000
-0.097192  -0.133248  0.823000
-0.095625  -0.133248  0.823000
-0.094286  -0.133571  0.825000
-0.092939  -0.133895  0.827000
-0.091364  -0.133895  0.827000
-0.090006  -0.134219  0.829000
-0.088427  -0.134219  0.829000
-0.087057  -0.134543  0.831000
-0.085474  -0.134543  0.831000
-0.084093  -0.134867  0.833000
-0.082705  -0.135190  0.835000
-0.081309  -0.135514  0.837000
-0.079905  -0.135838  0.839000
-0.078493  -0.136162  0.841000
-0.077074  -0.136486  0.843000
-0.075469  -0.136486  0.843000
-0.073863  -0.136486  0.843000
-0.072257  -0.136486  0.843000
-0.070651  -0.136486  0.843000
-0.077154  -0.152514  0.942000
-0.075360  -0.152514  0.942000
-0.073410  -0.152190  0.940000
-0.071619  -0.152190  0.940000
-0.069606  -0.151705  0.937000
-0.067821  -0.151705  0.937000
-0.065895  -0.151381  0.935000
-0.064114  -0.151381  0.935000
-0.062000  -0.150571  0.930000
-0.060229  -0.150571  0.930000
-0.058457  -0.150571  0.930000
-0.056686  -0.150571  0.930000
-0.054914  -0.150571  0.930000
-0.053143  -0.150571  0.930000
-0.051371  -0.150571  0.930000
-0.049707  -0.150895  0.932000
-0.047931  -0.150895  0.932000
-0.046305  -0.151381  0.935000
-0.044524  -0.151381  0.935000
-0.042743  -0.151381  0.935000
-0.040962  -0.151381  0.935000
-0.039181  -0.151381  0.935000
-0.037400  -0.151381  0.935000
-0.035619  -0.151381  0.935000
-0.033730  -0.150895  0.932000
-0.031954  -0.150895  0.932000
-0.030114  -0.150571  0.930000
-0.028343  -0.150571  0.930000
-0.026857  -0.152190  0.940000
-0.025200  -0.153000  0.945000
-0.023202  -0.151705  0.937000
-0.021417  -0.151705  0.937000
-0.019695  -0.152190  0.940000
-0.017905  -0.152190  0.940000
-0.016114  -0.152190  0.940000
-0.014354  -0.152514  0.942000
-0.012533  -0.152190  0.940000
-0.010743  -0.152190  0.940000
-0.008952  -0.152190  0.940000
-0.007162  -0.152190  0.940000
-0.005354  -0.151705  0.937000
-0.003570  -0.151705  0.937000
-0.001775  -0.150895  0.932000
0.000000  -0.150895  0.932000
0.001781  -0.151381  0.935000
0.003570  -0.151705  0.937000
0.005354  -0.151705  0.937000
0.007139  -0.151705  0.937000
0.008924  -0.151705  0.937000
0.010651  -0.150895  0.932000
0.012427  -0.150895  0.932000
0.014171  -0.150571  0.930000
0.015943  -0.150571  0.930000
0.017657  -0.150086  0.927000
0.019423  -0.150086  0.927000
0.021189  -0.150086  0.927000
0.022954  -0.150086  0.927000
0.024720  -0.150086  0.927000
0.026486  -0.150086  0.927000
0.028251  -0.150086  0.927000
0.030017  -0.150086  0.927000
0.024651  -0.116410  0.719000
0.025912  -0.115924  0.716000
0.027276  -0.115924  0.716000
0.028440  -0.115114  0.711000
0.029752  -0.114952  0.710000
0.031017  -0.114629  0.708000
0.032320  -0.114467  0.707000
0.033571  -0.114143  0.705000
0.034914  -0.114143  0.705000
0.036206  -0.113981  0.704000
0.037547  -0.113981  0.704000
0.038722  -0.113495  0.701000
0.040000  -0.113333  0.700000
0.041215  -0.113010  0.698000
0.042484  -0.112848  0.697000
0.043811  -0.112848  0.697000
0.045139  -0.112848  0.697000
0.046333  -0.112524  0.695000
0.047657  -0.112524  0.695000
0.048981  -0.112524  0.695000
0.050305  -0.112524  0.695000
0.051629  -0.112524  0.695000
0.052800  -0.112200  0.693000
0.054120  -0.112200  0.693000
0.055440  -0.112200  0.693000
0.056760  -0.112200  0.693000
0.058080  -0.112200  0.693000
0.059400  -0.112200  0.693000
0.060720  -0.112200  0.693000
0.062040  -0.112200  0.693000
0.063360  -0.112200  0.693000
0.064680  -0.112200  0.693000
0.066000  -0.112200  0.693000
0.067417  -0.112362  0.694000
0.068739  -0.112362  0.694000
0.070061  -0.112362  0.694000
0.071383  -0.112362  0.694000
0.072600  -0.112200  0.693000
0.073920  -0.112200  0.693000
0.075349  -0.112362  0.694000
0.076670  -0.112362  0.694000
0.077992  -0.112362  0.694000
0.079314  -0.112362  0.694000
0.080636  -0.112362  0.694000
0.082076  -0.112524  0.695000
0.083400  -0.112524  0.695000
0.084724  -0.112524  0.695000
0.086048  -0.112524  0.695000
0.087623  -0.112848  0.697000
0.089078  -0.113010  0.698000
0.090667  -0.113333  0.700000
0.092131  -0.113495  0.701000
0.093467  -0.113495  0.701000
0.095072  -0.113819  0.703000
0.096411  -0.113819  0.703000
0.097890  -0.113981  0.704000
0.099371  -0.114143  0.705000
0.101143  -0.114629  0.708000
0.102491  -0.114629  0.708000
0.104133  -0.114952  0.710000
0.105634  -0.115114  0.711000
0.106989  -0.115114  0.711000
0.108343  -0.115114  0.711000
0.110006  -0.115438  0.713000
0.128914  -0.114143  0.705000
0.130257  -0.114143  0.705000
0.131600  -0.114143  0.705000
0.132943  -0.114143  0.705000
0.134667  -0.114467  0.707000
0.136013  -0.114467  0.707000
0.137360  -0.114467  0.707000
0.138707  -0.114467  0.707000
-0.525840  -0.144480  0.882000
-0.524160  -0.144480  0.882000
-0.523665  -0.144808  0.884000
-0.521981  -0.144808  0.884000
-0.523240  -0.145627  0.889000
-0.524480  -0.146446  0.894000
-0.522777  -0.146446  0.894000
-0.516994  -0.145299  0.887000
-0.515305  -0.145299  0.887000
-0.515931  -0.145954  0.891000
-0.518274  -0.147101  0.898000
-0.516564  -0.147101  0.898000
-0.506827  -0.144808  0.884000
-0.505143  -0.144808  0.884000
-0.506307  -0.145627  0.889000
-0.504613  -0.145627  0.889000
-0.502920  -0.145627  0.889000
-0.498408  -0.144808  0.884000
-0.496724  -0.144808  0.884000
-0.495040  -0.144808  0.884000
-0.493356  -0.144808  0.884000
-0.491672  -0.144808  0.884000
-0.489989  -0.144808  0.884000
-0.488305  -0.144808  0.884000
-0.486621  -0.144808  0.884000
-0.484937  -0.144808  0.884000
-0.482160  -0.144480  0.882000
-0.480480  -0.144480  0.882000
-0.374571  -0.113029  0.690000
-0.373257  -0.113029  0.690000
-0.371943  -0.113029  0.690000
-0.371166  -0.113192  0.691000
-0.369850  -0.113192  0.691000
-0.368000  -0.113029  0.690000
-0.365091  -0.112537  0.687000
-0.363253  -0.112373  0.686000
-0.361947  -0.112373  0.686000
-0.359589  -0.112046  0.684000
-0.358286  -0.112046  0.684000
-0.356461  -0.111882  0.683000
-0.354640  -0.111718  0.682000
-0.352305  -0.111390  0.680000
-0.349977  -0.111063  0.678000
-0.348686  -0.111063  0.678000
-0.345857  -0.110571  0.675000
-0.344061  -0.110408  0.674000
-0.342777  -0.110408  0.674000
-0.341493  -0.110408  0.674000
-0.339200  -0.110080  0.672000
-0.337920  -0.110080  0.672000
-0.336139  -0.109916  0.671000
-0.333863  -0.109589  0.669000
-0.331594  -0.109261  0.667000
-0.329829  -0.109097  0.666000
-0.328067  -0.108933  0.665000
-0.326800  -0.108933  0.665000
-0.324554  -0.108606  0.663000
-0.322804  -0.108442  0.662000
-0.321057  -0.108278  0.661000
-0.319798  -0.108278  0.661000
-0.318539  -0.108278  0.661000
-0.316800  -0.108114  0.660000
-0.315543  -0.108114  0.660000
-0.314762  -0.108278  0.661000
-0.313503  -0.108278  0.661000
-0.312244  -0.108278  0.661000
-0.311926  -0.108606  0.663000
-0.310663  -0.108606  0.663000
-0.309400  -0.108606  0.663000
-0.309067  -0.108933  0.665000
-0.308263  -0.109097  0.666000
-0.307455  -0.109261  0.667000
-0.307103  -0.109589  0.669000
-0.306743  -0.109916  0.671000
-0.305920  -0.110080  0.672000
-0.305547  -0.110408  0.674000
-0.304714  -0.110571  0.675000
-0.303429  -0.110571  0.675000
-0.302590  -0.110735  0.676000
-0.301303  -0.110735  0.676000
-0.300903  -0.111063  0.678000
-0.300053  -0.111227  0.679000
-0.298760  -0.111227  0.679000
-0.297905  -0.111390  0.680000
-0.297482  -0.111718  0.682000
-0.296183  -0.111718  0.682000
-0.295316  -0.111882  0.683000
-0.294446  -0.112046  0.684000
-0.294000  -0.112373  0.686000
-0.292693  -0.112373  0.686000
-0.291811  -0.112537  0.687000
-0.291349  -0.112865  0.689000
-0.290457  -0.113029  0.690000
-0.289562  -0.113192  0.691000
-0.288246  -0.113192  0.691000
-0.288175  -0.113684  0.694000
-0.286853  -0.113684  0.694000
-0.285943  -0.113848  0.695000
-0.284619  -0.113848  0.695000
-0.284110  -0.114175  0.697000
-0.283189  -0.114339  0.698000
-0.283878  -0.115158  0.703000
-0.282941  -0.115322  0.704000
-0.282000  -0.115486  0.705000
-0.280657  -0.115486  0.705000
-0.280107  -0.115813  0.707000
-0.278760  -0.115813  0.707000
-0.277413  -0.115813  0.707000
-0.276457  -0.115977  0.708000
-0.275109  -0.115977  0.708000
-0.275693  -0.116796  0.713000
-0.274720  -0.116960  0.714000
-0.274126  -0.117288  0.716000
-0.273143  -0.117451  0.717000
-0.271777  -0.117451  0.717000
-0.271166  -0.117779  0.719000
-0.270171  -0.117943  0.720000
-0.269547  -0.118270  0.722000
-0.269286  -0.118762  0.725000
-0.267905  -0.118762  0.725000
-0.266524  -0.118762  0.725000
-0.265143  -0.118762  0.725000
-0.264126  -0.118926  0.726000
-0.263467  -0.119253  0.728000
-0.262440  -0.119417  0.729000
-0.261768  -0.119745  0.731000
-0.260375  -0.119745  0.731000
-0.259337  -0.119909  0.732000
-0.259352  -0.120564  0.736000
-0.258301  -0.120728  0.737000
-0.257594  -0.121055  0.739000
-0.256533  -0.121219  0.740000
-0.255813  -0.121547  0.742000
-0.254400  -0.121547  0.742000
-0.253328  -0.121710  0.743000
-0.252590  -0.122038  0.745000
-0.251171  -0.122038  0.745000
-0.249752  -0.122038  0.745000
-0.249000  -0.122366  0.747000
-0.247909  -0.122530  0.748000
-0.247143  -0.122857  0.750000
-0.245714  -0.122857  0.750000
-0.244937  -0.123185  0.752000
-0.243829  -0.123349  0.753000
-0.243038  -0.123676  0.755000
-0.241920  -0.123840  0.756000
-0.241116  -0.124168  0.758000
-0.240305  -0.124495  0.760000
-0.239171  -0.124659  0.761000
-0.237722  -0.124659  0.761000
-0.237514  -0.125314  0.765000
-0.236057  -0.125314  0.765000
-0.235213  -0.125642  0.767000
-0.234057  -0.125806  0.768000
-0.232594  -0.125806  0.768000
-0.231733  -0.126133  0.770000
-0.230865  -0.126461  0.772000
-0.229691  -0.126625  0.773000
-0.260762  -0.151524  0.925000
-0.258160  -0.151032  0.922000
-0.256404  -0.151032  0.922000
-0.255476  -0.151524  0.925000
-0.253714  -0.151524  0.925000
-0.251952  -0.151524  0.925000
-0.250731  -0.151851  0.927000
-0.248966  -0.151851  0.927000
-0.248000  -0.152343  0.930000
-0.246229  -0.152343  0.930000
-0.237360  -0.147920  0.903000
-0.235640  -0.147920  0.903000
-0.233920  -0.147920  0.903000
-0.232200  -0.147920  0.903000
-0.230480  -0.147920  0.903000
-0.228760  -0.147920  0.903000
-0.227040  -0.147920  0.903000
-0.231309  -0.151851  0.927000
-0.229543  -0.151851  0.927000
-0.227777  -0.151851  0.927000
-0.226011  -0.151851  0.927000
-0.224246  -0.151851  0.927000
-0.222000  -0.151524  0.925000
-0.220238  -0.151524  0.925000
-0.218476  -0.151524  0.925000
-0.216011  -0.151032  0.922000
-0.213790  -0.150705  0.920000
-0.212038  -0.150705  0.920000
-0.210286  -0.150705  0.920000
-0.208533  -0.150705  0.920000
-0.204533  -0.149067  0.910000
-0.202800  -0.149067  0.910000
-0.202171  -0.149886  0.915000
-0.200429  -0.149886  0.915000
-0.193457  -0.149886  0.915000
-0.191714  -0.149886  0.915000
-0.189971  -0.149886  0.915000
-0.188229  -0.149886  0.915000
-0.186486  -0.149886  0.915000
-0.183330  -0.148739  0.908000
-0.181600  -0.148739  0.908000
-0.180861  -0.149558  0.913000
-0.179122  -0.149558  0.913000
-0.177383  -0.149558  0.913000
-0.175644  -0.149558  0.913000
-0.174286  -0.149886  0.915000
-0.172166  -0.149558  0.913000
-0.170427  -0.149558  0.913000
-0.169057  -0.149886  0.915000
-0.168229  -0.150705  0.920000
-0.168286  -0.152343  0.930000
-0.160785  -0.147101  0.898000
-0.157834  -0.145954  0.891000
-0.156137  -0.145954  0.891000
-0.154093  -0.145627  0.889000
-0.143143  -0.136781  0.835000
-0.141213  -0.136453  0.833000
-0.139627  -0.136453  0.833000
-0.138040  -0.136453  0.833000
-0.136126  -0.136126  0.831000
-0.134543  -0.136126  0.831000
-0.132640  -0.135798  0.829000
-0.131061  -0.135798  0.829000
-0.129482  -0.135798  0.829000
-0.127903  -0.135798  0.829000
-0.126019  -0.135470  0.827000
-0.124143  -0.135143  0.825000
-0.122274  -0.134815  0.823000
-0.120707  -0.134815  0.823000
-0.119139  -0.134815  0.823000
-0.117571  -0.134815  0.823000
-0.115722  -0.134488  0.821000
-0.114158  -0.134488  0.821000
-0.112594  -0.134488  0.821000
-0.111030  -0.134488  0.821000
-0.109467  -0.134488  0.821000
-0.107903  -0.134488  0.821000
-0.106598  -0.134815  0.823000
-0.105030  -0.134815  0.823000
-0.103463  -0.134815  0.823000
-0.101895  -0.134815  0.823000
-0.100328  -0.134815  0.823000
-0.098760  -0.134815  0.823000
-0.097192  -0.134815  0.823000
-0.095625  -0.134815  0.823000
-0.094286  -0.135143  0.825000
-0.092939  -0.135470  0.827000
-0.091364  -0.135470  0.827000
-0.090006  -0.135798  0.829000
-0.088427  -0.135798  0.829000
-0.087057  -0.136126  0.831000
-0.085474  -0.136126  0.831000
-0.084093  -0.136453  0.833000
-0.082705  -0.136781  0.835000
-0.081309  -0.137109  0.837000
-0.079905  -0.137436  0.839000
-0.078493  -0.137764  0.841000
-0.077074  -0.138091  0.843000
-0.075469  -0.138091  0.843000
-0.073863  -0.138091  0.843000
-0.072257  -0.138091  0.843000
-0.070651  -0.138091  0.843000
-0.076990  -0.153981  0.940000
-0.075200  -0.153981  0.940000
-0.073410  -0.153981  0.940000
-0.071390  -0.153490  0.937000
-0.069457  -0.153162  0.935000
-0.067676  -0.153162  0.935000
-0.064979  -0.151032  0.922000
-0.063223  -0.151032  0.922000
-0.061800  -0.151851  0.927000
-0.060034  -0.151851  0.927000
-0.058269  -0.151851  0.927000
-0.056503  -0.151851  0.927000
-0.054737  -0.151851  0.927000
-0.053143  -0.152343  0.930000
-0.051371  -0.152343  0.930000
-0.049440  -0.151851  0.927000
-0.047674  -0.151851  0.927000
-0.045909  -0.151851  0.927000
-0.044143  -0.151851  0.927000
-0.042743  -0.153162  0.935000
-0.040962  -0.153162  0.935000
-0.039181  -0.153162  0.935000
-0.037200  -0.152343  0.930000
-0.035429  -0.152343  0.930000
-0.033549  -0.151851  0.927000
-0.031783  -0.151851  0.927000
-0.030017  -0.151851  0.927000
-0.028251  -0.151851  0.927000
-0.026857  -0.153981  0.940000
-0.025200  -0.154800  0.945000
-0.023202  -0.153490  0.937000
-0.021417  -0.153490  0.937000
-0.019632  -0.153490  0.937000
-0.017905  -0.153981  0.940000
-0.016114  -0.153981  0.940000
-0.014324  -0.153981  0.940000
-0.012467  -0.153162  0.935000
-0.010686  -0.153162  0.935000
-0.008905  -0.153162  0.935000
-0.007010  -0.150705  0.920000
-0.005257  -0.150705  0.920000
-0.003505  -0.150705  0.920000
-0.001752  -0.150705  0.920000
0.000000  -0.150705  0.920000
0.001752  -0.150705  0.920000
0.003505  -0.150705  0.920000
0.005257  -0.150705  0.920000
0.007010  -0.150705  0.920000
0.008762  -0.150705  0.920000
0.010480  -0.150213  0.917000
0.012227  -0.150213  0.917000
0.014095  -0.151524  0.925000
0.015891  -0.151851  0.927000
0.017657  -0.151851  0.927000
0.019423  -0.151851  0.927000
0.021189  -0.151851  0.927000
0.022954  -0.151851  0.927000
0.024667  -0.151524  0.925000
0.026429  -0.151524  0.925000
0.028251  -0.151851  0.927000
0.023217  -0.117451  0.717000
0.024583  -0.117451  0.717000
0.025840  -0.116960  0.714000
0.027200  -0.116960  0.714000
0.028440  -0.116469  0.711000
0.029752  -0.116305  0.710000
0.031017  -0.115977  0.708000
0.032320  -0.115813  0.707000
0.033571  -0.115486  0.705000
0.034914  -0.115486  0.705000
0.036206  -0.115322  0.704000
0.037493  -0.115158  0.703000
0.038722  -0.114830  0.701000
0.040057  -0.114830  0.701000
0.041333  -0.114667  0.700000
0.042484  -0.114175  0.697000
0.043811  -0.114175  0.697000
0.045139  -0.114175  0.697000
0.046333  -0.113848  0.695000
0.047657  -0.113848  0.695000
0.048981  -0.113848  0.695000
0.050305  -0.113848  0.695000
0.051554  -0.113684  0.694000
0.052800  -0.113520  0.693000
0.054120  -0.113520  0.693000
0.055440  -0.113520  0.693000
0.056760  -0.113520  0.693000
0.058080  -0.113520  0.693000
0.059400  -0.113520  0.693000
0.060720  -0.113520  0.693000
0.062040  -0.113520  0.693000
0.063360  -0.113520  0.693000
0.064680  -0.113520  0.693000
0.066000  -0.113520  0.693000
0.067417  -0.113684  0.694000
0.068739  -0.113684  0.694000
0.070061  -0.113684  0.694000
0.071383  -0.113684  0.694000
0.072600  -0.113520  0.693000
0.073920  -0.113520  0.693000
0.075349  -0.113684  0.694000
0.076670  -0.113684  0.694000
0.077992  -0.113684  0.694000
0.079314  -0.113684  0.694000
0.080636  -0.113684  0.694000
0.082076  -0.113848  0.695000
0.083400  -0.113848  0.695000
0.084724  -0.113848  0.695000
0.086048  -0.113848  0.695000
0.087623  -0.114175  0.697000
0.089333  -0.114667  0.700000
0.090667  -0.114667  0.700000
0.092131  -0.114830  0.701000
0.093467  -0.114830  0.701000
0.095072  -0.115158  0.703000
0.096411  -0.115158  0.703000
0.097890  -0.115322  0.704000
0.099371  -0.115486  0.705000
0.101143  -0.115977  0.708000
0.102491  -0.115977  0.708000
0.104133  -0.116305  0.710000
0.105634  -0.116469  0.711000
0.107290  -0.116796  0.713000
0.108648  -0.116796  0.713000
0.110006  -0.116796  0.713000
0.128914  -0.115486  0.705000
0.130257  -0.115486  0.705000
0.131600  -0.115486  0.705000
0.132943  -0.115486  0.705000
0.134286  -0.115486  0.705000
0.135629  -0.115486  0.705000
0.136971  -0.115486  0.705000
0.138707  -0.115813  0.707000
-0.525840  -0.146160  0.882000
-0.522971  -0.145829  0.880000
-0.521295  -0.145829  0.880000
-0.519619  -0.145829  0.880000
-0.520297  -0.146491  0.884000
-0.518613  -0.146491  0.884000
-0.516930  -0.146491  0.884000
-0.514080  -0.146160  0.882000
-0.512400  -0.146160  0.882000
-0.511878  -0.146491  0.884000
-0.510194  -0.146491  0.884000
-0.506210  -0.145829  0.880000
-0.504533  -0.145829  0.880000
-0.502857  -0.145829  0.880000
-0.506307  -0.147320  0.889000
-0.504613  -0.147320  0.889000
-0.497829  -0.145829  0.880000
-0.496152  -0.145829  0.880000
-0.494476  -0.145829  0.880000
-0.492800  -0.145829  0.880000
-0.492240  -0.146160  0.882000
-0.490560  -0.146160  0.882000
-0.488880  -0.146160  0.882000
-0.487200  -0.146160  0.882000
-0.485520  -0.146160  0.882000
-0.483840  -0.146160  0.882000
-0.482160  -0.146160  0.882000
-0.480480  -0.146160  0.882000
-0.375114  -0.114509  0.691000
-0.373798  -0.114509  0.691000
-0.372482  -0.114509  0.691000
-0.371166  -0.114509  0.691000
-0.369850  -0.114509  0.691000
-0.368533  -0.114509  0.691000
-0.366686  -0.114343  0.690000
-0.363783  -0.113846  0.687000
-0.361947  -0.113680  0.686000
-0.360640  -0.113680  0.686000
-0.358286  -0.113349  0.684000
-0.356461  -0.113183  0.683000
-0.354640  -0.113017  0.682000
-0.352305  -0.112686  0.680000
-0.349977  -0.112354  0.678000
-0.348686  -0.112354  0.678000
-0.345857  -0.111857  0.675000
-0.344571  -0.111857  0.675000
-0.342777  -0.111691  0.674000
-0.341493  -0.111691  0.674000
-0.339200  -0.111360  0.672000
-0.337417  -0.111194  0.671000
-0.335638  -0.111029  0.670000
-0.333863  -0.110863  0.669000
-0.331594  -0.110531  0.667000
-0.329829  -0.110366  0.666000
-0.328067  -0.110200  0.665000
-0.326800  -0.110200  0.665000
-0.324554  -0.109869  0.663000
-0.322804  -0.109703  0.662000
-0.321057  -0.109537  0.661000
-0.319798  -0.109537  0.661000
-0.318539  -0.109537  0.661000
-0.317280  -0.109537  0.661000
-0.316021  -0.109537  0.661000
-0.314762  -0.109537  0.661000
-0.313503  -0.109537  0.661000
-0.312244  -0.109537  0.661000
-0.311926  -0.109869  0.663000
-0.310663  -0.109869  0.663000
-0.309400  -0.109869  0.663000
-0.309067  -0.110200  0.665000
-0.308263  -0.110366  0.666000
-0.307455  -0.110531  0.667000
-0.307103  -0.110863  0.669000
-0.306743  -0.111194  0.671000
-0.306830  -0.111691  0.674000
-0.305547  -0.111691  0.674000
-0.304714  -0.111857  0.675000
-0.303878  -0.112023  0.676000
-0.302590  -0.112023  0.676000
-0.302194  -0.112354  0.678000
-0.300903  -0.112354  0.678000
-0.300053  -0.112520  0.679000
-0.298760  -0.112520  0.679000
-0.297905  -0.112686  0.680000
-0.297482  -0.113017  0.682000
-0.296617  -0.113183  0.683000
-0.295749  -0.113349  0.684000
-0.294446  -0.113349  0.684000
-0.294000  -0.113680  0.686000
-0.293120  -0.113846  0.687000
-0.291811  -0.113846  0.687000
-0.291349  -0.114177  0.689000
-0.290457  -0.114343  0.690000
-0.289562  -0.114509  0.691000
-0.288246  -0.114509  0.691000
-0.288175  -0.115006  0.694000
-0.286853  -0.115006  0.694000
-0.285943  -0.115171  0.695000
-0.284619  -0.115171  0.695000
-0.284110  -0.115503  0.697000
-0.284000  -0.116000  0.700000
-0.283070  -0.116166  0.701000
-0.282941  -0.116663  0.704000
-0.282000  -0.116829  0.705000
-0.280657  -0.116829  0.705000
-0.280107  -0.117160  0.707000
-0.278760  -0.117160  0.707000
-0.277413  -0.117160  0.707000
-0.276457  -0.117326  0.708000
-0.275109  -0.117326  0.708000
-0.275693  -0.118154  0.713000
-0.274720  -0.118320  0.714000
-0.274126  -0.118651  0.716000
-0.272762  -0.118651  0.716000
-0.271777  -0.118817  0.717000
-0.271166  -0.119149  0.719000
-0.270171  -0.119314  0.720000
-0.269920  -0.119811  0.723000
-0.269286  -0.120143  0.725000
-0.267905  -0.120143  0.725000
-0.266524  -0.120143  0.725000
-0.265509  -0.120309  0.726000
-0.264126  -0.120309  0.726000
-0.263467  -0.120640  0.728000
-0.262440  -0.120806  0.729000
-0.261768  -0.121137  0.731000
-0.260731  -0.121303  0.732000
-0.259337  -0.121303  0.732000
-0.259352  -0.121966  0.736000
-0.258301  -0.122131  0.737000
-0.257594  -0.122463  0.739000
-0.256533  -0.122629  0.740000
-0.255813  -0.122960  0.742000
-0.254743  -0.123126  0.743000
-0.253328  -0.123126  0.743000
-0.252590  -0.123457  0.745000
-0.251171  -0.123457  0.745000
-0.249752  -0.123457  0.745000
-0.249000  -0.123789  0.747000
-0.247909  -0.123954  0.748000
-0.247143  -0.124286  0.750000
-0.245714  -0.124286  0.750000
-0.244937  -0.124617  0.752000
-0.243829  -0.124783  0.753000
-0.243360  -0.125280  0.756000
-0.242560  -0.125611  0.758000
-0.241752  -0.125943  0.760000
-0.240305  -0.125943  0.760000
-0.239171  -0.126109  0.761000
-0.238347  -0.126440  0.763000
-0.237514  -0.126771  0.765000
-0.236674  -0.127103  0.767000
-0.235520  -0.127269  0.768000
-0.234057  -0.127269  0.768000
-0.232594  -0.127269  0.768000
-0.231733  -0.127600  0.770000
-0.230267  -0.127600  0.770000
-0.229394  -0.127931  0.772000
-0.258160  -0.152789  0.922000
-0.256404  -0.152789  0.922000
-0.255476  -0.153286  0.925000
-0.253714  -0.153286  0.925000
-0.251952  -0.153286  0.925000
-0.242888  -0.148811  0.898000
-0.241983  -0.149309  0.901000
-0.240267  -0.149309  0.901000
-0.238550  -0.149309  0.901000
-0.236834  -0.149309  0.901000
-0.235640  -0.149640  0.903000
-0.233920  -0.149640  0.903000
-0.232200  -0.149640  0.903000
-0.230480  -0.149640  0.903000
-0.228253  -0.149309  0.901000
-0.226537  -0.149309  0.901000
-0.224821  -0.149309  0.901000
-0.229543  -0.153617  0.927000
-0.227777  -0.153617  0.927000
-0.226011  -0.153617  0.927000
-0.224246  -0.153617  0.927000
-0.221280  -0.152789  0.922000
-0.219524  -0.152789  0.922000
-0.217295  -0.152457  0.920000
-0.215543  -0.152457  0.920000
-0.213093  -0.151960  0.917000
-0.211347  -0.151960  0.917000
-0.209600  -0.151960  0.917000
-0.206947  -0.151297  0.913000
-0.204533  -0.150800  0.910000
-0.202800  -0.150800  0.910000
-0.202171  -0.151629  0.915000
-0.200429  -0.151629  0.915000
-0.189556  -0.151297  0.913000
-0.187817  -0.151297  0.913000
-0.186078  -0.151297  0.913000
-0.183330  -0.150469  0.908000
-0.181600  -0.150469  0.908000
-0.180267  -0.150800  0.910000
-0.179122  -0.151297  0.913000
-0.176800  -0.150800  0.910000
-0.175067  -0.150800  0.910000
-0.173905  -0.151297  0.913000
-0.171223  -0.150469  0.908000
-0.169493  -0.150469  0.908000
-0.168133  -0.150800  0.910000
-0.166949  -0.151297  0.913000
-0.163038  -0.149309  0.901000
-0.160785  -0.148811  0.898000
-0.158720  -0.148480  0.896000
-0.156663  -0.148149  0.894000
-0.145080  -0.138703  0.837000
-0.143143  -0.138371  0.835000
-0.141552  -0.138371  0.835000
-0.139627  -0.138040  0.833000
-0.137709  -0.137709  0.831000
-0.136126  -0.137709  0.831000
-0.134543  -0.137709  0.831000
-0.132640  -0.137377  0.829000
-0.131061  -0.137377  0.829000
-0.129482  -0.137377  0.829000
-0.127903  -0.137377  0.829000
-0.126324  -0.137377  0.829000
-0.124444  -0.137046  0.827000
-0.122274  -0.136383  0.823000
-0.120707  -0.136383  0.823000
-0.119139  -0.136383  0.823000
-0.117571  -0.136383  0.823000
-0.115722  -0.136051  0.821000
-0.114158  -0.136051  0.821000
-0.112594  -0.136051  0.821000
-0.111030  -0.136051  0.821000
-0.109467  -0.136051  0.821000
-0.108166  -0.136383  0.823000
-0.106598  -0.136383  0.823000
-0.105030  -0.136383  0.823000
-0.103463  -0.136383  0.823000
-0.101895  -0.136383  0.823000
-0.100328  -0.136383  0.823000
-0.098760  -0.136383  0.823000
-0.097192  -0.136383  0.823000
-0.095625  -0.136383  0.823000
-0.094286  -0.136714  0.825000
-0.092939  -0.137046  0.827000
-0.091364  -0.137046  0.827000
-0.090006  -0.137377  0.829000
-0.088427  -0.137377  0.829000
-0.087057  -0.137709  0.831000
-0.085474  -0.137709  0.831000
-0.084093  -0.138040  0.833000
-0.082903  -0.138703  0.837000
-0.081309  -0.138703  0.837000
-0.079905  -0.139034  0.839000
-0.078307  -0.139034  0.839000
-0.076891  -0.139366  0.841000
-0.075290  -0.139366  0.841000
-0.073863  -0.139697  0.843000
-0.072257  -0.139697  0.843000
-0.070651  -0.139697  0.843000
-0.076990  -0.155771  0.940000
-0.075200  -0.155771  0.940000
-0.070364  -0.149309  0.901000
-0.068648  -0.149309  0.901000
-0.066931  -0.149309  0.901000
-0.065867  -0.150800  0.910000
-0.064627  -0.151960  0.917000
-0.062880  -0.151960  0.917000
-0.061333  -0.152457  0.920000
-0.059581  -0.152457  0.920000
-0.057640  -0.151960  0.917000
-0.055893  -0.151960  0.917000
-0.054737  -0.153617  0.927000
-0.053143  -0.154114  0.930000
-0.051371  -0.154114  0.930000
-0.048533  -0.150800  0.910000
-0.046800  -0.150800  0.910000
-0.045067  -0.150800  0.910000
-0.043667  -0.151960  0.917000
-0.042057  -0.152457  0.920000
-0.039998  -0.151297  0.913000
-0.038133  -0.150800  0.910000
-0.036400  -0.150800  0.910000
-0.034667  -0.150800  0.910000
-0.033549  -0.153617  0.927000
-0.031371  -0.151629  0.915000
-0.029629  -0.151629  0.915000
-0.028251  -0.153617  0.927000
-0.026486  -0.153617  0.927000
-0.024213  -0.150469  0.908000
-0.023202  -0.155274  0.937000
-0.021417  -0.155274  0.937000
-0.019632  -0.155274  0.937000
-0.017848  -0.155274  0.937000
-0.016063  -0.155274  0.937000
-0.014324  -0.155771  0.940000
-0.012400  -0.154114  0.930000
-0.010514  -0.152457  0.920000
-0.008762  -0.152457  0.920000
-0.007010  -0.152457  0.920000
-0.005257  -0.152457  0.920000
-0.003505  -0.152457  0.920000
-0.001752  -0.152457  0.920000
0.000000  -0.152457  0.920000
0.001747  -0.151960  0.917000
0.003493  -0.151960  0.917000
0.005240  -0.151960  0.917000
0.006987  -0.151960  0.917000
0.008762  -0.152457  0.920000
0.010480  -0.151960  0.917000
0.012227  -0.151960  0.917000
0.013973  -0.151960  0.917000
0.015806  -0.152789  0.922000
0.017562  -0.152789  0.922000
0.019318  -0.152789  0.922000
0.021074  -0.152789  0.922000
0.022830  -0.152789  0.922000
0.024587  -0.152789  0.922000
0.026343  -0.152789  0.922000
0.028099  -0.152789  0.922000
0.023185  -0.118651  0.716000
0.024549  -0.118651  0.716000
0.025840  -0.118320  0.714000
0.027200  -0.118320  0.714000
0.028520  -0.118154  0.713000
0.029752  -0.117657  0.710000
0.031017  -0.117326  0.708000
0.032229  -0.116829  0.705000
0.033571  -0.116829  0.705000
0.034865  -0.116663  0.704000
0.036154  -0.116497  0.703000
0.037493  -0.116497  0.703000
0.038722  -0.116166  0.701000
0.040057  -0.116166  0.701000
0.041333  -0.116000  0.700000
0.042545  -0.115669  0.698000
0.043811  -0.115503  0.697000
0.045139  -0.115503  0.697000
0.046333  -0.115171  0.695000
0.047657  -0.115171  0.695000
0.048981  -0.115171  0.695000
0.050305  -0.115171  0.695000
0.051554  -0.115006  0.694000
0.052876  -0.115006  0.694000
0.054198  -0.115006  0.694000
0.055520  -0.115006  0.694000
0.056842  -0.115006  0.694000
0.058164  -0.115006  0.694000
0.059486  -0.115006  0.694000
0.060808  -0.115006  0.694000
0.062130  -0.115006  0.694000
0.063451  -0.115006  0.694000
0.064773  -0.115006  0.694000
0.066095  -0.115006  0.694000
0.067417  -0.115006  0.694000
0.068739  -0.115006  0.694000
0.070061  -0.115006  0.694000
0.071383  -0.115006  0.694000
0.072705  -0.115006  0.694000
0.074027  -0.115006  0.694000
0.075349  -0.115006  0.694000
0.076670  -0.115006  0.694000
0.077992  -0.115006  0.694000
0.079314  -0.115006  0.694000
0.080752  -0.115171  0.695000
0.082076  -0.115171  0.695000
0.083400  -0.115171  0.695000
0.084968  -0.115503  0.697000
0.086295  -0.115503  0.697000
0.087749  -0.115669  0.698000
0.089333  -0.116000  0.700000
0.090667  -0.116000  0.700000
0.092131  -0.116166  0.701000
0.093467  -0.116166  0.701000
0.095072  -0.116497  0.703000
0.096411  -0.116497  0.703000
0.097890  -0.116663  0.704000
0.099653  -0.117160  0.707000
0.101143  -0.117326  0.708000
0.102781  -0.117657  0.710000
0.104280  -0.117823  0.711000
0.105634  -0.117823  0.711000
0.107290  -0.118154  0.713000
0.108648  -0.118154  0.713000
0.110006  -0.118154  0.713000
0.130257  -0.116829  0.705000
0.131600  -0.116829  0.705000
0.132943  -0.116829  0.705000
0.134286  -0.116829  0.705000
0.135629  -0.116829  0.705000
0.136971  -0.116829  0.705000
0.138707  -0.117160  0.707000
0.140053  -0.117160  0.707000
-0.523455  -0.147170  0.878000
-0.521783  -0.147170  0.878000
-0.520110  -0.147170  0.878000
-0.518438  -0.147170  0.878000
-0.517943  -0.147505  0.880000
-0.516267  -0.147505  0.880000
-0.511667  -0.146667  0.875000
-0.510000  -0.146667  0.875000
-0.508333  -0.146667  0.875000
-0.511878  -0.148175  0.884000
-0.510194  -0.148175  0.884000
-0.503333  -0.146667  0.875000
-0.501667  -0.146667  0.875000
-0.500000  -0.146667  0.875000
-0.497194  -0.146331  0.873000
-0.495531  -0.146331  0.873000
-0.493869  -0.146331  0.873000
-0.492206  -0.146331  0.873000
-0.493352  -0.147170  0.878000
-0.491680  -0.147170  0.878000
-0.490008  -0.147170  0.878000
-0.488335  -0.147170  0.878000
-0.488880  -0.147840  0.882000
-0.487200  -0.147840  0.882000
-0.485520  -0.147840  0.882000
-0.482743  -0.147505  0.880000
-0.481067  -0.147505  0.880000
-0.479390  -0.147505  0.880000
-0.375114  -0.115825  0.691000
-0.373798  -0.115825  0.691000
-0.372482  -0.115825  0.691000
-0.371166  -0.115825  0.691000
-0.369850  -0.115825  0.691000
-0.368533  -0.115825  0.691000
-0.366686  -0.115657  0.690000
-0.363783  -0.115154  0.687000
-0.362474  -0.115154  0.687000
-0.360640  -0.114987  0.686000
-0.359333  -0.114987  0.686000
-0.356983  -0.114651  0.684000
-0.354640  -0.114316  0.682000
-0.352305  -0.113981  0.680000
-0.350493  -0.113813  0.679000
-0.349200  -0.113813  0.679000
-0.345857  -0.113143  0.675000
-0.344571  -0.113143  0.675000
-0.342777  -0.112975  0.674000
-0.341493  -0.112975  0.674000
-0.339200  -0.112640  0.672000
-0.337417  -0.112472  0.671000
-0.335638  -0.112305  0.670000
-0.333863  -0.112137  0.669000
-0.331594  -0.111802  0.667000
-0.329829  -0.111634  0.666000
-0.328067  -0.111467  0.665000
-0.326800  -0.111467  0.665000
-0.324554  -0.111131  0.663000
-0.323291  -0.111131  0.663000
-0.321543  -0.110964  0.662000
-0.319798  -0.110796  0.661000
-0.318539  -0.110796  0.661000
-0.317280  -0.110796  0.661000
-0.316021  -0.110796  0.661000
-0.314762  -0.110796  0.661000
-0.313503  -0.110796  0.661000
-0.312716  -0.110964  0.662000
-0.311926  -0.111131  0.663000
-0.310663  -0.111131  0.663000
-0.310333  -0.111467  0.665000
-0.309067  -0.111467  0.665000
-0.308263  -0.111634  0.666000
-0.307455  -0.111802  0.667000
-0.306185  -0.111802  0.667000
-0.305829  -0.112137  0.669000
-0.306830  -0.112975  0.674000
-0.305547  -0.112975  0.674000
-0.304714  -0.113143  0.675000
-0.303878  -0.113310  0.676000
-0.302590  -0.113310  0.676000
-0.301303  -0.113310  0.676000
-0.300903  -0.113646  0.678000
-0.300053  -0.113813  0.679000
-0.298760  -0.113813  0.679000
-0.297905  -0.113981  0.680000
-0.297482  -0.114316  0.682000
-0.296617  -0.114484  0.683000
-0.295749  -0.114651  0.684000
-0.294446  -0.114651  0.684000
-0.294000  -0.114987  0.686000
-0.293120  -0.115154  0.687000
-0.292661  -0.115490  0.689000
-0.291771  -0.115657  0.690000
-0.290457  -0.115657  0.690000
-0.289562  -0.115825  0.691000
-0.289080  -0.116160  0.693000
-0.288175  -0.116328  0.694000
-0.286853  -0.116328  0.694000
-0.285943  -0.116495  0.695000
-0.284619  -0.116495  0.695000
-0.284110  -0.116830  0.697000
-0.284000  -0.117333  0.700000
-0.283070  -0.117501  0.701000
-0.282539  -0.117836  0.703000
-0.282000  -0.118171  0.705000
-0.280657  -0.118171  0.705000
-0.280107  -0.118507  0.707000
-0.278760  -0.118507  0.707000
-0.277413  -0.118507  0.707000
-0.276457  -0.118674  0.708000
-0.275886  -0.119010  0.710000
-0.275693  -0.119512  0.713000
-0.274720  -0.119680  0.714000
-0.274126  -0.120015  0.716000
-0.272762  -0.120015  0.716000
-0.271777  -0.120183  0.717000
-0.271166  -0.120518  0.719000
-0.270171  -0.120686  0.720000
-0.269920  -0.121189  0.723000
-0.269286  -0.121524  0.725000
-0.267905  -0.121524  0.725000
-0.266524  -0.121524  0.725000
-0.265509  -0.121691  0.726000
-0.264126  -0.121691  0.726000
-0.263467  -0.122027  0.728000
-0.262440  -0.122194  0.729000
-0.261768  -0.122530  0.731000
-0.260731  -0.122697  0.732000
-0.260046  -0.123032  0.734000
-0.259352  -0.123368  0.736000
-0.258301  -0.123535  0.737000
-0.257594  -0.123870  0.739000
-0.256533  -0.124038  0.740000
-0.255813  -0.124373  0.742000
-0.254743  -0.124541  0.743000
-0.253328  -0.124541  0.743000
-0.252590  -0.124876  0.745000
-0.251171  -0.124876  0.745000
-0.249752  -0.124876  0.745000
-0.249000  -0.125211  0.747000
-0.247909  -0.125379  0.748000
-0.247143  -0.125714  0.750000
-0.246370  -0.126050  0.752000
-0.244937  -0.126050  0.752000
-0.243829  -0.126217  0.753000
-0.243360  -0.126720  0.756000
-0.242560  -0.127055  0.758000
-0.241752  -0.127390  0.760000
-0.240621  -0.127558  0.761000
-0.239171  -0.127558  0.761000
-0.238347  -0.127893  0.763000
-0.237514  -0.128229  0.765000
-0.236674  -0.128564  0.767000
-0.235520  -0.128731  0.768000
-0.234057  -0.128731  0.768000
-0.233200  -0.129067  0.770000
-0.231733  -0.129067  0.770000
-0.230267  -0.129067  0.770000
-0.228800  -0.129067  0.770000
-0.245533  -0.149013  0.889000
-0.244389  -0.149349  0.891000
-0.243509  -0.149851  0.894000
-0.242888  -0.150522  0.898000
-0.241177  -0.150522  0.898000
-0.239467  -0.150522  0.898000
-0.237756  -0.150522  0.898000
-0.236834  -0.151025  0.901000
-0.235118  -0.151025  0.901000
-0.233402  -0.151025  0.901000
-0.232200  -0.151360  0.903000
-0.230480  -0.151360  0.903000
-0.227493  -0.150522  0.898000
-0.225783  -0.150522  0.898000
-0.224072  -0.150522  0.898000
-0.222362  -0.150522  0.898000
-0.227777  -0.155383  0.927000
-0.226011  -0.155383  0.927000
-0.224246  -0.155383  0.927000
-0.220800  -0.154210  0.920000
-0.217857  -0.153371  0.915000
-0.216114  -0.153371  0.915000
-0.214840  -0.153707  0.917000
-0.213093  -0.153707  0.917000
-0.211347  -0.153707  0.917000
-0.209600  -0.153707  0.917000
-0.206947  -0.153036  0.913000
-0.204533  -0.152533  0.910000
-0.202800  -0.152533  0.910000
-0.202171  -0.153371  0.915000
-0.200429  -0.153371  0.915000
-0.193930  -0.151025  0.901000
-0.192213  -0.151025  0.901000
-0.190497  -0.151025  0.901000
-0.188781  -0.151025  0.901000
-0.187480  -0.151360  0.903000
-0.185760  -0.151360  0.903000
-0.184040  -0.151360  0.903000
-0.182320  -0.151360  0.903000
-0.180600  -0.151360  0.903000
-0.180267  -0.152533  0.910000
-0.179122  -0.153036  0.913000
-0.176800  -0.152533  0.910000
-0.175067  -0.152533  0.910000
-0.173333  -0.152533  0.910000
-0.171223  -0.152198  0.908000
-0.169493  -0.152198  0.908000
-0.168133  -0.152533  0.910000
-0.166034  -0.152198  0.908000
-0.163038  -0.151025  0.901000
-0.161322  -0.151025  0.901000
-0.159074  -0.150522  0.898000
-0.157013  -0.150187  0.896000
-0.145080  -0.140297  0.837000
